#!ascii version of
1172 2340
4.000000  -9.000000  30.500000  0
-0.500000  -9.000000  30.000000  0
4.500000  -9.000000  29.000000  0
-0.500000  -9.000000  29.000000  0
4.500000  -9.000000  28.000000  0
-0.500000  -9.000000  28.000000  0
4.000000  -9.000000  27.500000  0
3.500000  -9.000000  27.000000  0
-0.500000  -9.000000  27.000000  0
3.500000  -9.000000  26.000000  0
0.000000  -9.500000  26.000000  0
-0.500000  -9.000000  26.000000  0
3.000000  -9.000000  25.500000  0
2.500000  -9.000000  25.000000  0
1.000000  -9.500000  25.000000  0
0.500000  -9.000000  25.000000  0
0.000000  -9.000000  25.500000  0
2.000000  -9.000000  24.500000  0
1.000000  -9.000000  24.500000  0
2.500000  -8.000000  34.000000  0
2.000000  -8.000000  34.500000  0
1.000000  -8.000000  34.500000  0
0.500000  -8.000000  34.000000  0
3.500000  -8.000000  33.000000  0
3.000000  -8.000000  33.500000  0
0.000000  -8.000000  33.500000  0
-0.500000  -8.000000  33.000000  0
3.500000  -8.000000  32.000000  0
-1.000000  -8.500000  32.000000  0
-1.000000  -8.000000  32.500000  0
-1.500000  -8.000000  32.000000  0
3.500000  -8.000000  31.000000  0
-1.000000  -8.500000  31.000000  0
-1.500000  -8.000000  31.000000  0
4.500000  -8.000000  30.000000  0
4.000000  -8.000000  30.500000  0
-1.000000  -8.500000  30.000000  0
-1.500000  -8.000000  30.000000  0
4.500000  -8.000000  29.000000  0
-0.500000  -8.000000  29.000000  0
-1.000000  -8.000000  29.500000  0
4.500000  -8.000000  28.000000  0
-0.500000  -8.000000  28.000000  0
4.000000  -8.000000  27.500000  0
3.500000  -8.000000  27.000000  0
-0.500000  -8.000000  27.000000  0
3.500000  -8.000000  26.000000  0
-0.500000  -8.000000  26.000000  0
3.000000  -8.500000  25.000000  0
3.500000  -8.000000  25.000000  0
0.500000  -8.000000  25.000000  0
0.000000  -8.000000  25.500000  0
3.000000  -8.000000  24.500000  0
2.000000  -8.500000  24.000000  0
2.500000  -8.000000  24.000000  0
1.000000  -8.500000  24.000000  0
0.500000  -8.000000  24.000000  0
2.000000  -8.000000  23.500000  0
1.000000  -8.000000  23.500000  0
2.000000  -7.500000  35.000000  0
2.500000  -7.000000  35.000000  0
2.000000  -7.000000  35.500000  0
1.000000  -7.500000  35.000000  0
1.000000  -7.000000  35.500000  0
0.500000  -7.000000  35.000000  0
2.500000  -7.000000  34.000000  0
0.500000  -7.000000  34.000000  0
3.500000  -7.000000  33.000000  0
3.000000  -7.000000  33.500000  0
0.000000  -7.000000  33.500000  0
-1.000000  -7.500000  33.000000  0
-1.000000  -7.000000  33.500000  0
-1.500000  -7.000000  33.000000  0
4.000000  -7.500000  32.000000  0
4.500000  -7.000000  32.000000  0
4.000000  -7.000000  32.500000  0
-1.500000  -7.000000  32.000000  0
4.000000  -7.500000  31.000000  0
4.500000  -7.000000  31.000000  0
-1.500000  -7.000000  31.000000  0
4.500000  -7.000000  30.000000  0
-1.500000  -7.000000  30.000000  0
4.500000  -7.000000  29.000000  0
-0.500000  -7.000000  29.000000  0
-1.000000  -7.000000  29.500000  0
4.500000  -7.000000  28.000000  0
-0.500000  -7.000000  28.000000  0
4.000000  -7.000000  27.500000  0
3.500000  -7.000000  27.000000  0
-0.500000  -7.000000  27.000000  0
3.500000  -7.000000  26.000000  0
-0.500000  -7.000000  26.000000  0
3.500000  -7.000000  25.000000  0
0.500000  -7.000000  25.000000  0
0.000000  -7.000000  25.500000  0
3.000000  -7.000000  24.500000  0
2.500000  -7.000000  24.000000  0
0.500000  -7.000000  24.000000  0
2.000000  -7.500000  23.000000  0
2.500000  -7.000000  23.000000  0
1.000000  -7.500000  23.000000  0
0.500000  -7.000000  23.000000  0
2.000000  -7.000000  22.500000  0
1.000000  -7.000000  22.500000  0
0.000000  -6.500000  36.000000  0
0.500000  -6.000000  36.000000  0
0.000000  -6.000000  36.500000  0
-0.500000  -6.000000  36.000000  0
2.500000  -6.000000  35.000000  0
2.000000  -6.000000  35.500000  0
1.000000  -6.000000  35.500000  0
0.000000  -6.500000  35.000000  0
-1.000000  -6.500000  35.000000  0
-1.000000  -6.000000  35.500000  0
-1.500000  -6.000000  35.000000  0
2.500000  -6.000000  34.000000  0
0.000000  -6.500000  34.000000  0
-0.500000  -6.000000  34.000000  0
-1.000000  -6.000000  34.500000  0
3.500000  -6.000000  33.000000  0
3.000000  -6.000000  33.500000  0
-1.000000  -6.000000  33.500000  0
-1.500000  -6.000000  33.000000  0
4.500000  -6.000000  32.000000  0
4.000000  -6.000000  32.500000  0
-1.500000  -6.000000  32.000000  0
4.500000  -6.000000  31.000000  0
-1.500000  -6.000000  31.000000  0
4.500000  -6.000000  30.000000  0
-1.500000  -6.000000  30.000000  0
4.000000  -6.500000  29.000000  0
4.000000  -6.000000  29.500000  0
3.500000  -6.000000  29.000000  0
-0.500000  -6.000000  29.000000  0
-1.000000  -6.000000  29.500000  0
4.000000  -6.500000  28.000000  0
3.500000  -6.000000  28.000000  0
-0.500000  -6.000000  28.000000  0
3.500000  -6.000000  27.000000  0
-0.500000  -6.000000  27.000000  0
3.500000  -6.000000  26.000000  0
-0.500000  -6.000000  26.000000  0
3.500000  -6.000000  25.000000  0
0.500000  -6.000000  25.000000  0
0.000000  -6.000000  25.500000  0
3.000000  -6.000000  24.500000  0
2.500000  -6.000000  24.000000  0
0.500000  -6.000000  24.000000  0
2.500000  -6.000000  23.000000  0
0.500000  -6.000000  23.000000  0
2.000000  -6.500000  22.000000  0
2.500000  -6.000000  22.000000  0
1.500000  -6.000000  22.000000  0
1.000000  -6.000000  22.500000  0
2.000000  -6.000000  21.500000  0
1.000000  -5.500000  36.000000  0
1.500000  -5.000000  36.000000  0
1.000000  -5.000000  36.500000  0
0.000000  -5.000000  36.500000  0
-1.000000  -5.500000  36.000000  0
-1.000000  -5.000000  36.500000  0
-1.500000  -5.000000  36.000000  0
2.500000  -5.000000  35.000000  0
2.000000  -5.000000  35.500000  0
-1.500000  -5.000000  35.000000  0
3.000000  -5.500000  34.000000  0
3.500000  -5.000000  34.000000  0
3.000000  -5.000000  34.500000  0
-1.000000  -5.500000  34.000000  0
-1.500000  -5.000000  34.000000  0
3.500000  -5.000000  33.000000  0
-1.500000  -5.000000  33.000000  0
4.500000  -5.000000  32.000000  0
4.000000  -5.000000  32.500000  0
-1.500000  -5.000000  32.000000  0
4.500000  -5.000000  31.000000  0
-1.500000  -5.000000  31.000000  0
4.000000  -5.500000  30.000000  0
4.000000  -5.000000  30.500000  0
3.500000  -5.000000  30.000000  0
-1.000000  -5.500000  30.000000  0
-0.500000  -5.000000  30.000000  0
-1.000000  -5.000000  30.500000  0
3.500000  -5.000000  29.000000  0
-0.500000  -5.000000  29.000000  0
3.500000  -5.000000  28.000000  0
-0.500000  -5.000000  28.000000  0
3.500000  -5.000000  27.000000  0
-0.500000  -5.000000  27.000000  0
3.500000  -5.000000  26.000000  0
-0.500000  -5.000000  26.000000  0
3.000000  -5.500000  25.000000  0
3.000000  -5.000000  25.500000  0
2.500000  -5.000000  25.000000  0
0.500000  -5.000000  25.000000  0
0.000000  -5.000000  25.500000  0
2.500000  -5.000000  24.000000  0
0.500000  -5.000000  24.000000  0
2.500000  -5.000000  23.000000  0
0.500000  -5.000000  23.000000  0
2.000000  -5.500000  22.000000  0
2.000000  -5.000000  22.500000  0
1.000000  -5.000000  22.500000  0
1.500000  -4.000000  36.000000  0
1.000000  -4.000000  36.500000  0
0.000000  -4.000000  36.500000  0
-1.000000  -4.500000  36.000000  0
-0.500000  -4.000000  36.000000  0
3.000000  -4.500000  35.000000  0
3.500000  -4.000000  35.000000  0
3.000000  -4.000000  35.500000  0
2.000000  -4.000000  35.500000  0
-1.000000  -4.500000  35.000000  0
-0.500000  -4.000000  35.000000  0
3.500000  -4.000000  34.000000  0
-1.000000  -4.000000  34.500000  0
-1.500000  -4.000000  34.000000  0
4.000000  -4.500000  33.000000  0
4.500000  -4.000000  33.000000  0
4.000000  -4.000000  33.500000  0
-1.500000  -4.000000  33.000000  0
4.500000  -4.000000  32.000000  0
-1.500000  -4.000000  32.000000  0
4.000000  -4.500000  31.000000  0
4.000000  -4.000000  31.500000  0
3.500000  -4.000000  31.000000  0
-1.000000  -4.500000  31.000000  0
-0.500000  -4.000000  31.000000  0
-1.000000  -4.000000  31.500000  0
3.500000  -4.000000  30.000000  0
-0.500000  -4.000000  30.000000  0
3.500000  -4.000000  29.000000  0
-0.500000  -4.000000  29.000000  0
3.500000  -4.000000  28.000000  0
-0.500000  -4.000000  28.000000  0
3.500000  -4.000000  27.000000  0
-0.500000  -4.000000  27.000000  0
3.500000  -4.000000  26.000000  0
-0.500000  -4.000000  26.000000  0
3.000000  -4.000000  25.500000  0
2.500000  -4.000000  25.000000  0
0.500000  -4.000000  25.000000  0
0.000000  -4.000000  25.500000  0
2.500000  -4.000000  24.000000  0
0.500000  -4.000000  24.000000  0
2.500000  -4.000000  23.000000  0
0.500000  -4.000000  23.000000  0
2.000000  -4.500000  22.000000  0
2.500000  -4.000000  22.000000  0
1.000000  -4.500000  22.000000  0
0.500000  -4.000000  22.000000  0
2.000000  -4.000000  21.500000  0
1.000000  -4.000000  21.500000  0
3.000000  -3.500000  36.000000  0
3.500000  -3.000000  36.000000  0
3.000000  -3.000000  36.500000  0
2.000000  -3.500000  36.000000  0
2.000000  -3.000000  36.500000  0
1.000000  -3.000000  36.500000  0
0.000000  -3.000000  36.500000  0
-0.500000  -3.000000  36.000000  0
3.500000  -3.000000  35.000000  0
-0.500000  -3.000000  35.000000  0
3.500000  -3.000000  34.000000  0
-1.000000  -3.500000  34.000000  0
-0.500000  -3.000000  34.000000  0
4.500000  -3.000000  33.000000  0
4.000000  -3.000000  33.500000  0
0.000000  -3.500000  33.000000  0
0.500000  -3.000000  33.000000  0
0.000000  -3.000000  33.500000  0
-1.000000  -3.500000  33.000000  0
4.000000  -3.500000  32.000000  0
4.000000  -3.000000  32.500000  0
3.500000  -3.000000  32.000000  0
0.000000  -3.500000  32.000000  0
0.500000  -3.000000  32.000000  0
-1.000000  -3.500000  32.000000  0
3.500000  -3.000000  31.000000  0
0.000000  -3.000000  31.500000  0
-0.500000  -3.000000  31.000000  0
3.500000  -3.000000  30.000000  0
-0.500000  -3.000000  30.000000  0
3.500000  -3.000000  29.000000  0
-0.500000  -3.000000  29.000000  0
3.500000  -3.000000  28.000000  0
-0.500000  -3.000000  28.000000  0
3.500000  -3.000000  27.000000  0
0.000000  -3.500000  27.000000  0
0.500000  -3.000000  27.000000  0
0.000000  -3.000000  27.500000  0
3.500000  -3.000000  26.000000  0
0.000000  -3.500000  26.000000  0
0.500000  -3.000000  26.000000  0
3.000000  -3.000000  25.500000  0
2.500000  -3.000000  25.000000  0
0.500000  -3.000000  25.000000  0
2.500000  -3.000000  24.000000  0
0.500000  -3.000000  24.000000  0
2.500000  -3.000000  23.000000  0
0.500000  -3.000000  23.000000  0
2.500000  -3.000000  22.000000  0
0.500000  -3.000000  22.000000  0
2.000000  -3.000000  21.500000  0
1.000000  -3.000000  21.500000  0
3.000000  -2.500000  37.000000  0
3.500000  -2.000000  37.000000  0
3.000000  -2.000000  37.500000  0
2.000000  -2.500000  37.000000  0
2.000000  -2.000000  37.500000  0
1.500000  -2.000000  37.000000  0
3.500000  -2.000000  36.000000  0
1.000000  -2.000000  36.500000  0
0.000000  -2.500000  36.000000  0
0.500000  -2.000000  36.000000  0
3.500000  -2.000000  35.000000  0
0.000000  -2.500000  35.000000  0
0.500000  -2.000000  35.000000  0
3.500000  -2.000000  34.000000  0
0.000000  -2.500000  34.000000  0
0.500000  -2.000000  34.000000  0
4.000000  -2.500000  33.000000  0
3.500000  -2.000000  33.000000  0
0.500000  -2.000000  33.000000  0
3.500000  -2.000000  32.000000  0
0.500000  -2.000000  32.000000  0
3.500000  -2.000000  31.000000  0
0.000000  -2.500000  31.000000  0
0.500000  -2.000000  31.000000  0
3.500000  -2.000000  30.000000  0
0.000000  -2.000000  30.500000  0
-0.500000  -2.000000  30.000000  0
3.500000  -2.000000  29.000000  0
-0.500000  -2.000000  29.000000  0
3.500000  -2.000000  28.000000  0
0.000000  -2.500000  28.000000  0
0.500000  -2.000000  28.000000  0
0.000000  -2.000000  28.500000  0
3.000000  -2.500000  27.000000  0
3.000000  -2.000000  27.500000  0
2.500000  -2.000000  27.000000  0
0.500000  -2.000000  27.000000  0
3.000000  -2.500000  26.000000  0
2.500000  -2.000000  26.000000  0
0.500000  -2.000000  26.000000  0
2.500000  -2.000000  25.000000  0
0.500000  -2.000000  25.000000  0
2.500000  -2.000000  24.000000  0
0.500000  -2.000000  24.000000  0
2.500000  -2.000000  23.000000  0
0.500000  -2.000000  23.000000  0
2.500000  -2.000000  22.000000  0
0.500000  -2.000000  22.000000  0
2.000000  -2.500000  21.000000  0
2.500000  -2.000000  21.000000  0
1.000000  -2.500000  21.000000  0
0.500000  -2.000000  21.000000  0
2.000000  -2.000000  20.500000  0
1.000000  -2.000000  20.500000  0
3.000000  -1.500000  37.000000  0
2.000000  -1.500000  37.000000  0
3.000000  -1.500000  36.000000  0
2.000000  -1.500000  36.000000  0
1.000000  -1.500000  36.000000  0
3.000000  -1.500000  35.000000  0
2.000000  -1.500000  35.000000  0
1.000000  -1.500000  35.000000  0
3.000000  -1.500000  34.000000  0
2.000000  -1.500000  34.000000  0
1.000000  -1.500000  34.000000  0
3.000000  -1.500000  33.000000  0
2.000000  -1.500000  33.000000  0
1.000000  -1.500000  33.000000  0
3.000000  -1.500000  32.000000  0
2.000000  -1.500000  32.000000  0
1.000000  -1.500000  32.000000  0
3.000000  -1.500000  31.000000  0
2.000000  -1.500000  31.000000  0
1.000000  -1.500000  31.000000  0
3.000000  -1.500000  30.000000  0
2.000000  -1.500000  30.000000  0
1.000000  -1.500000  30.000000  0
0.000000  -1.500000  30.000000  0
3.500000  -1.000000  29.000000  0
3.000000  -1.000000  29.500000  0
2.000000  -1.000000  29.500000  0
1.000000  -1.000000  29.500000  0
0.000000  -1.500000  29.000000  0
0.500000  -1.000000  29.000000  0
3.500000  -1.000000  28.000000  0
0.500000  -1.000000  28.000000  0
3.000000  -1.000000  27.500000  0
2.500000  -1.000000  27.000000  0
0.500000  -1.000000  27.000000  0
2.500000  -1.000000  26.000000  0
0.500000  -1.000000  26.000000  0
2.500000  -1.000000  25.000000  0
0.500000  -1.000000  25.000000  0
2.500000  -1.000000  24.000000  0
0.500000  -1.000000  24.000000  0
2.500000  -1.000000  23.000000  0
0.500000  -1.000000  23.000000  0
2.500000  -1.000000  22.000000  0
0.500000  -1.000000  22.000000  0
2.500000  -1.000000  21.000000  0
0.500000  -1.000000  21.000000  0
2.000000  -1.000000  20.500000  0
1.000000  -1.000000  20.500000  0
3.000000  -0.500000  29.000000  0
2.000000  -0.500000  29.000000  0
1.000000  -0.500000  29.000000  0
3.000000  -0.500000  28.000000  0
2.500000  0.000000  28.000000  0
2.000000  0.000000  28.500000  0
1.000000  0.000000  28.500000  0
0.500000  0.000000  28.000000  0
2.500000  0.000000  27.000000  0
0.500000  0.000000  27.000000  0
2.500000  0.000000  26.000000  0
0.500000  0.000000  26.000000  0
2.500000  0.000000  25.000000  0
0.500000  0.000000  25.000000  0
2.500000  0.000000  24.000000  0
0.500000  0.000000  24.000000  0
2.500000  0.000000  23.000000  0
0.500000  0.000000  23.000000  0
2.500000  0.000000  22.000000  0
0.500000  0.000000  22.000000  0
2.500000  0.000000  21.000000  0
0.500000  0.000000  21.000000  0
2.000000  0.000000  20.500000  0
1.000000  0.000000  20.500000  0
2.500000  1.000000  28.000000  0
2.000000  1.000000  28.500000  0
1.000000  1.000000  28.500000  0
0.500000  1.000000  28.000000  0
2.500000  1.000000  27.000000  0
0.500000  1.000000  27.000000  0
2.500000  1.000000  26.000000  0
0.500000  1.000000  26.000000  0
2.500000  1.000000  25.000000  0
0.500000  1.000000  25.000000  0
3.000000  0.500000  24.000000  0
3.500000  1.000000  24.000000  0
3.000000  1.000000  24.500000  0
0.000000  0.500000  24.000000  0
0.000000  1.000000  24.500000  0
-0.500000  1.000000  24.000000  0
3.000000  0.500000  23.000000  0
3.500000  1.000000  23.000000  0
0.000000  0.500000  23.000000  0
-0.500000  1.000000  23.000000  0
3.000000  0.500000  22.000000  0
3.500000  1.000000  22.000000  0
0.000000  0.500000  22.000000  0
-0.500000  1.000000  22.000000  0
3.000000  1.000000  21.500000  0
2.500000  1.000000  21.000000  0
0.500000  1.000000  21.000000  0
0.000000  1.000000  21.500000  0
2.000000  1.000000  20.500000  0
1.000000  1.000000  20.500000  0
2.000000  1.500000  28.000000  0
1.000000  1.500000  28.000000  0
2.000000  1.500000  27.000000  0
1.000000  1.500000  27.000000  0
2.500000  2.000000  26.000000  0
2.000000  2.000000  26.500000  0
1.000000  2.000000  26.500000  0
0.500000  2.000000  26.000000  0
2.500000  2.000000  25.000000  0
0.500000  2.000000  25.000000  0
3.500000  2.000000  24.000000  0
3.000000  2.000000  24.500000  0
0.000000  2.000000  24.500000  0
-0.500000  2.000000  24.000000  0
3.500000  2.000000  23.000000  0
-0.500000  2.000000  23.000000  0
4.000000  1.500000  22.000000  0
4.500000  2.000000  22.000000  0
4.000000  2.000000  22.500000  0
-0.500000  2.000000  22.000000  0
4.000000  2.000000  21.500000  0
3.000000  2.000000  21.500000  0
2.500000  2.000000  21.000000  0
0.500000  2.000000  21.000000  0
0.000000  2.000000  21.500000  0
2.000000  2.000000  20.500000  0
1.000000  2.000000  20.500000  0
2.000000  2.500000  26.000000  0
1.000000  2.500000  26.000000  0
2.000000  2.500000  25.000000  0
1.000000  2.500000  25.000000  0
3.000000  2.500000  24.000000  0
2.000000  2.500000  24.000000  0
1.000000  2.500000  24.000000  0
0.000000  2.500000  24.000000  0
3.000000  2.500000  23.000000  0
2.500000  3.000000  23.000000  0
2.000000  3.000000  23.500000  0
1.000000  3.000000  23.500000  0
0.000000  2.500000  23.000000  0
0.500000  3.000000  23.000000  0
4.000000  2.500000  22.000000  0
3.000000  2.500000  22.000000  0
2.500000  3.000000  22.000000  0
0.000000  2.500000  22.000000  0
0.500000  3.000000  22.000000  0
2.500000  3.000000  21.000000  0
0.500000  3.000000  21.000000  0
2.000000  3.000000  20.500000  0
1.000000  3.000000  20.500000  0
2.000000  3.500000  23.000000  0
1.000000  3.500000  23.000000  0
2.000000  3.500000  22.000000  0
1.000000  3.500000  22.000000  0
2.000000  3.500000  21.000000  0
1.000000  3.500000  21.000000  0
2 0 1 0
2 3 0 0
4 3 2 0
4 5 3 0
6 5 4 0
7 5 6 0
0 9 1 0
8 9 0 0
10 0 3 0
8 0 10 0
11 3 5 0
10 3 11 0
7 11 5 0
12 11 7 0
9 8 13 0
8 10 14 0
13 8 14 0
15 13 14 0
16 10 11 0
14 10 16 0
12 16 11 0
17 16 12 0
15 14 18 0
14 19 18 0
16 19 14 0
16 17 19 0
22 20 21 0
23 20 22 0
1 24 21 0
2 1 21 0
20 2 21 0
25 4 2 0
25 2 20 0
25 20 23 0
26 4 25 0
6 4 26 0
27 6 26 0
7 6 27 0
24 1 9 0
29 24 9 0
28 29 9 0
28 30 29 0
29 30 31 0
30 32 31 0
31 32 33 0
12 7 27 0
32 12 27 0
33 32 27 0
28 9 13 0
34 30 28 0
15 34 28 0
13 15 28 0
34 32 30 0
35 32 34 0
32 17 12 0
35 17 32 0
34 15 18 0
18 35 34 0
19 35 18 0
19 17 35 0
38 36 37 0
38 39 36 0
40 39 38 0
41 39 40 0
36 43 37 0
42 43 36 0
44 36 39 0
42 36 44 0
45 44 39 0
46 45 39 0
41 46 39 0
46 47 45 0
48 47 46 0
49 47 48 0
42 51 43 0
50 51 42 0
52 42 44 0
50 42 52 0
53 44 45 0
52 44 53 0
54 45 47 0
53 45 54 0
49 54 47 0
55 54 49 0
50 57 51 0
56 57 50 0
58 50 52 0
56 50 58 0
59 52 53 0
58 52 59 0
60 53 54 0
59 53 60 0
61 60 54 0
62 61 54 0
55 62 54 0
63 61 62 0
57 56 64 0
56 65 64 0
58 65 56 0
58 59 66 0
65 58 66 0
67 65 66 0
68 59 60 0
66 59 68 0
69 60 61 0
68 60 69 0
63 69 61 0
70 69 63 0
67 66 71 0
66 68 72 0
71 66 72 0
73 71 72 0
72 68 69 0
74 72 69 0
75 74 69 0
69 70 75 0
72 77 73 0
76 77 72 0
74 76 72 0
78 76 74 0
77 76 79 0
76 78 79 0
22 21 80 0
22 80 23 0
21 24 81 0
80 21 81 0
82 80 81 0
82 23 80 0
82 84 23 0
84 25 23 0
83 25 84 0
26 83 85 0
25 83 26 0
26 85 27 0
87 81 24 0
86 87 24 0
29 86 24 0
84 88 83 0
88 31 83 0
88 86 31 0
86 29 31 0
31 85 83 0
33 85 31 0
33 27 85 0
87 86 89 0
86 88 89 0
90 91 92 0
92 93 90 0
94 93 92 0
95 93 94 0
98 96 97 0
90 99 96 0
91 90 96 0
98 91 96 0
100 90 93 0
99 90 100 0
95 100 93 0
101 100 95 0
103 37 102 0
38 37 103 0
40 38 103 0
40 103 97 0
40 97 96 0
96 99 104 0
96 104 41 0
96 41 40 0
105 99 100 0
104 99 105 0
101 105 100 0
106 105 101 0
37 107 102 0
43 107 37 0
46 41 104 0
104 105 46 0
46 105 48 0
106 108 49 0
105 106 49 0
48 105 49 0
43 109 107 0
51 109 43 0
55 108 110 0
49 108 55 0
51 111 109 0
57 111 51 0
112 62 110 0
110 62 55 0
113 62 112 0
63 62 113 0
115 111 57 0
114 115 57 0
64 114 57 0
116 114 65 0
65 114 64 0
67 116 65 0
70 113 117 0
63 113 70 0
114 119 115 0
118 119 114 0
120 114 116 0
118 114 120 0
121 120 116 0
121 116 67 0
121 67 71 0
73 121 71 0
122 74 123 0
123 74 75 0
70 123 75 0
117 123 70 0
118 125 119 0
124 125 118 0
126 118 120 0
124 118 126 0
127 120 121 0
126 120 127 0
73 77 121 0
121 77 127 0
78 122 128 0
74 122 78 0
125 124 129 0
124 126 130 0
129 124 130 0
131 129 130 0
132 126 127 0
130 126 132 0
127 133 132 0
127 134 133 0
77 134 127 0
79 134 77 0
78 134 79 0
128 134 78 0
131 130 135 0
130 136 135 0
132 136 130 0
132 133 136 0
138 81 137 0
82 81 138 0
139 82 138 0
84 82 139 0
81 140 137 0
87 140 81 0
88 84 139 0
88 139 142 0
88 142 141 0
143 141 142 0
145 140 87 0
144 145 87 0
89 144 87 0
141 92 91 0
141 91 144 0
88 141 144 0
89 88 144 0
146 94 92 0
146 92 141 0
146 141 143 0
147 94 146 0
95 94 147 0
150 148 149 0
145 148 150 0
145 144 148 0
144 97 148 0
98 97 144 0
144 91 98 0
101 147 151 0
95 147 101 0
102 152 149 0
103 102 149 0
148 103 149 0
148 97 103 0
106 101 151 0
106 151 154 0
106 154 153 0
155 153 154 0
102 156 152 0
107 156 102 0
108 106 157 0
157 106 153 0
155 157 153 0
158 157 155 0
107 159 156 0
109 159 107 0
110 108 160 0
160 108 157 0
158 160 157 0
161 160 158 0
109 162 159 0
111 162 109 0
112 110 160 0
161 163 113 0
160 161 113 0
112 160 113 0
111 164 162 0
115 164 111 0
117 163 165 0
113 163 117 0
115 166 164 0
119 166 115 0
167 122 168 0
168 122 123 0
117 168 123 0
165 168 117 0
119 169 166 0
125 169 119 0
128 167 170 0
122 167 128 0
169 129 171 0
125 129 169 0
171 129 172 0
172 129 131 0
173 133 174 0
174 133 134 0
128 174 134 0
170 174 128 0
172 135 175 0
131 135 172 0
175 136 176 0
135 136 175 0
133 176 136 0
173 176 133 0
179 177 178 0
179 180 138 0
177 179 138 0
137 177 138 0
138 180 182 0
139 138 182 0
181 139 182 0
183 181 182 0
177 185 178 0
184 185 177 0
137 140 177 0
177 140 184 0
142 139 181 0
183 186 143 0
181 183 143 0
142 181 143 0
184 188 185 0
187 188 184 0
140 145 184 0
184 145 187 0
189 146 186 0
186 146 143 0
190 146 189 0
147 146 190 0
149 191 188 0
150 149 188 0
187 150 188 0
187 145 150 0
151 190 192 0
147 190 151 0
195 193 194 0
191 149 152 0
191 152 193 0
191 193 195 0
196 154 192 0
192 154 151 0
197 154 196 0
155 154 197 0
193 199 194 0
198 199 193 0
152 156 193 0
193 156 198 0
158 197 200 0
155 197 158 0
198 202 199 0
201 202 198 0
156 159 198 0
198 159 201 0
161 200 203 0
158 200 161 0
201 205 202 0
204 205 201 0
159 162 201 0
201 162 204 0
163 203 206 0
161 203 163 0
204 208 205 0
207 208 204 0
162 164 204 0
204 164 207 0
165 206 209 0
163 206 165 0
208 207 210 0
164 166 211 0
164 211 210 0
164 210 207 0
212 167 213 0
213 167 168 0
165 213 168 0
209 213 165 0
166 214 211 0
169 214 166 0
170 212 215 0
167 212 170 0
214 171 216 0
169 171 214 0
218 216 171 0
218 171 172 0
218 172 217 0
217 219 218 0
218 219 220 0
174 221 220 0
174 220 219 0
174 219 173 0
170 221 174 0
215 221 170 0
217 172 175 0
175 219 217 0
176 219 175 0
176 173 219 0
223 178 222 0
179 178 223 0
224 179 223 0
180 179 224 0
225 180 224 0
182 180 225 0
226 182 225 0
183 182 226 0
178 227 222 0
185 227 178 0
186 226 228 0
183 226 186 0
185 229 227 0
188 229 185 0
186 228 231 0
186 231 230 0
186 230 189 0
189 230 190 0
188 232 229 0
191 232 188 0
233 230 231 0
234 192 190 0
233 234 190 0
230 233 190 0
236 194 235 0
195 194 236 0
195 236 191 0
191 236 232 0
192 234 238 0
192 238 237 0
192 237 196 0
196 237 197 0
194 239 235 0
199 239 194 0
240 237 238 0
241 200 197 0
240 241 197 0
237 240 197 0
199 242 239 0
202 242 199 0
203 241 243 0
200 241 203 0
202 244 242 0
205 244 202 0
206 243 245 0
203 243 206 0
244 205 208 0
247 244 208 0
246 247 208 0
247 246 248 0
209 245 249 0
206 245 209 0
246 208 210 0
211 250 248 0
211 248 246 0
211 246 210 0
251 212 252 0
252 212 213 0
209 252 213 0
249 252 209 0
250 211 214 0
254 250 214 0
253 254 214 0
254 253 255 0
257 256 258 0
215 212 251 0
256 215 251 0
258 256 251 0
253 214 216 0
216 218 259 0
253 216 259 0
255 253 259 0
259 220 260 0
218 220 259 0
260 220 221 0
257 260 221 0
256 257 221 0
221 215 256 0
223 222 261 0
263 224 223 0
262 263 223 0
261 262 223 0
264 224 263 0
225 224 264 0
265 225 264 0
226 225 265 0
222 227 266 0
261 222 266 0
267 261 266 0
267 262 261 0
228 265 268 0
226 265 228 0
227 269 266 0
229 269 227 0
231 268 270 0
228 268 231 0
229 271 269 0
232 271 229 0
231 270 273 0
231 273 272 0
231 272 233 0
233 272 234 0
275 235 274 0
236 235 275 0
236 275 232 0
232 275 271 0
276 272 273 0
277 238 234 0
276 277 234 0
272 276 234 0
235 278 274 0
239 278 235 0
279 240 277 0
277 240 238 0
280 240 279 0
241 240 280 0
239 281 278 0
242 281 239 0
243 280 282 0
241 280 243 0
242 283 281 0
244 283 242 0
245 282 284 0
243 282 245 0
283 247 285 0
244 247 283 0
285 247 286 0
286 247 248 0
249 284 287 0
245 284 249 0
248 288 286 0
250 288 248 0
289 251 290 0
290 251 252 0
249 290 252 0
287 290 249 0
288 254 291 0
250 254 288 0
291 254 292 0
292 254 255 0
293 257 294 0
294 257 258 0
251 294 258 0
289 294 251 0
292 259 295 0
255 259 292 0
295 260 296 0
259 260 295 0
257 296 260 0
293 296 257 0
263 262 297 0
264 297 298 0
263 297 264 0
264 298 265 0
267 266 299 0
297 300 301 0
297 262 300 0
262 299 300 0
267 299 262 0
301 302 297 0
297 302 298 0
303 268 265 0
302 303 265 0
298 302 265 0
304 266 269 0
299 266 304 0
299 304 300 0
300 304 305 0
270 303 306 0
268 303 270 0
269 271 307 0
304 269 307 0
308 304 307 0
308 305 304 0
273 306 309 0
270 306 273 0
275 274 310 0
311 307 271 0
311 271 275 0
311 275 310 0
312 276 309 0
309 276 273 0
313 276 312 0
277 276 313 0
314 274 278 0
310 274 314 0
310 314 311 0
311 314 315 0
316 279 313 0
313 279 277 0
317 279 316 0
280 279 317 0
318 278 281 0
314 278 318 0
314 318 315 0
315 318 319 0
282 317 320 0
280 317 282 0
321 281 283 0
318 281 321 0
318 321 319 0
319 321 322 0
284 320 323 0
282 320 284 0
321 283 285 0
286 324 322 0
286 322 321 0
286 321 285 0
287 323 325 0
284 323 287 0
286 326 324 0
288 326 286 0
327 289 328 0
328 289 290 0
287 328 290 0
325 328 287 0
326 291 329 0
288 291 326 0
329 291 330 0
330 291 292 0
331 293 332 0
332 293 294 0
289 332 294 0
327 332 289 0
330 295 333 0
292 295 330 0
333 296 334 0
295 296 333 0
293 334 296 0
331 334 293 0
301 300 335 0
302 335 336 0
301 335 302 0
302 336 303 0
337 300 305 0
335 300 337 0
337 336 335 0
338 336 337 0
336 306 303 0
338 306 336 0
308 307 339 0
337 340 341 0
337 305 340 0
305 339 340 0
308 339 305 0
341 342 337 0
337 342 338 0
343 309 306 0
342 343 306 0
338 342 306 0
307 311 344 0
339 307 344 0
345 339 344 0
345 340 339 0
346 312 343 0
343 312 309 0
347 312 346 0
313 312 347 0
311 348 344 0
315 348 311 0
349 316 347 0
347 316 313 0
350 316 349 0
317 316 350 0
315 351 348 0
319 351 315 0
320 350 352 0
317 350 320 0
319 353 351 0
322 353 319 0
323 352 354 0
320 352 323 0
322 355 353 0
324 355 322 0
325 354 356 0
323 354 325 0
355 324 326 0
358 355 326 0
357 358 326 0
358 357 359 0
360 327 361 0
361 327 328 0
325 361 328 0
356 361 325 0
357 326 329 0
330 362 359 0
330 359 357 0
330 357 329 0
363 331 364 0
364 331 332 0
327 364 332 0
360 364 327 0
362 333 365 0
330 333 362 0
365 334 366 0
333 334 365 0
331 366 334 0
363 366 331 0
341 340 367 0
369 342 341 0
368 369 341 0
367 368 341 0
370 342 369 0
343 342 370 0
345 344 371 0
367 372 373 0
367 340 372 0
340 371 372 0
345 371 340 0
373 368 367 0
374 346 370 0
370 346 343 0
375 346 374 0
347 346 375 0
344 348 376 0
371 344 376 0
377 371 376 0
377 372 371 0
378 349 375 0
375 349 347 0
379 349 378 0
350 349 379 0
348 380 376 0
351 380 348 0
352 379 381 0
350 379 352 0
351 382 380 0
353 382 351 0
354 381 383 0
352 381 354 0
353 384 382 0
355 384 353 0
356 383 385 0
354 383 356 0
384 358 386 0
355 358 384 0
386 358 387 0
387 358 359 0
388 360 389 0
389 360 361 0
356 389 361 0
385 389 356 0
359 390 387 0
362 390 359 0
391 363 392 0
392 363 364 0
360 392 364 0
388 392 360 0
390 365 393 0
362 365 390 0
393 366 394 0
365 366 393 0
363 394 366 0
391 394 363 0
396 368 395 0
369 368 396 0
397 369 396 0
370 369 397 0
399 372 398 0
373 372 399 0
373 399 368 0
368 399 395 0
400 374 397 0
397 374 370 0
401 374 400 0
375 374 401 0
403 376 402 0
377 376 403 0
377 403 372 0
372 403 398 0
404 378 401 0
401 378 375 0
405 378 404 0
379 378 405 0
376 406 402 0
380 406 376 0
381 405 407 0
379 405 381 0
380 408 406 0
382 408 380 0
383 407 409 0
381 407 383 0
382 410 408 0
384 410 382 0
385 409 411 0
383 409 385 0
413 410 384 0
412 413 384 0
386 412 384 0
387 412 386 0
414 388 415 0
415 388 389 0
385 415 389 0
411 415 385 0
413 412 416 0
387 390 417 0
387 417 416 0
387 416 412 0
418 391 392 0
388 414 419 0
392 388 419 0
418 392 419 0
417 393 420 0
390 393 417 0
420 393 394 0
420 394 421 0
420 421 422 0
423 418 424 0
423 421 418 0
421 391 418 0
394 391 421 0
418 419 424 0
422 421 425 0
421 423 425 0
427 395 426 0
396 395 427 0
428 396 427 0
397 396 428 0
430 398 429 0
399 398 430 0
399 430 395 0
395 430 426 0
431 400 428 0
428 400 397 0
432 400 431 0
401 400 432 0
434 402 433 0
403 402 434 0
403 434 398 0
398 434 429 0
435 404 432 0
432 404 401 0
436 404 435 0
405 404 436 0
402 437 433 0
406 437 402 0
407 436 438 0
405 436 407 0
406 439 437 0
408 439 406 0
409 438 440 0
407 438 409 0
408 441 439 0
410 441 408 0
411 440 442 0
409 440 411 0
410 443 441 0
413 443 410 0
444 414 415 0
411 442 445 0
415 411 445 0
444 415 445 0
443 416 446 0
413 416 443 0
446 416 447 0
447 416 417 0
448 419 414 0
448 414 444 0
448 444 449 0
444 445 449 0
447 420 450 0
417 420 447 0
450 420 451 0
451 420 422 0
452 423 453 0
453 423 424 0
419 453 424 0
448 453 419 0
451 425 454 0
422 425 451 0
423 454 425 0
452 454 423 0
456 426 455 0
427 426 456 0
457 427 456 0
428 427 457 0
459 429 458 0
430 429 459 0
430 459 426 0
426 459 455 0
460 431 457 0
457 431 428 0
461 431 460 0
432 431 461 0
463 433 462 0
434 433 463 0
434 463 429 0
429 463 458 0
464 435 461 0
461 435 432 0
465 435 464 0
436 435 465 0
433 466 462 0
437 466 433 0
438 465 467 0
436 465 438 0
437 468 466 0
439 468 437 0
440 467 469 0
438 467 440 0
439 470 468 0
441 470 439 0
442 469 471 0
440 469 442 0
441 472 470 0
443 472 441 0
445 471 473 0
442 471 445 0
472 446 474 0
443 446 472 0
474 446 475 0
475 446 447 0
476 448 477 0
477 448 449 0
445 477 449 0
473 477 445 0
479 475 447 0
478 479 447 0
450 478 447 0
451 478 450 0
480 452 453 0
448 476 481 0
453 448 481 0
480 453 481 0
479 478 482 0
454 483 482 0
451 454 482 0
478 451 482 0
484 483 454 0
480 484 454 0
452 480 454 0
480 481 484 0
486 455 485 0
456 455 486 0
487 456 486 0
457 456 487 0
489 458 488 0
459 458 489 0
459 489 455 0
455 489 485 0
490 460 487 0
487 460 457 0
491 460 490 0
461 460 491 0
463 462 492 0
493 488 458 0
493 458 463 0
493 463 492 0
494 464 491 0
491 464 461 0
495 464 494 0
465 464 495 0
462 466 496 0
492 462 496 0
497 492 496 0
497 493 492 0
467 495 498 0
465 495 467 0
466 499 496 0
468 499 466 0
469 498 500 0
467 498 469 0
468 501 499 0
470 501 468 0
471 500 502 0
469 500 471 0
470 503 501 0
472 503 470 0
473 502 504 0
471 502 473 0
503 474 505 0
472 474 503 0
505 474 506 0
506 474 475 0
507 476 508 0
508 476 477 0
473 508 477 0
504 508 473 0
475 509 506 0
479 509 475 0
481 507 510 0
476 507 481 0
509 482 511 0
479 482 509 0
511 483 512 0
482 483 511 0
512 484 513 0
483 484 512 0
481 513 484 0
510 513 481 0
515 485 514 0
486 485 515 0
486 515 517 0
487 486 517 0
516 487 517 0
518 516 517 0
520 488 519 0
489 488 520 0
489 520 485 0
485 520 514 0
490 487 516 0
518 521 491 0
516 518 491 0
490 516 491 0
488 522 519 0
493 522 488 0
523 494 521 0
521 494 491 0
524 494 523 0
495 494 524 0
526 496 525 0
497 496 526 0
497 526 493 0
493 526 522 0
498 524 527 0
495 524 498 0
496 528 525 0
499 528 496 0
500 527 529 0
498 527 500 0
499 530 528 0
501 530 499 0
502 529 531 0
500 529 502 0
501 532 530 0
503 532 501 0
504 531 533 0
502 531 504 0
532 505 534 0
503 505 532 0
534 505 535 0
535 505 506 0
536 507 537 0
537 507 508 0
504 537 508 0
533 537 504 0
506 538 535 0
509 538 506 0
510 536 539 0
507 536 510 0
538 511 540 0
509 511 538 0
540 512 541 0
511 512 540 0
541 513 542 0
512 513 541 0
510 542 513 0
539 542 510 0
544 514 543 0
515 514 544 0
545 515 544 0
517 515 545 0
546 517 545 0
518 517 546 0
548 519 547 0
520 519 548 0
520 548 514 0
514 548 543 0
521 546 549 0
518 546 521 0
519 550 547 0
522 550 519 0
551 523 549 0
549 523 521 0
552 523 551 0
524 523 552 0
526 525 553 0
554 550 522 0
554 522 526 0
554 526 553 0
527 552 555 0
524 552 527 0
525 528 556 0
553 525 556 0
557 553 556 0
557 554 553 0
529 555 558 0
527 555 529 0
528 559 556 0
530 559 528 0
531 558 560 0
529 558 531 0
530 561 559 0
532 561 530 0
533 560 562 0
531 560 533 0
561 534 563 0
532 534 561 0
563 534 564 0
564 534 535 0
565 536 566 0
566 536 537 0
533 566 537 0
562 566 533 0
535 567 564 0
538 567 535 0
539 565 568 0
536 565 539 0
567 540 569 0
538 540 567 0
569 541 570 0
540 541 569 0
570 542 571 0
541 542 570 0
539 571 542 0
568 571 539 0
574 572 573 0
574 575 572 0
576 575 574 0
577 575 576 0
543 578 573 0
544 543 573 0
572 544 573 0
572 575 544 0
544 575 545 0
577 579 546 0
575 577 546 0
545 575 546 0
581 547 580 0
548 547 581 0
548 581 543 0
543 581 578 0
549 546 579 0
549 579 583 0
549 583 582 0
584 582 583 0
547 585 580 0
550 585 547 0
551 549 582 0
584 586 552 0
582 584 552 0
551 582 552 0
550 587 585 0
554 587 550 0
555 586 588 0
552 586 555 0
590 556 589 0
557 556 590 0
557 590 554 0
554 590 587 0
558 588 591 0
555 588 558 0
556 592 589 0
559 592 556 0
560 591 593 0
558 591 560 0
559 594 592 0
561 594 559 0
562 593 595 0
560 593 562 0
594 563 596 0
561 563 594 0
596 563 597 0
597 563 564 0
598 565 599 0
599 565 566 0
562 599 566 0
595 599 562 0
564 600 597 0
567 600 564 0
568 598 601 0
565 598 568 0
600 569 602 0
567 569 600 0
602 570 603 0
569 570 602 0
603 571 604 0
570 571 603 0
568 604 571 0
601 604 568 0
606 573 605 0
574 573 606 0
607 574 606 0
576 574 607 0
608 576 607 0
577 576 608 0
573 609 605 0
578 609 573 0
579 608 610 0
577 608 579 0
612 580 611 0
581 580 612 0
581 612 578 0
578 612 609 0
613 583 610 0
610 583 579 0
614 583 613 0
584 583 614 0
580 615 611 0
585 615 580 0
586 614 616 0
584 614 586 0
585 617 615 0
587 617 585 0
588 616 618 0
586 616 588 0
620 589 619 0
590 589 620 0
590 620 587 0
587 620 617 0
591 618 621 0
588 618 591 0
589 622 619 0
592 622 589 0
593 621 623 0
591 621 593 0
592 624 622 0
594 624 592 0
595 623 625 0
593 623 595 0
624 596 626 0
594 596 624 0
626 596 627 0
627 596 597 0
628 598 599 0
595 625 629 0
599 595 629 0
628 599 629 0
597 630 627 0
600 630 597 0
631 601 598 0
631 598 628 0
631 628 632 0
628 629 632 0
630 602 633 0
600 602 630 0
633 602 603 0
633 603 634 0
633 634 635 0
603 604 637 0
603 637 636 0
603 636 634 0
601 637 604 0
631 637 601 0
635 634 638 0
634 636 638 0
606 605 639 0
607 639 640 0
606 639 607 0
607 640 608 0
605 609 641 0
639 605 641 0
642 639 641 0
642 643 639 0
639 643 640 0
644 610 608 0
643 644 608 0
640 643 608 0
646 611 645 0
612 611 646 0
612 646 609 0
609 646 641 0
647 613 644 0
644 613 610 0
648 613 647 0
614 613 648 0
611 649 645 0
615 649 611 0
616 648 650 0
614 648 616 0
615 651 649 0
617 651 615 0
618 650 652 0
616 650 618 0
654 619 653 0
620 619 654 0
620 654 617 0
617 654 651 0
621 652 655 0
618 652 621 0
619 656 653 0
622 656 619 0
623 655 657 0
621 655 623 0
622 658 656 0
624 658 622 0
625 657 659 0
623 657 625 0
658 626 660 0
624 626 658 0
660 626 661 0
661 626 627 0
629 659 662 0
625 659 629 0
627 663 661 0
630 663 627 0
664 631 632 0
629 662 665 0
632 629 665 0
664 632 665 0
663 633 666 0
630 633 663 0
666 633 667 0
667 633 635 0
668 636 637 0
669 664 670 0
669 668 664 0
668 631 664 0
637 631 668 0
664 665 670 0
667 638 671 0
635 638 667 0
672 671 638 0
668 672 638 0
636 668 638 0
668 669 672 0
674 641 673 0
642 641 674 0
675 642 674 0
643 642 675 0
676 643 675 0
644 643 676 0
678 645 677 0
646 645 678 0
646 678 641 0
641 678 673 0
679 647 676 0
676 647 644 0
680 647 679 0
648 647 680 0
645 681 677 0
649 681 645 0
650 648 680 0
650 680 683 0
650 683 682 0
684 682 683 0
649 685 681 0
651 685 649 0
652 650 686 0
686 650 682 0
684 686 682 0
687 686 684 0
689 653 688 0
654 653 689 0
654 689 651 0
651 689 685 0
655 652 690 0
690 652 686 0
687 690 686 0
691 690 687 0
653 692 688 0
656 692 653 0
693 657 655 0
693 655 690 0
693 690 694 0
690 691 694 0
656 695 692 0
658 695 656 0
659 693 696 0
657 693 659 0
695 660 697 0
658 660 695 0
697 660 698 0
698 660 661 0
662 696 699 0
659 696 662 0
661 700 698 0
663 700 661 0
665 699 701 0
662 699 665 0
703 700 663 0
702 703 663 0
666 702 663 0
667 702 666 0
704 669 705 0
705 669 670 0
665 705 670 0
701 705 665 0
703 702 706 0
706 707 708 0
706 702 707 0
702 671 707 0
667 671 702 0
709 707 672 0
672 707 671 0
669 704 710 0
672 669 710 0
709 672 710 0
708 707 711 0
707 712 711 0
709 712 707 0
709 710 712 0
715 713 714 0
715 716 713 0
717 716 715 0
718 716 717 0
673 719 714 0
674 673 714 0
713 674 714 0
713 716 674 0
674 716 675 0
718 720 676 0
716 718 676 0
675 716 676 0
722 677 721 0
678 677 722 0
678 722 673 0
673 722 719 0
723 679 720 0
720 679 676 0
679 723 725 0
680 679 725 0
724 680 725 0
726 724 725 0
729 727 728 0
721 677 681 0
721 681 727 0
721 727 729 0
683 680 724 0
726 730 684 0
724 726 684 0
683 724 684 0
727 732 728 0
731 732 727 0
681 685 727 0
727 685 731 0
687 730 733 0
684 730 687 0
688 734 732 0
689 688 732 0
731 689 732 0
731 685 689 0
691 733 735 0
687 733 691 0
688 736 734 0
692 736 688 0
737 693 738 0
738 693 694 0
691 738 694 0
735 738 691 0
692 739 736 0
695 739 692 0
696 737 740 0
693 737 696 0
739 697 741 0
695 697 739 0
741 697 742 0
742 697 698 0
699 740 743 0
696 740 699 0
698 744 742 0
700 744 698 0
701 743 745 0
699 743 701 0
700 746 744 0
703 746 700 0
747 704 748 0
748 704 705 0
701 748 705 0
745 748 701 0
746 706 749 0
703 706 746 0
749 706 750 0
750 706 708 0
710 747 751 0
704 747 710 0
753 750 708 0
752 753 708 0
711 752 708 0
754 752 712 0
712 752 711 0
710 751 755 0
712 710 755 0
754 712 755 0
753 752 756 0
752 757 756 0
754 757 752 0
754 755 757 0
760 758 759 0
761 758 760 0
763 714 762 0
715 714 763 0
764 715 763 0
717 715 764 0
765 759 758 0
765 764 759 0
718 764 765 0
717 764 718 0
766 765 758 0
767 766 758 0
761 767 758 0
768 766 767 0
714 769 762 0
719 769 714 0
720 718 770 0
770 718 765 0
770 765 766 0
771 770 766 0
772 771 766 0
766 768 772 0
774 721 773 0
722 721 774 0
722 774 719 0
719 774 769 0
723 720 770 0
775 725 723 0
775 723 770 0
775 770 771 0
776 725 775 0
726 725 776 0
778 728 777 0
729 728 778 0
729 778 721 0
721 778 773 0
730 776 779 0
726 776 730 0
728 780 777 0
732 780 728 0
733 779 781 0
730 779 733 0
732 782 780 0
734 782 732 0
735 781 783 0
733 781 735 0
782 734 736 0
785 782 736 0
784 785 736 0
785 784 786 0
787 737 788 0
788 737 738 0
735 788 738 0
783 788 735 0
789 736 739 0
784 736 789 0
784 789 786 0
786 789 790 0
740 787 791 0
737 787 740 0
789 739 741 0
742 792 790 0
742 790 789 0
742 789 741 0
743 791 793 0
740 791 743 0
742 794 792 0
744 794 742 0
745 793 795 0
743 793 745 0
744 796 794 0
746 796 744 0
797 747 798 0
798 747 748 0
745 798 748 0
795 798 745 0
796 749 799 0
746 749 796 0
799 749 800 0
800 749 750 0
751 797 801 0
747 797 751 0
750 802 800 0
753 802 750 0
755 801 803 0
751 801 755 0
805 802 753 0
804 805 753 0
756 804 753 0
756 757 807 0
756 807 806 0
756 806 804 0
755 807 757 0
803 807 755 0
805 804 808 0
804 806 808 0
811 809 810 0
811 812 760 0
809 811 760 0
759 809 760 0
760 812 814 0
761 760 814 0
813 761 814 0
815 813 814 0
817 762 816 0
763 762 817 0
764 763 817 0
764 817 810 0
764 810 809 0
809 759 764 0
767 761 813 0
815 818 768 0
813 815 768 0
767 813 768 0
821 819 820 0
816 762 769 0
816 769 819 0
816 819 821 0
822 771 772 0
768 818 823 0
772 768 823 0
822 772 823 0
773 824 820 0
774 773 820 0
819 774 820 0
819 769 774 0
775 771 822 0
823 825 776 0
822 823 776 0
775 822 776 0
827 777 826 0
778 777 827 0
778 827 773 0
773 827 824 0
779 825 828 0
776 825 779 0
777 829 826 0
780 829 777 0
781 828 830 0
779 828 781 0
829 780 782 0
832 829 782 0
831 832 782 0
832 831 833 0
835 834 836 0
783 781 830 0
834 783 830 0
836 834 830 0
831 782 785 0
786 837 833 0
786 833 831 0
786 831 785 0
835 838 787 0
835 787 788 0
835 788 834 0
788 783 834 0
786 839 837 0
790 839 786 0
791 838 840 0
787 838 791 0
790 841 839 0
792 841 790 0
793 840 842 0
791 840 793 0
792 843 841 0
794 843 792 0
795 842 844 0
793 842 795 0
843 794 796 0
846 843 796 0
845 846 796 0
846 845 847 0
848 797 849 0
849 797 798 0
795 849 798 0
844 849 795 0
845 796 799 0
800 850 847 0
800 847 845 0
800 845 799 0
801 848 851 0
797 848 801 0
800 852 850 0
802 852 800 0
803 851 853 0
801 851 803 0
852 802 805 0
855 852 805 0
854 855 805 0
807 856 855 0
807 855 854 0
807 854 806 0
803 856 807 0
853 856 803 0
854 805 808 0
808 806 854 0
858 810 857 0
811 810 858 0
859 811 858 0
812 811 859 0
814 812 859 0
860 814 859 0
861 860 859 0
814 860 815 0
864 862 863 0
864 865 817 0
862 864 817 0
816 862 817 0
817 865 810 0
810 865 857 0
861 867 860 0
860 867 866 0
860 818 815 0
866 818 860 0
820 868 863 0
821 820 863 0
862 821 863 0
862 816 821 0
869 866 867 0
870 823 818 0
869 870 818 0
866 869 818 0
873 871 872 0
868 820 824 0
868 824 871 0
868 871 873 0
825 870 874 0
823 870 825 0
826 875 872 0
827 826 872 0
871 827 872 0
871 824 827 0
828 874 876 0
825 874 828 0
875 826 829 0
878 875 829 0
877 878 829 0
878 877 879 0
881 880 882 0
830 828 876 0
880 830 876 0
882 880 876 0
877 829 832 0
833 883 879 0
833 879 877 0
833 877 832 0
881 884 835 0
881 835 836 0
881 836 880 0
836 830 880 0
833 885 883 0
837 885 833 0
838 884 886 0
835 884 838 0
837 887 885 0
839 887 837 0
840 886 888 0
838 886 840 0
839 889 887 0
841 889 839 0
842 888 890 0
840 888 842 0
841 891 889 0
843 891 841 0
844 890 892 0
842 890 844 0
891 846 893 0
843 846 891 0
893 846 894 0
894 846 847 0
895 848 896 0
896 848 849 0
844 896 849 0
892 896 844 0
847 897 894 0
850 897 847 0
851 895 898 0
848 895 851 0
850 899 897 0
852 899 850 0
853 898 900 0
851 898 853 0
902 899 852 0
901 902 852 0
855 901 852 0
903 901 856 0
856 901 855 0
853 900 904 0
856 853 904 0
903 856 904 0
902 901 905 0
901 906 905 0
903 906 901 0
903 904 906 0
909 907 908 0
909 910 907 0
911 910 909 0
911 912 858 0
910 911 858 0
857 910 858 0
913 858 912 0
859 858 913 0
914 859 913 0
861 859 914 0
863 915 908 0
864 863 908 0
907 864 908 0
907 910 864 0
864 910 865 0
910 857 865 0
867 914 916 0
861 914 867 0
863 917 915 0
868 917 863 0
867 916 919 0
867 919 918 0
867 918 869 0
869 918 870 0
921 872 920 0
873 872 921 0
873 921 868 0
868 921 917 0
923 922 924 0
922 925 918 0
922 918 919 0
922 919 924 0
918 874 870 0
925 874 918 0
920 872 875 0
927 920 875 0
926 927 875 0
927 926 928 0
923 930 922 0
922 930 929 0
929 925 922 0
931 925 929 0
925 876 874 0
931 876 925 0
926 875 878 0
879 932 928 0
879 928 926 0
879 926 878 0
933 929 930 0
881 933 934 0
881 929 933 0
882 929 881 0
931 929 882 0
882 876 931 0
879 935 932 0
883 935 879 0
884 934 936 0
881 934 884 0
883 937 935 0
885 937 883 0
886 936 938 0
884 936 886 0
885 939 937 0
887 939 885 0
888 938 940 0
886 938 888 0
887 941 939 0
889 941 887 0
943 942 944 0
890 888 940 0
942 890 940 0
944 942 940 0
889 945 941 0
891 945 889 0
943 947 942 0
942 947 946 0
942 892 890 0
946 892 942 0
945 893 948 0
891 893 945 0
948 893 949 0
949 893 894 0
947 950 895 0
947 895 896 0
947 896 946 0
896 892 946 0
894 951 949 0
897 951 894 0
898 950 952 0
895 950 898 0
897 953 951 0
899 953 897 0
900 952 954 0
898 952 900 0
899 955 953 0
902 955 899 0
904 954 956 0
900 954 904 0
955 905 957 0
902 905 955 0
957 906 958 0
905 906 957 0
904 958 906 0
956 958 904 0
961 959 960 0
961 962 959 0
963 962 961 0
964 962 963 0
908 965 960 0
909 908 960 0
959 909 960 0
959 962 909 0
909 962 911 0
966 912 911 0
966 911 962 0
966 962 964 0
913 912 966 0
967 913 966 0
968 967 966 0
913 967 914 0
908 969 965 0
915 969 908 0
968 971 967 0
967 971 970 0
967 916 914 0
970 916 967 0
915 972 969 0
917 972 915 0
971 974 970 0
970 974 973 0
970 919 916 0
973 919 970 0
921 920 975 0
976 972 917 0
976 917 921 0
976 921 975 0
974 977 923 0
974 923 924 0
974 924 973 0
924 919 973 0
975 920 927 0
928 978 976 0
928 976 975 0
928 975 927 0
930 977 979 0
923 977 930 0
928 980 978 0
932 980 928 0
930 979 982 0
930 982 981 0
930 981 933 0
933 981 934 0
932 983 980 0
935 983 932 0
984 981 982 0
985 936 934 0
984 985 934 0
981 984 934 0
935 986 983 0
937 986 935 0
938 985 987 0
936 985 938 0
937 988 986 0
939 988 937 0
990 989 991 0
940 938 987 0
989 940 987 0
991 989 987 0
988 939 941 0
993 988 941 0
992 993 941 0
993 992 994 0
990 995 943 0
990 943 944 0
990 944 989 0
944 940 989 0
996 941 945 0
992 941 996 0
992 996 994 0
994 996 997 0
947 995 998 0
943 995 947 0
996 945 948 0
949 999 997 0
949 997 996 0
949 996 948 0
950 998 1000 0
947 998 950 0
949 1001 999 0
951 1001 949 0
952 1000 1002 0
950 1000 952 0
951 1003 1001 0
953 1003 951 0
954 1002 1004 0
952 1002 954 0
953 1005 1003 0
955 1005 953 0
956 1004 1006 0
954 1004 956 0
1008 1005 955 0
1007 1008 955 0
957 1007 955 0
1009 1007 958 0
958 1007 957 0
956 1006 1010 0
958 956 1010 0
1009 958 1010 0
1008 1007 1011 0
1007 1012 1011 0
1009 1012 1007 0
1009 1010 1012 0
961 960 1013 0
963 1013 1014 0
961 1013 963 0
963 1014 964 0
1015 960 965 0
1013 960 1015 0
1015 1014 1013 0
1016 1014 1015 0
1014 1016 1017 0
964 1014 1017 0
966 964 1017 0
966 1017 968 0
1018 965 969 0
1015 965 1018 0
1018 1016 1015 0
1019 1016 1018 0
1019 1017 1016 0
1020 1017 1019 0
1017 971 968 0
1020 971 1017 0
1021 969 972 0
1018 969 1021 0
1021 1019 1018 0
1022 1019 1021 0
1022 1020 1019 0
1023 1020 1022 0
1020 974 971 0
1023 974 1020 0
1024 972 976 0
1021 972 1024 0
1024 1022 1021 0
1025 1022 1024 0
1025 1023 1022 0
1026 1023 1025 0
1023 977 974 0
1026 977 1023 0
1027 976 978 0
1024 976 1027 0
1027 1025 1024 0
1028 1025 1027 0
1028 1026 1025 0
1029 1026 1028 0
1026 979 977 0
1029 979 1026 0
1030 978 980 0
1027 978 1030 0
1030 1028 1027 0
1031 1028 1030 0
1031 1029 1028 0
1032 1029 1031 0
1029 982 979 0
1032 982 1029 0
1033 980 983 0
1030 980 1033 0
1033 1031 1030 0
1034 1031 1033 0
1034 1032 1031 0
1035 1032 1034 0
1032 1035 1036 0
982 1032 1036 0
984 982 1036 0
984 1036 985 0
983 986 1037 0
1033 983 1037 0
1038 1033 1037 0
1038 1039 1033 0
1033 1039 1034 0
1039 1040 1034 0
1034 1040 1035 0
1041 1036 1035 0
1041 1035 1040 0
1041 1040 1042 0
1036 987 985 0
1041 987 1036 0
986 1043 1037 0
988 1043 986 0
1042 1044 990 0
1042 990 991 0
1042 991 1041 0
991 987 1041 0
1043 993 1045 0
988 993 1043 0
1045 993 1046 0
1046 993 994 0
995 1044 1047 0
990 1044 995 0
994 1048 1046 0
997 1048 994 0
998 1047 1049 0
995 1047 998 0
997 1050 1048 0
999 1050 997 0
1000 1049 1051 0
998 1049 1000 0
999 1052 1050 0
1001 1052 999 0
1002 1051 1053 0
1000 1051 1002 0
1001 1054 1052 0
1003 1054 1001 0
1004 1053 1055 0
1002 1053 1004 0
1003 1056 1054 0
1005 1056 1003 0
1006 1055 1057 0
1004 1055 1006 0
1005 1058 1056 0
1008 1058 1005 0
1010 1057 1059 0
1006 1057 1010 0
1058 1011 1060 0
1008 1011 1058 0
1060 1012 1061 0
1011 1012 1060 0
1010 1061 1012 0
1059 1061 1010 0
1038 1037 1062 0
1039 1062 1063 0
1038 1062 1039 0
1040 1063 1064 0
1039 1063 1040 0
1040 1064 1042 0
1065 1037 1043 0
1062 1037 1065 0
1063 1062 1065 0
1063 1065 1066 0
1063 1066 1067 0
1067 1068 1063 0
1063 1068 1064 0
1069 1044 1042 0
1068 1069 1042 0
1064 1068 1042 0
1065 1043 1045 0
1046 1070 1066 0
1046 1066 1065 0
1046 1065 1045 0
1047 1069 1071 0
1044 1069 1047 0
1046 1072 1070 0
1048 1072 1046 0
1049 1071 1073 0
1047 1071 1049 0
1048 1074 1072 0
1050 1074 1048 0
1051 1073 1075 0
1049 1073 1051 0
1050 1076 1074 0
1052 1076 1050 0
1053 1075 1077 0
1051 1075 1053 0
1052 1078 1076 0
1054 1078 1052 0
1055 1077 1079 0
1053 1077 1055 0
1054 1080 1078 0
1056 1080 1054 0
1057 1079 1081 0
1055 1079 1057 0
1056 1082 1080 0
1058 1082 1056 0
1059 1081 1083 0
1057 1081 1059 0
1082 1060 1084 0
1058 1060 1082 0
1084 1061 1085 0
1060 1061 1084 0
1059 1085 1061 0
1083 1085 1059 0
1087 1066 1086 0
1067 1066 1087 0
1088 1067 1087 0
1068 1067 1088 0
1089 1068 1088 0
1069 1068 1089 0
1066 1090 1086 0
1070 1090 1066 0
1071 1089 1091 0
1069 1089 1071 0
1070 1092 1090 0
1072 1092 1070 0
1073 1091 1093 0
1071 1091 1073 0
1072 1094 1092 0
1074 1094 1072 0
1075 1093 1095 0
1073 1093 1075 0
1098 1096 1097 0
1094 1074 1076 0
1094 1076 1096 0
1094 1096 1098 0
1077 1075 1095 0
1077 1095 1100 0
1077 1100 1099 0
1101 1099 1100 0
