#!ascii version of
1898 3792
3.000000  -37.500000  8.000000  0
2.000000  -37.500000  8.000000  0
1.000000  -37.500000  8.000000  0
1.000000  -37.000000  8.500000  0
0.500000  -37.000000  8.000000  0
6.000000  -37.500000  7.000000  0
6.500000  -37.000000  7.000000  0
6.000000  -37.000000  7.500000  0
5.000000  -37.500000  7.000000  0
4.000000  -37.500000  7.000000  0
3.000000  -37.500000  7.000000  0
2.000000  -37.500000  7.000000  0
1.000000  -37.500000  7.000000  0
0.000000  -37.500000  7.000000  0
0.000000  -37.000000  7.500000  0
-0.500000  -37.000000  7.000000  0
6.500000  -37.000000  6.000000  0
0.000000  -37.500000  6.000000  0
-0.500000  -37.000000  6.000000  0
7.000000  -37.500000  5.000000  0
7.500000  -37.000000  5.000000  0
7.000000  -37.000000  5.500000  0
-1.000000  -37.500000  5.000000  0
-1.000000  -37.000000  5.500000  0
-1.500000  -37.000000  5.000000  0
7.500000  -37.000000  4.000000  0
-2.000000  -37.500000  4.000000  0
-2.000000  -37.000000  4.500000  0
-2.500000  -37.000000  4.000000  0
8.000000  -37.500000  3.000000  0
8.500000  -37.000000  3.000000  0
8.000000  -37.000000  3.500000  0
-2.500000  -37.000000  3.000000  0
8.500000  -37.000000  2.000000  0
-3.000000  -37.500000  2.000000  0
-3.000000  -37.000000  2.500000  0
-3.500000  -37.000000  2.000000  0
8.500000  -37.000000  1.000000  0
-3.500000  -37.000000  1.000000  0
8.500000  -37.000000  0.000000  0
-3.500000  -37.000000  0.000000  0
8.500000  -37.000000  -1.000000  0
-3.500000  -37.000000  -1.000000  0
9.000000  -37.500000  -2.000000  0
8.500000  -37.000000  -2.000000  0
-3.500000  -37.000000  -2.000000  0
9.000000  -37.500000  -3.000000  0
8.500000  -37.000000  -3.000000  0
-3.500000  -37.000000  -3.000000  0
9.000000  -37.500000  -4.000000  0
8.500000  -37.000000  -4.000000  0
-3.500000  -37.000000  -4.000000  0
8.500000  -37.000000  -5.000000  0
-3.500000  -37.000000  -5.000000  0
8.000000  -37.500000  -6.000000  0
8.000000  -37.000000  -5.500000  0
7.500000  -37.000000  -6.000000  0
-3.000000  -37.500000  -6.000000  0
-2.500000  -37.000000  -6.000000  0
-3.000000  -37.000000  -5.500000  0
8.000000  -37.500000  -7.000000  0
7.500000  -37.000000  -7.000000  0
-2.000000  -37.500000  -7.000000  0
-1.500000  -37.000000  -7.000000  0
-2.000000  -37.000000  -6.500000  0
-3.000000  -37.500000  -7.000000  0
7.000000  -37.500000  -8.000000  0
7.000000  -37.000000  -7.500000  0
6.500000  -37.000000  -8.000000  0
-1.000000  -37.500000  -8.000000  0
-0.500000  -37.000000  -8.000000  0
-1.000000  -37.000000  -7.500000  0
-2.000000  -37.500000  -8.000000  0
7.000000  -37.500000  -9.000000  0
6.000000  -37.500000  -9.000000  0
6.000000  -37.000000  -8.500000  0
5.500000  -37.000000  -9.000000  0
-1.000000  -37.500000  -9.000000  0
-0.500000  -37.000000  -9.000000  0
6.000000  -37.500000  -10.000000  0
5.000000  -37.500000  -10.000000  0
5.000000  -37.000000  -9.500000  0
4.500000  -37.000000  -10.000000  0
-1.000000  -37.500000  -10.000000  0
-0.500000  -37.000000  -10.000000  0
6.000000  -37.500000  -11.000000  0
5.000000  -37.500000  -11.000000  0
4.500000  -37.000000  -11.000000  0
-1.000000  -37.500000  -11.000000  0
-0.500000  -37.000000  -11.000000  0
5.000000  -37.500000  -12.000000  0
4.500000  -37.000000  -12.000000  0
-1.000000  -37.500000  -12.000000  0
-0.500000  -37.000000  -12.000000  0
5.000000  -37.500000  -13.000000  0
4.500000  -37.000000  -13.000000  0
-1.000000  -37.500000  -13.000000  0
-0.500000  -37.000000  -13.000000  0
5.000000  -37.500000  -14.000000  0
4.000000  -37.500000  -14.000000  0
4.000000  -37.000000  -13.500000  0
3.500000  -37.000000  -14.000000  0
-1.000000  -37.500000  -14.000000  0
-0.500000  -37.000000  -14.000000  0
5.000000  -37.500000  -15.000000  0
4.000000  -37.500000  -15.000000  0
3.500000  -37.000000  -15.000000  0
-1.000000  -37.500000  -15.000000  0
-0.500000  -37.000000  -15.000000  0
5.000000  -37.500000  -16.000000  0
4.000000  -37.500000  -16.000000  0
3.500000  -37.000000  -16.000000  0
-1.000000  -37.500000  -16.000000  0
-0.500000  -37.000000  -16.000000  0
4.000000  -37.500000  -17.000000  0
3.500000  -37.000000  -17.000000  0
-1.000000  -37.500000  -17.000000  0
-0.500000  -37.000000  -17.000000  0
4.000000  -37.500000  -18.000000  0
3.500000  -37.000000  -18.000000  0
0.000000  -37.500000  -18.000000  0
0.500000  -37.000000  -18.000000  0
0.000000  -37.000000  -17.500000  0
4.000000  -37.500000  -19.000000  0
3.500000  -37.000000  -19.000000  0
0.000000  -37.500000  -19.000000  0
0.500000  -37.000000  -19.000000  0
3.000000  -37.500000  -20.000000  0
3.000000  -37.000000  -19.500000  0
2.000000  -37.500000  -20.000000  0
2.000000  -37.000000  -19.500000  0
1.500000  -37.000000  -20.000000  0
0.000000  -37.500000  -20.000000  0
0.500000  -37.000000  -20.000000  0
3.000000  -37.500000  -21.000000  0
2.000000  -37.500000  -21.000000  0
1.500000  -37.000000  -21.000000  0
0.000000  -37.500000  -21.000000  0
0.500000  -37.000000  -21.000000  0
3.000000  -37.500000  -22.000000  0
2.000000  -37.500000  -22.000000  0
1.000000  -37.500000  -22.000000  0
1.000000  -37.000000  -21.500000  0
0.000000  -37.500000  -22.000000  0
3.000000  -37.500000  -23.000000  0
2.000000  -37.500000  -23.000000  0
1.000000  -37.500000  -23.000000  0
0.000000  -37.500000  -23.000000  0
2.000000  -37.500000  -24.000000  0
1.000000  -37.500000  -24.000000  0
5.500000  -36.000000  13.000000  0
5.000000  -36.000000  13.500000  0
4.000000  -36.000000  13.500000  0
3.000000  -36.500000  13.000000  0
3.000000  -36.000000  13.500000  0
2.000000  -36.500000  13.000000  0
2.000000  -36.000000  13.500000  0
1.500000  -36.000000  13.000000  0
5.000000  -36.500000  12.000000  0
5.000000  -36.000000  12.500000  0
4.500000  -36.000000  12.000000  0
1.500000  -36.000000  12.000000  0
5.500000  -36.000000  11.000000  0
5.000000  -36.000000  11.500000  0
1.500000  -36.000000  11.000000  0
5.500000  -36.000000  10.000000  0
1.500000  -36.000000  10.000000  0
6.000000  -36.500000  9.000000  0
6.500000  -36.000000  9.000000  0
6.000000  -36.000000  9.500000  0
1.000000  -36.500000  9.000000  0
1.000000  -36.000000  9.500000  0
0.500000  -36.000000  9.000000  0
6.000000  -36.500000  8.000000  0
6.500000  -36.000000  8.000000  0
0.000000  -36.500000  8.000000  0
0.000000  -36.000000  8.500000  0
-0.500000  -36.000000  8.000000  0
6.500000  -36.000000  7.000000  0
-0.500000  -36.000000  7.000000  0
6.500000  -36.000000  6.000000  0
-0.500000  -36.000000  6.000000  0
7.500000  -36.000000  5.000000  0
7.000000  -36.000000  5.500000  0
-1.000000  -36.000000  5.500000  0
-1.500000  -36.000000  5.000000  0
7.500000  -36.000000  4.000000  0
-2.000000  -36.500000  4.000000  0
-1.500000  -36.000000  4.000000  0
8.000000  -36.500000  3.000000  0
7.500000  -36.000000  3.000000  0
-2.000000  -36.000000  3.500000  0
-2.500000  -36.000000  3.000000  0
8.500000  -36.000000  2.000000  0
8.000000  -36.000000  2.500000  0
-3.000000  -36.500000  2.000000  0
-2.500000  -36.000000  2.000000  0
8.500000  -36.000000  1.000000  0
-3.000000  -36.500000  1.000000  0
-2.500000  -36.000000  1.000000  0
8.500000  -36.000000  0.000000  0
-3.000000  -36.500000  0.000000  0
-2.500000  -36.000000  0.000000  0
8.500000  -36.000000  -1.000000  0
-3.000000  -36.500000  -1.000000  0
-2.500000  -36.000000  -1.000000  0
8.500000  -36.000000  -2.000000  0
-3.000000  -36.500000  -2.000000  0
-2.500000  -36.000000  -2.000000  0
8.500000  -36.000000  -3.000000  0
-3.000000  -36.500000  -3.000000  0
-2.500000  -36.000000  -3.000000  0
8.500000  -36.000000  -4.000000  0
-3.000000  -36.500000  -4.000000  0
-2.500000  -36.000000  -4.000000  0
8.000000  -36.500000  -5.000000  0
8.000000  -36.000000  -4.500000  0
7.500000  -36.000000  -5.000000  0
0.000000  -36.500000  -5.000000  0
0.500000  -36.000000  -5.000000  0
0.000000  -36.000000  -4.500000  0
-1.000000  -36.500000  -5.000000  0
-1.000000  -36.000000  -4.500000  0
-2.000000  -36.500000  -5.000000  0
-2.000000  -36.000000  -4.500000  0
-3.000000  -36.500000  -5.000000  0
7.000000  -36.500000  -6.000000  0
7.000000  -36.000000  -5.500000  0
6.000000  -36.500000  -6.000000  0
6.000000  -36.000000  -5.500000  0
5.500000  -36.000000  -6.000000  0
0.000000  -36.500000  -6.000000  0
0.500000  -36.000000  -6.000000  0
-1.000000  -36.500000  -6.000000  0
-2.000000  -36.500000  -6.000000  0
7.000000  -36.500000  -7.000000  0
6.000000  -36.500000  -7.000000  0
5.000000  -36.500000  -7.000000  0
5.000000  -36.000000  -6.500000  0
4.500000  -36.000000  -7.000000  0
0.000000  -36.500000  -7.000000  0
0.500000  -36.000000  -7.000000  0
-1.000000  -36.500000  -7.000000  0
6.000000  -36.500000  -8.000000  0
5.000000  -36.500000  -8.000000  0
4.000000  -36.500000  -8.000000  0
4.000000  -36.000000  -7.500000  0
3.500000  -36.000000  -8.000000  0
1.000000  -36.500000  -8.000000  0
1.500000  -36.000000  -8.000000  0
1.000000  -36.000000  -7.500000  0
0.000000  -36.500000  -8.000000  0
5.000000  -36.500000  -9.000000  0
4.000000  -36.500000  -9.000000  0
3.500000  -36.000000  -9.000000  0
1.000000  -36.500000  -9.000000  0
1.500000  -36.000000  -9.000000  0
0.000000  -36.500000  -9.000000  0
4.000000  -36.500000  -10.000000  0
3.500000  -36.000000  -10.000000  0
1.000000  -36.500000  -10.000000  0
1.500000  -36.000000  -10.000000  0
0.000000  -36.500000  -10.000000  0
4.000000  -36.500000  -11.000000  0
3.500000  -36.000000  -11.000000  0
1.000000  -36.500000  -11.000000  0
1.500000  -36.000000  -11.000000  0
0.000000  -36.500000  -11.000000  0
4.000000  -36.500000  -12.000000  0
3.500000  -36.000000  -12.000000  0
1.000000  -36.500000  -12.000000  0
1.500000  -36.000000  -12.000000  0
0.000000  -36.500000  -12.000000  0
4.000000  -36.500000  -13.000000  0
3.500000  -36.000000  -13.000000  0
1.000000  -36.500000  -13.000000  0
1.500000  -36.000000  -13.000000  0
0.000000  -36.500000  -13.000000  0
3.500000  -36.000000  -14.000000  0
1.000000  -36.500000  -14.000000  0
1.500000  -36.000000  -14.000000  0
0.000000  -36.500000  -14.000000  0
3.000000  -36.500000  -15.000000  0
3.000000  -36.000000  -14.500000  0
2.500000  -36.000000  -15.000000  0
1.000000  -36.500000  -15.000000  0
1.500000  -36.000000  -15.000000  0
0.000000  -36.500000  -15.000000  0
3.000000  -36.500000  -16.000000  0
2.500000  -36.000000  -16.000000  0
1.000000  -36.500000  -16.000000  0
1.500000  -36.000000  -16.000000  0
0.000000  -36.500000  -16.000000  0
3.000000  -36.500000  -17.000000  0
2.000000  -36.500000  -17.000000  0
2.000000  -36.000000  -16.500000  0
1.000000  -36.500000  -17.000000  0
0.000000  -36.500000  -17.000000  0
3.000000  -36.500000  -18.000000  0
2.000000  -36.500000  -18.000000  0
1.000000  -36.500000  -18.000000  0
3.000000  -36.500000  -19.000000  0
2.000000  -36.500000  -19.000000  0
1.000000  -36.500000  -19.000000  0
1.000000  -36.500000  -20.000000  0
1.000000  -36.500000  -21.000000  0
2.000000  -35.500000  15.000000  0
2.500000  -35.000000  15.000000  0
2.000000  -35.000000  15.500000  0
1.500000  -35.000000  15.000000  0
2.000000  -35.000000  14.500000  0
5.000000  -35.500000  13.000000  0
4.500000  -35.000000  13.000000  0
4.000000  -35.000000  13.500000  0
3.000000  -35.000000  13.500000  0
2.000000  -35.000000  13.500000  0
1.500000  -35.000000  13.000000  0
4.500000  -35.000000  12.000000  0
1.500000  -35.000000  12.000000  0
5.500000  -35.000000  11.000000  0
5.000000  -35.000000  11.500000  0
1.500000  -35.000000  11.000000  0
5.500000  -35.000000  10.000000  0
1.000000  -35.500000  10.000000  0
1.000000  -35.000000  10.500000  0
0.500000  -35.000000  10.000000  0
6.000000  -35.500000  9.000000  0
5.500000  -35.000000  9.000000  0
0.500000  -35.000000  9.000000  0
6.000000  -35.500000  8.000000  0
5.500000  -35.000000  8.000000  0
0.000000  -35.500000  8.000000  0
0.500000  -35.000000  8.000000  0
6.000000  -35.500000  7.000000  0
5.500000  -35.000000  7.000000  0
0.000000  -35.500000  7.000000  0
0.500000  -35.000000  7.000000  0
6.500000  -35.000000  6.000000  0
6.000000  -35.000000  6.500000  0
0.000000  -35.500000  6.000000  0
0.500000  -35.000000  6.000000  0
7.000000  -35.500000  5.000000  0
6.500000  -35.000000  5.000000  0
0.000000  -35.500000  5.000000  0
0.500000  -35.000000  5.000000  0
-1.000000  -35.500000  5.000000  0
7.000000  -35.500000  4.000000  0
6.500000  -35.000000  4.000000  0
0.000000  -35.500000  4.000000  0
0.500000  -35.000000  4.000000  0
-1.000000  -35.500000  4.000000  0
7.000000  -35.500000  3.000000  0
6.500000  -35.000000  3.000000  0
0.000000  -35.500000  3.000000  0
0.500000  -35.000000  3.000000  0
-1.000000  -35.500000  3.000000  0
-2.000000  -35.500000  3.000000  0
8.000000  -35.500000  2.000000  0
7.000000  -35.500000  2.000000  0
6.000000  -35.500000  2.000000  0
6.000000  -35.000000  2.500000  0
5.500000  -35.000000  2.000000  0
0.000000  -35.500000  2.000000  0
0.500000  -35.000000  2.000000  0
-1.000000  -35.500000  2.000000  0
-2.000000  -35.500000  2.000000  0
8.000000  -35.500000  1.000000  0
7.000000  -35.500000  1.000000  0
6.000000  -35.500000  1.000000  0
5.000000  -35.500000  1.000000  0
5.000000  -35.000000  1.500000  0
4.500000  -35.000000  1.000000  0
1.000000  -35.500000  1.000000  0
1.500000  -35.000000  1.000000  0
1.000000  -35.000000  1.500000  0
0.000000  -35.500000  1.000000  0
-1.000000  -35.500000  1.000000  0
-2.000000  -35.500000  1.000000  0
8.000000  -35.500000  0.000000  0
7.000000  -35.500000  0.000000  0
6.000000  -35.500000  0.000000  0
5.000000  -35.500000  0.000000  0
4.500000  -35.000000  0.000000  0
1.000000  -35.500000  0.000000  0
1.500000  -35.000000  0.000000  0
0.000000  -35.500000  0.000000  0
-1.000000  -35.500000  0.000000  0
-2.000000  -35.500000  0.000000  0
8.000000  -35.500000  -1.000000  0
7.000000  -35.500000  -1.000000  0
6.000000  -35.500000  -1.000000  0
5.000000  -35.500000  -1.000000  0
4.000000  -35.500000  -1.000000  0
4.000000  -35.000000  -0.500000  0
3.500000  -35.000000  -1.000000  0
1.000000  -35.500000  -1.000000  0
1.500000  -35.000000  -1.000000  0
0.000000  -35.500000  -1.000000  0
-1.000000  -35.500000  -1.000000  0
-2.000000  -35.500000  -1.000000  0
8.000000  -35.500000  -2.000000  0
7.000000  -35.500000  -2.000000  0
6.000000  -35.500000  -2.000000  0
5.000000  -35.500000  -2.000000  0
4.000000  -35.500000  -2.000000  0
3.500000  -35.000000  -2.000000  0
1.000000  -35.500000  -2.000000  0
1.500000  -35.000000  -2.000000  0
0.000000  -35.500000  -2.000000  0
-1.000000  -35.500000  -2.000000  0
-2.000000  -35.500000  -2.000000  0
8.000000  -35.500000  -3.000000  0
7.000000  -35.500000  -3.000000  0
6.000000  -35.500000  -3.000000  0
5.000000  -35.500000  -3.000000  0
4.000000  -35.500000  -3.000000  0
3.500000  -35.000000  -3.000000  0
1.000000  -35.500000  -3.000000  0
1.500000  -35.000000  -3.000000  0
0.000000  -35.500000  -3.000000  0
-1.000000  -35.500000  -3.000000  0
-2.000000  -35.500000  -3.000000  0
8.000000  -35.500000  -4.000000  0
7.000000  -35.500000  -4.000000  0
6.000000  -35.500000  -4.000000  0
5.000000  -35.500000  -4.000000  0
4.000000  -35.500000  -4.000000  0
3.500000  -35.000000  -4.000000  0
1.000000  -35.500000  -4.000000  0
1.500000  -35.000000  -4.000000  0
0.000000  -35.500000  -4.000000  0
-1.000000  -35.500000  -4.000000  0
-2.000000  -35.500000  -4.000000  0
7.000000  -35.500000  -5.000000  0
6.000000  -35.500000  -5.000000  0
5.000000  -35.500000  -5.000000  0
4.000000  -35.500000  -5.000000  0
3.000000  -35.500000  -5.000000  0
3.000000  -35.000000  -4.500000  0
2.000000  -35.500000  -5.000000  0
2.000000  -35.000000  -4.500000  0
1.000000  -35.500000  -5.000000  0
5.000000  -35.500000  -6.000000  0
4.000000  -35.500000  -6.000000  0
3.000000  -35.500000  -6.000000  0
2.000000  -35.500000  -6.000000  0
1.000000  -35.500000  -6.000000  0
4.000000  -35.500000  -7.000000  0
3.000000  -35.500000  -7.000000  0
2.000000  -35.500000  -7.000000  0
1.000000  -35.500000  -7.000000  0
3.000000  -35.500000  -8.000000  0
2.000000  -35.500000  -8.000000  0
3.000000  -35.500000  -9.000000  0
2.000000  -35.500000  -9.000000  0
3.000000  -35.500000  -10.000000  0
2.000000  -35.500000  -10.000000  0
3.000000  -35.500000  -11.000000  0
2.000000  -35.500000  -11.000000  0
3.000000  -35.500000  -12.000000  0
2.000000  -35.500000  -12.000000  0
3.000000  -35.500000  -13.000000  0
2.000000  -35.500000  -13.000000  0
3.000000  -35.500000  -14.000000  0
2.000000  -35.500000  -14.000000  0
2.000000  -35.500000  -15.000000  0
2.000000  -35.500000  -16.000000  0
4.000000  -34.500000  15.000000  0
4.500000  -34.000000  15.000000  0
4.000000  -34.000000  15.500000  0
3.000000  -34.500000  15.000000  0
3.000000  -34.000000  15.500000  0
2.000000  -34.000000  15.500000  0
1.000000  -34.500000  15.000000  0
1.000000  -34.000000  15.500000  0
0.500000  -34.000000  15.000000  0
4.000000  -34.500000  14.000000  0
4.500000  -34.000000  14.000000  0
3.000000  -34.500000  14.000000  0
2.000000  -34.500000  14.000000  0
1.000000  -34.500000  14.000000  0
0.500000  -34.000000  14.000000  0
4.500000  -34.000000  13.000000  0
1.000000  -34.500000  13.000000  0
0.500000  -34.000000  13.000000  0
4.500000  -34.000000  12.000000  0
1.500000  -34.000000  12.000000  0
1.000000  -34.000000  12.500000  0
5.000000  -34.500000  11.000000  0
4.500000  -34.000000  11.000000  0
1.500000  -34.000000  11.000000  0
5.000000  -34.500000  10.000000  0
4.500000  -34.000000  10.000000  0
1.000000  -34.500000  10.000000  0
1.500000  -34.000000  10.000000  0
5.000000  -34.500000  9.000000  0
4.500000  -34.000000  9.000000  0
1.000000  -34.500000  9.000000  0
1.500000  -34.000000  9.000000  0
5.000000  -34.500000  8.000000  0
4.500000  -34.000000  8.000000  0
1.000000  -34.500000  8.000000  0
1.500000  -34.000000  8.000000  0
5.000000  -34.500000  7.000000  0
4.500000  -34.000000  7.000000  0
1.000000  -34.500000  7.000000  0
1.500000  -34.000000  7.000000  0
6.000000  -34.500000  6.000000  0
5.000000  -34.500000  6.000000  0
4.500000  -34.000000  6.000000  0
1.000000  -34.500000  6.000000  0
1.500000  -34.000000  6.000000  0
6.000000  -34.500000  5.000000  0
5.000000  -34.500000  5.000000  0
4.500000  -34.000000  5.000000  0
1.000000  -34.500000  5.000000  0
1.500000  -34.000000  5.000000  0
6.000000  -34.500000  4.000000  0
5.000000  -34.500000  4.000000  0
4.000000  -34.500000  4.000000  0
4.000000  -34.000000  4.500000  0
3.500000  -34.000000  4.000000  0
1.000000  -34.500000  4.000000  0
1.500000  -34.000000  4.000000  0
6.000000  -34.500000  3.000000  0
5.000000  -34.500000  3.000000  0
4.000000  -34.500000  3.000000  0
3.000000  -34.500000  3.000000  0
3.000000  -34.000000  3.500000  0
2.000000  -34.500000  3.000000  0
2.000000  -34.000000  3.500000  0
1.000000  -34.500000  3.000000  0
5.000000  -34.500000  2.000000  0
4.000000  -34.500000  2.000000  0
3.000000  -34.500000  2.000000  0
2.000000  -34.500000  2.000000  0
1.000000  -34.500000  2.000000  0
4.000000  -34.500000  1.000000  0
3.000000  -34.500000  1.000000  0
2.000000  -34.500000  1.000000  0
4.000000  -34.500000  0.000000  0
3.000000  -34.500000  0.000000  0
2.000000  -34.500000  0.000000  0
3.000000  -34.500000  -1.000000  0
2.000000  -34.500000  -1.000000  0
3.000000  -34.500000  -2.000000  0
2.000000  -34.500000  -2.000000  0
3.000000  -34.500000  -3.000000  0
2.000000  -34.500000  -3.000000  0
3.000000  -34.500000  -4.000000  0
2.000000  -34.500000  -4.000000  0
4.000000  -33.500000  16.000000  0
4.500000  -33.000000  16.000000  0
4.000000  -33.000000  16.500000  0
3.000000  -33.500000  16.000000  0
3.000000  -33.000000  16.500000  0
2.000000  -33.500000  16.000000  0
2.000000  -33.000000  16.500000  0
1.500000  -33.000000  16.000000  0
4.500000  -33.000000  15.000000  0
1.000000  -33.500000  15.000000  0
1.500000  -33.000000  15.000000  0
4.000000  -33.500000  14.000000  0
4.000000  -33.000000  14.500000  0
3.000000  -33.500000  14.000000  0
3.000000  -33.000000  14.500000  0
2.000000  -33.500000  14.000000  0
2.000000  -33.000000  14.500000  0
1.000000  -33.500000  14.000000  0
4.000000  -33.500000  13.000000  0
3.000000  -33.500000  13.000000  0
2.000000  -33.500000  13.000000  0
1.000000  -33.500000  13.000000  0
4.000000  -33.500000  12.000000  0
3.000000  -33.500000  12.000000  0
2.000000  -33.500000  12.000000  0
4.000000  -33.500000  11.000000  0
3.000000  -33.500000  11.000000  0
2.000000  -33.500000  11.000000  0
4.000000  -33.500000  10.000000  0
3.000000  -33.500000  10.000000  0
2.000000  -33.500000  10.000000  0
4.000000  -33.500000  9.000000  0
3.000000  -33.500000  9.000000  0
2.000000  -33.500000  9.000000  0
4.000000  -33.500000  8.000000  0
3.000000  -33.500000  8.000000  0
2.000000  -33.500000  8.000000  0
4.000000  -33.500000  7.000000  0
3.000000  -33.500000  7.000000  0
2.000000  -33.500000  7.000000  0
4.000000  -33.500000  6.000000  0
3.000000  -33.500000  6.000000  0
2.000000  -33.500000  6.000000  0
4.000000  -33.500000  5.000000  0
3.000000  -33.500000  5.000000  0
2.000000  -33.500000  5.000000  0
3.000000  -33.500000  4.000000  0
2.000000  -33.500000  4.000000  0
4.000000  -32.500000  16.000000  0
3.000000  -32.500000  16.000000  0
2.000000  -32.500000  16.000000  0
4.000000  -32.500000  15.000000  0
3.000000  -32.500000  15.000000  0
2.000000  -32.500000  15.000000  0
2 0 1 0
3 0 2 0
6 4 5 0
6 7 4 0
8 7 6 0
0 9 7 0
1 0 7 0
8 1 7 0
3 9 0 0
10 9 3 0
4 12 5 0
11 12 4 0
13 4 7 0
11 4 13 0
13 7 9 0
14 13 9 0
15 14 9 0
9 10 15 0
12 11 16 0
11 17 16 0
13 17 11 0
13 14 17 0
20 18 19 0
20 21 18 0
22 21 20 0
23 21 22 0
26 24 25 0
26 27 24 0
28 27 26 0
19 27 28 0
19 18 27 0
18 1 27 0
2 1 18 0
18 21 2 0
21 3 2 0
21 30 3 0
30 29 3 0
21 23 30 0
5 31 25 0
6 5 25 0
24 6 25 0
24 27 6 0
6 27 8 0
27 1 8 0
32 34 33 0
10 3 29 0
32 10 29 0
34 32 29 0
5 35 31 0
12 35 5 0
37 36 38 0
36 33 38 0
36 14 33 0
14 32 33 0
15 32 14 0
15 10 32 0
35 16 39 0
12 16 35 0
39 16 17 0
37 39 17 0
36 37 17 0
17 14 36 0
42 40 41 0
43 40 42 0
46 44 45 0
46 47 44 0
48 47 46 0
40 49 47 0
41 40 47 0
48 41 47 0
43 49 40 0
50 49 43 0
53 51 52 0
53 54 20 0
51 53 20 0
19 51 20 0
55 20 54 0
22 20 55 0
56 22 55 0
23 22 56 0
45 44 57 0
44 58 57 0
47 58 44 0
47 59 58 0
49 59 47 0
49 50 59 0
61 25 60 0
26 25 61 0
28 26 61 0
28 61 52 0
28 52 51 0
51 19 28 0
62 29 63 0
63 29 30 0
23 63 30 0
56 63 23 0
25 64 60 0
31 64 25 0
66 65 67 0
34 68 67 0
34 67 65 0
34 65 33 0
29 68 34 0
62 68 29 0
31 69 64 0
35 69 31 0
66 70 37 0
66 37 38 0
66 38 65 0
38 33 65 0
69 39 71 0
35 39 69 0
37 71 39 0
70 71 37 0
73 41 72 0
42 41 73 0
42 73 75 0
43 42 75 0
74 43 75 0
76 74 75 0
79 77 78 0
80 77 79 0
82 45 81 0
46 45 82 0
83 46 82 0
48 46 83 0
48 83 41 0
41 83 72 0
50 43 84 0
84 43 74 0
76 84 74 0
85 84 76 0
87 52 86 0
53 52 87 0
54 53 87 0
54 87 78 0
54 78 77 0
88 55 54 0
88 54 77 0
88 77 80 0
55 88 90 0
56 55 90 0
89 56 90 0
91 89 90 0
81 57 92 0
45 57 81 0
92 58 93 0
57 58 92 0
93 59 94 0
58 59 93 0
95 94 59 0
84 95 59 0
50 84 59 0
84 85 95 0
97 60 96 0
61 60 97 0
61 97 52 0
52 97 86 0
98 62 99 0
99 62 63 0
100 99 63 0
89 100 63 0
56 89 63 0
89 91 100 0
60 101 96 0
64 101 60 0
102 66 103 0
103 66 67 0
103 68 104 0
67 68 103 0
62 104 68 0
98 104 62 0
101 64 69 0
106 101 69 0
105 106 69 0
70 66 102 0
105 70 102 0
106 105 102 0
105 69 71 0
71 70 105 0
109 107 108 0
109 110 107 0
111 110 109 0
112 110 111 0
115 113 114 0
115 116 113 0
117 116 115 0
118 116 117 0
120 72 119 0
73 72 120 0
75 73 120 0
75 120 108 0
75 108 107 0
107 110 75 0
110 76 75 0
110 122 76 0
122 121 76 0
110 112 122 0
113 124 114 0
123 124 113 0
123 113 116 0
123 116 79 0
123 79 78 0
126 116 118 0
126 125 116 0
125 79 116 0
80 79 125 0
127 125 126 0
129 81 128 0
82 81 129 0
130 82 129 0
83 82 130 0
83 130 72 0
72 130 119 0
85 121 131 0
76 121 85 0
86 132 124 0
87 86 124 0
123 87 124 0
123 78 87 0
88 80 125 0
133 90 88 0
133 88 125 0
133 125 127 0
134 90 133 0
91 90 134 0
128 92 135 0
81 92 128 0
135 93 136 0
92 93 135 0
136 94 137 0
93 94 136 0
137 95 138 0
94 95 137 0
85 138 95 0
131 138 85 0
97 96 139 0
140 132 86 0
140 86 97 0
140 97 139 0
141 98 142 0
142 98 99 0
142 100 143 0
99 100 142 0
91 143 100 0
134 143 91 0
96 101 144 0
139 96 144 0
145 139 144 0
145 140 139 0
103 146 102 0
103 104 148 0
103 148 147 0
103 147 146 0
98 148 104 0
141 148 98 0
144 106 149 0
101 106 144 0
150 149 106 0
146 150 106 0
102 146 106 0
146 147 150 0
153 151 152 0
153 154 151 0
155 154 153 0
155 156 154 0
157 156 155 0
157 158 156 0
159 158 157 0
159 160 158 0
161 160 159 0
161 162 160 0
163 162 161 0
164 162 163 0
167 165 166 0
151 168 165 0
152 151 165 0
167 152 165 0
169 151 154 0
168 151 169 0
170 154 156 0
169 154 170 0
171 156 158 0
170 156 171 0
172 158 160 0
171 158 172 0
173 160 162 0
172 160 173 0
174 173 162 0
175 174 162 0
164 175 162 0
176 174 175 0
179 177 178 0
179 180 109 0
177 179 109 0
108 177 109 0
111 109 180 0
111 180 166 0
111 166 165 0
165 168 111 0
168 112 111 0
168 182 112 0
182 181 112 0
168 183 182 0
169 183 168 0
169 184 183 0
170 184 169 0
170 185 184 0
171 185 170 0
171 186 185 0
172 186 171 0
172 187 186 0
173 187 172 0
174 187 173 0
174 188 187 0
115 188 174 0
114 188 115 0
189 117 115 0
189 115 174 0
189 174 176 0
190 117 189 0
118 117 190 0
193 191 192 0
178 191 193 0
178 177 191 0
177 119 191 0
120 119 177 0
177 108 120 0
194 121 195 0
195 121 122 0
112 195 122 0
181 195 112 0
114 196 188 0
124 196 114 0
197 126 190 0
190 126 118 0
198 126 197 0
127 126 198 0
200 128 199 0
129 128 200 0
130 129 200 0
130 200 192 0
130 192 191 0
191 119 130 0
131 194 201 0
121 194 131 0
124 202 196 0
132 202 124 0
203 133 198 0
198 133 127 0
204 133 203 0
134 133 204 0
199 135 205 0
128 135 199 0
205 136 206 0
135 136 205 0
206 137 207 0
136 137 206 0
207 138 208 0
137 138 207 0
131 208 138 0
201 208 131 0
132 209 202 0
140 209 132 0
210 141 142 0
211 210 143 0
143 210 142 0
134 204 212 0
143 134 212 0
211 143 212 0
145 144 213 0
214 209 140 0
214 140 145 0
214 145 213 0
215 147 148 0
216 210 217 0
216 215 210 0
215 141 210 0
148 141 215 0
210 218 217 0
211 218 210 0
211 212 218 0
213 144 149 0
149 150 219 0
213 149 219 0
214 213 219 0
220 219 150 0
215 220 150 0
147 215 150 0
215 216 220 0
223 221 222 0
223 224 153 0
221 223 153 0
152 221 153 0
225 153 224 0
155 153 225 0
226 155 225 0
157 155 226 0
227 157 226 0
159 157 227 0
228 159 227 0
161 159 228 0
229 161 228 0
163 161 229 0
163 229 231 0
164 163 231 0
230 164 231 0
232 230 231 0
235 233 234 0
222 233 235 0
222 221 233 0
221 166 233 0
167 166 221 0
221 152 167 0
175 164 230 0
237 230 232 0
237 236 230 0
236 175 230 0
176 175 236 0
238 236 237 0
240 178 239 0
179 178 240 0
180 179 240 0
180 240 234 0
180 234 233 0
233 166 180 0
241 181 182 0
182 183 243 0
182 243 242 0
182 242 241 0
243 184 244 0
183 184 243 0
244 185 245 0
184 185 244 0
245 186 246 0
185 186 245 0
246 186 187 0
246 187 247 0
246 247 248 0
188 247 187 0
189 176 236 0
250 236 238 0
250 249 236 0
249 189 236 0
190 189 249 0
251 249 250 0
253 192 252 0
193 192 253 0
193 253 178 0
178 253 239 0
254 194 255 0
255 194 195 0
256 255 195 0
241 256 195 0
181 241 195 0
241 242 256 0
248 247 257 0
188 196 258 0
188 258 257 0
188 257 247 0
197 190 249 0
260 249 251 0
260 259 249 0
259 197 249 0
198 197 259 0
261 259 260 0
263 199 262 0
200 199 263 0
200 263 192 0
192 263 252 0
201 254 264 0
194 254 201 0
196 265 258 0
202 265 196 0
203 198 259 0
261 266 204 0
259 261 204 0
203 259 204 0
262 205 267 0
199 205 262 0
267 206 268 0
205 206 267 0
268 207 269 0
206 207 268 0
269 208 270 0
207 208 269 0
201 270 208 0
264 270 201 0
265 202 209 0
272 265 209 0
271 272 209 0
272 271 273 0
212 266 274 0
204 266 212 0
275 209 214 0
271 209 275 0
271 275 276 0
271 276 277 0
271 277 273 0
217 278 277 0
217 277 276 0
217 276 216 0
278 218 279 0
217 218 278 0
212 279 218 0
274 279 212 0
275 214 219 0
219 276 275 0
220 276 219 0
220 216 276 0
282 280 281 0
282 283 280 0
284 283 282 0
284 285 283 0
286 285 284 0
286 287 285 0
288 287 286 0
288 289 287 0
290 289 288 0
290 291 289 0
292 291 290 0
292 293 291 0
294 293 292 0
295 293 294 0
298 296 297 0
281 296 298 0
281 280 296 0
280 222 296 0
223 222 280 0
280 283 223 0
223 283 224 0
283 285 224 0
224 285 225 0
285 287 225 0
225 287 226 0
287 289 226 0
226 289 227 0
289 291 227 0
227 291 228 0
291 293 228 0
228 293 229 0
299 231 229 0
299 229 293 0
299 293 295 0
300 231 299 0
232 231 300 0
303 301 302 0
297 301 303 0
297 296 301 0
296 234 301 0
235 234 296 0
296 222 235 0
304 237 300 0
300 237 232 0
305 237 304 0
238 237 305 0
308 306 307 0
302 306 308 0
302 301 306 0
301 239 306 0
240 239 301 0
301 234 240 0
309 242 243 0
243 244 311 0
243 311 310 0
243 310 309 0
311 245 312 0
244 245 311 0
312 246 313 0
245 246 312 0
313 246 314 0
314 246 248 0
315 250 305 0
305 250 238 0
316 250 315 0
251 250 316 0
252 317 307 0
253 252 307 0
306 253 307 0
306 239 253 0
318 254 255 0
319 318 256 0
256 318 255 0
320 309 321 0
320 319 309 0
319 242 309 0
256 242 319 0
309 310 321 0
314 257 322 0
248 257 314 0
322 257 323 0
323 257 258 0
324 260 316 0
316 260 251 0
325 260 324 0
261 260 325 0
327 262 326 0
263 262 327 0
263 327 252 0
252 327 317 0
264 254 328 0
328 254 318 0
328 318 319 0
329 328 319 0
330 329 319 0
319 320 330 0
323 258 265 0
332 323 265 0
331 332 265 0
332 331 333 0
266 325 334 0
261 325 266 0
326 267 335 0
262 267 326 0
335 268 336 0
267 268 335 0
336 269 337 0
268 269 336 0
337 269 270 0
337 270 338 0
337 338 339 0
328 340 338 0
328 338 270 0
328 270 264 0
329 340 328 0
341 340 329 0
331 265 272 0
273 342 333 0
273 333 331 0
273 331 272 0
274 334 343 0
266 334 274 0
339 338 344 0
338 345 344 0
340 345 338 0
340 341 345 0
342 277 346 0
273 277 342 0
346 278 347 0
277 278 346 0
347 279 348 0
278 279 347 0
274 348 279 0
343 348 274 0
351 349 350 0
351 352 349 0
353 352 351 0
354 352 353 0
349 356 350 0
355 356 349 0
357 349 352 0
355 349 357 0
354 357 352 0
358 357 354 0
355 360 356 0
359 360 355 0
361 355 357 0
359 355 361 0
362 361 357 0
363 362 357 0
358 363 357 0
363 364 362 0
365 364 363 0
366 364 365 0
359 368 360 0
367 368 359 0
369 359 361 0
367 359 369 0
370 361 362 0
369 361 370 0
371 362 364 0
370 362 371 0
366 371 364 0
372 371 366 0
368 367 373 0
367 374 373 0
369 374 367 0
369 370 375 0
374 369 375 0
376 374 375 0
375 370 371 0
377 375 371 0
378 377 371 0
371 372 378 0
376 375 379 0
375 377 379 0
382 380 381 0
382 383 282 0
380 382 282 0
281 380 282 0
384 282 383 0
284 282 384 0
385 284 384 0
286 284 385 0
386 286 385 0
288 286 386 0
387 288 386 0
290 288 387 0
388 290 387 0
292 290 388 0
389 292 388 0
294 292 389 0
294 389 391 0
295 294 391 0
390 295 391 0
392 390 391 0
297 393 381 0
298 297 381 0
380 298 381 0
380 281 298 0
299 295 390 0
395 390 392 0
395 394 390 0
394 299 390 0
300 299 394 0
396 394 395 0
398 302 397 0
303 302 398 0
303 398 297 0
297 398 393 0
304 300 394 0
396 399 305 0
394 396 305 0
304 394 305 0
401 307 400 0
308 307 401 0
308 401 302 0
302 401 397 0
402 310 403 0
403 310 311 0
403 312 404 0
311 312 403 0
404 313 405 0
312 313 404 0
405 313 406 0
406 313 314 0
407 315 399 0
399 315 305 0
408 315 407 0
316 315 408 0
307 409 400 0
317 409 307 0
410 320 411 0
411 320 321 0
310 411 321 0
402 411 310 0
406 322 412 0
314 322 406 0
412 322 413 0
413 322 323 0
414 324 408 0
408 324 316 0
415 324 414 0
325 324 415 0
417 326 416 0
327 326 417 0
327 417 317 0
317 417 409 0
418 329 330 0
320 410 419 0
330 320 419 0
418 330 419 0
413 332 420 0
323 332 413 0
420 332 421 0
421 332 333 0
334 415 422 0
325 415 334 0
416 335 423 0
326 335 416 0
423 336 424 0
335 336 423 0
424 337 425 0
336 337 424 0
425 337 426 0
426 337 339 0
341 329 427 0
427 329 418 0
419 427 418 0
428 427 419 0
333 429 421 0
342 429 333 0
343 422 430 0
334 422 343 0
426 344 431 0
339 344 426 0
431 345 432 0
344 345 431 0
432 345 434 0
345 433 434 0
345 341 433 0
341 427 433 0
428 433 427 0
435 433 428 0
429 346 436 0
342 346 429 0
436 347 437 0
346 347 436 0
437 347 348 0
437 348 438 0
437 438 439 0
430 348 343 0
430 438 348 0
441 438 430 0
440 438 441 0
442 440 441 0
434 433 443 0
433 435 443 0
438 445 439 0
444 445 438 0
446 438 440 0
444 438 446 0
442 446 440 0
447 446 442 0
444 449 445 0
448 449 444 0
450 444 446 0
448 444 450 0
447 450 446 0
451 450 447 0
449 448 452 0
448 450 453 0
452 448 453 0
454 452 453 0
455 351 451 0
351 450 451 0
351 350 450 0
350 453 450 0
456 351 455 0
353 351 456 0
457 353 456 0
354 353 457 0
453 459 454 0
458 459 453 0
350 356 453 0
453 356 458 0
358 457 460 0
354 457 358 0
458 462 459 0
461 462 458 0
356 360 458 0
458 360 461 0
463 363 460 0
460 363 358 0
464 363 463 0
365 363 464 0
465 365 464 0
366 365 465 0
468 466 467 0
468 469 466 0
470 469 468 0
461 471 469 0
462 461 469 0
470 462 469 0
360 368 461 0
461 368 471 0
372 465 472 0
366 465 372 0
475 473 474 0
476 473 475 0
479 477 478 0
466 480 477 0
467 466 477 0
479 467 477 0
481 466 469 0
480 466 481 0
482 469 471 0
481 469 482 0
483 482 471 0
483 471 368 0
483 368 373 0
484 483 374 0
374 483 373 0
376 484 374 0
485 377 378 0
372 472 486 0
378 372 486 0
485 378 486 0
473 488 474 0
487 488 473 0
489 487 473 0
490 489 473 0
476 490 473 0
490 491 489 0
492 491 490 0
477 494 478 0
491 492 493 0
477 495 494 0
480 495 477 0
480 496 495 0
481 496 480 0
481 497 496 0
482 497 481 0
482 498 497 0
483 498 482 0
483 499 498 0
484 499 483 0
499 500 501 0
499 484 500 0
484 379 500 0
376 379 484 0
485 502 500 0
485 500 379 0
485 379 377 0
486 502 485 0
503 502 486 0
506 504 505 0
487 507 504 0
488 487 504 0
506 488 504 0
508 487 489 0
507 487 508 0
509 489 491 0
508 489 509 0
493 509 491 0
510 509 493 0
501 500 511 0
500 512 511 0
502 512 500 0
502 503 512 0
504 514 505 0
513 514 504 0
515 504 507 0
513 504 515 0
516 507 508 0
515 507 516 0
517 508 509 0
516 508 517 0
510 517 509 0
518 517 510 0
513 520 514 0
519 520 513 0
521 513 515 0
519 513 521 0
522 515 516 0
521 515 522 0
522 516 517 0
523 522 517 0
524 523 517 0
517 518 524 0
527 525 526 0
519 528 525 0
520 519 525 0
527 520 525 0
529 519 521 0
528 519 529 0
530 521 522 0
529 521 530 0
523 530 522 0
531 530 523 0
526 525 532 0
525 528 533 0
532 525 533 0
534 532 533 0
535 528 529 0
533 528 535 0
536 529 530 0
535 529 536 0
531 536 530 0
537 536 531 0
533 539 534 0
538 539 533 0
540 533 535 0
538 533 540 0
541 535 536 0
540 535 541 0
537 541 536 0
542 541 537 0
538 544 539 0
543 544 538 0
545 538 540 0
543 538 545 0
546 540 541 0
545 540 546 0
547 546 541 0
548 547 541 0
542 548 541 0
549 547 548 0
543 551 544 0
550 551 543 0
552 543 545 0
550 543 552 0
553 545 546 0
552 545 553 0
554 546 547 0
553 546 554 0
549 554 547 0
555 554 549 0
551 550 556 0
550 557 556 0
552 557 550 0
552 558 557 0
553 558 552 0
553 554 559 0
558 553 559 0
560 558 559 0
555 559 554 0
561 559 555 0
560 559 562 0
559 561 562 0
565 563 564 0
565 566 563 0
567 566 565 0
567 568 566 0
569 568 567 0
569 570 568 0
571 570 569 0
571 572 570 0
573 572 571 0
573 574 572 0
575 574 573 0
575 576 574 0
577 576 575 0
578 576 577 0
580 381 579 0
382 381 580 0
383 382 580 0
383 580 564 0
383 564 563 0
563 566 383 0
383 566 384 0
566 568 384 0
384 568 385 0
568 570 385 0
385 570 386 0
570 572 386 0
386 572 387 0
572 574 387 0
387 574 388 0
574 576 388 0
388 576 389 0
581 391 389 0
581 389 576 0
581 576 578 0
391 581 583 0
392 391 583 0
582 392 583 0
584 582 583 0
587 585 586 0
579 381 393 0
579 393 585 0
579 585 587 0
395 392 582 0
584 588 396 0
582 584 396 0
395 582 396 0
397 589 586 0
398 397 586 0
585 398 586 0
585 393 398 0
399 396 588 0
399 588 591 0
399 591 590 0
592 590 591 0
594 400 593 0
401 400 594 0
401 594 397 0
397 594 589 0
595 402 403 0
596 595 404 0
404 595 403 0
597 596 405 0
405 596 404 0
406 597 405 0
407 399 590 0
592 598 408 0
590 592 408 0
407 590 408 0
400 599 593 0
409 599 400 0
600 410 601 0
601 410 411 0
602 601 411 0
595 602 411 0
402 595 411 0
595 603 602 0
596 603 595 0
596 604 603 0
597 604 596 0
412 605 604 0
406 412 604 0
597 406 604 0
605 412 606 0
606 412 413 0
607 414 598 0
598 414 408 0
608 414 607 0
415 414 608 0
610 416 609 0
417 416 610 0
417 610 409 0
409 610 599 0
419 600 611 0
410 600 419 0
606 420 612 0
413 420 606 0
612 420 613 0
613 420 421 0
422 608 614 0
415 608 422 0
616 609 416 0
615 616 416 0
423 615 416 0
617 615 424 0
424 615 423 0
618 617 425 0
425 617 424 0
426 618 425 0
428 611 619 0
419 611 428 0
421 620 613 0
429 620 421 0
430 614 621 0
422 614 430 0
615 623 616 0
622 623 615 0
624 615 617 0
622 615 624 0
624 617 618 0
625 624 618 0
626 625 618 0
431 627 626 0
426 431 626 0
618 426 626 0
627 431 432 0
627 432 628 0
627 628 629 0
434 628 432 0
435 619 630 0
428 619 435 0
632 620 429 0
631 632 429 0
436 631 429 0
633 631 437 0
437 631 436 0
439 633 437 0
634 441 621 0
621 441 430 0
635 441 634 0
442 441 635 0
623 622 636 0
622 637 636 0
624 637 622 0
624 625 637 0
629 628 638 0
443 639 638 0
434 443 638 0
628 434 638 0
435 639 443 0
630 639 435 0
631 641 632 0
640 641 631 0
642 631 633 0
640 631 642 0
439 445 633 0
633 445 642 0
447 635 643 0
442 635 447 0
646 644 645 0
640 647 644 0
641 640 644 0
646 641 644 0
648 640 642 0
647 640 648 0
445 449 642 0
642 449 648 0
451 447 643 0
451 643 650 0
451 650 649 0
651 649 650 0
654 652 653 0
644 655 652 0
645 644 652 0
654 645 652 0
656 644 647 0
655 644 656 0
657 647 648 0
656 647 657 0
658 657 648 0
658 648 449 0
658 449 452 0
454 658 452 0
455 451 649 0
659 456 455 0
659 455 649 0
659 649 651 0
660 456 659 0
457 456 660 0
663 661 662 0
652 664 661 0
653 652 661 0
663 653 661 0
665 652 655 0
664 652 665 0
666 655 656 0
665 655 666 0
667 656 657 0
666 656 667 0
668 657 658 0
667 657 668 0
454 459 658 0
658 459 668 0
460 660 669 0
457 660 460 0
672 670 671 0
672 673 670 0
674 673 672 0
661 675 673 0
662 661 673 0
674 662 673 0
676 661 664 0
675 661 676 0
677 664 665 0
676 664 677 0
678 665 666 0
677 665 678 0
679 666 667 0
678 666 679 0
680 667 668 0
679 667 680 0
459 462 668 0
668 462 680 0
681 463 669 0
669 463 460 0
682 463 681 0
464 463 682 0
683 464 682 0
465 464 683 0
670 685 671 0
684 685 670 0
686 670 673 0
684 670 686 0
687 673 675 0
686 673 687 0
688 675 676 0
687 675 688 0
689 676 677 0
688 676 689 0
690 677 678 0
689 677 690 0
690 678 679 0
690 679 468 0
690 468 467 0
679 680 468 0
468 680 470 0
680 462 470 0
472 683 691 0
465 683 472 0
684 693 685 0
692 693 684 0
694 684 686 0
692 684 694 0
694 686 687 0
694 687 475 0
694 475 474 0
687 688 695 0
687 695 476 0
687 476 475 0
696 688 689 0
695 688 696 0
696 689 690 0
696 690 479 0
696 479 478 0
690 467 479 0
486 691 697 0
472 691 486 0
692 699 693 0
698 699 692 0
700 692 694 0
698 692 700 0
474 488 694 0
694 488 700 0
490 476 695 0
695 696 490 0
490 696 492 0
701 696 702 0
701 493 696 0
493 492 696 0
702 696 494 0
494 696 478 0
702 495 703 0
494 495 702 0
703 496 704 0
495 496 703 0
704 497 705 0
496 497 704 0
705 498 706 0
497 498 705 0
706 499 707 0
498 499 706 0
707 499 708 0
708 499 501 0
503 697 709 0
486 697 503 0
698 711 699 0
710 711 698 0
710 698 700 0
710 700 506 0
710 506 505 0
700 488 506 0
510 701 712 0
493 701 510 0
708 511 713 0
501 511 708 0
713 512 714 0
511 512 713 0
503 714 512 0
709 714 503 0
710 716 711 0
715 716 710 0
505 514 710 0
710 514 715 0
518 712 717 0
510 712 518 0
715 719 716 0
718 719 715 0
514 520 715 0
715 520 718 0
720 523 524 0
518 717 721 0
524 518 721 0
720 524 721 0
526 722 719 0
527 526 719 0
718 527 719 0
718 520 527 0
531 523 723 0
723 523 720 0
721 723 720 0
724 723 721 0
726 722 526 0
725 726 526 0
532 725 526 0
534 725 532 0
537 531 727 0
727 531 723 0
724 727 723 0
728 727 724 0
725 730 726 0
729 730 725 0
534 539 725 0
725 539 729 0
542 537 731 0
731 537 727 0
728 731 727 0
732 731 728 0
730 729 733 0
539 544 734 0
539 734 733 0
539 733 729 0
548 542 731 0
736 731 732 0
736 735 731 0
735 548 731 0
549 548 735 0
737 735 736 0
544 738 734 0
551 738 544 0
555 549 739 0
739 549 735 0
737 739 735 0
740 739 737 0
742 738 551 0
741 742 551 0
556 741 551 0
556 557 744 0
556 744 743 0
556 743 741 0
744 558 745 0
557 558 744 0
745 558 746 0
746 558 560 0
561 555 747 0
747 555 739 0
740 747 739 0
748 747 740 0
742 741 749 0
741 743 749 0
746 562 750 0
560 562 746 0
751 750 562 0
747 751 562 0
561 747 562 0
747 748 751 0
754 752 753 0
755 752 754 0
758 756 757 0
758 759 756 0
760 759 758 0
760 761 759 0
762 761 760 0
762 763 761 0
764 763 762 0
764 765 763 0
766 765 764 0
766 767 765 0
768 767 766 0
752 769 767 0
753 752 767 0
768 753 767 0
770 769 752 0
771 770 752 0
755 771 752 0
771 772 770 0
773 772 771 0
774 772 773 0
756 776 757 0
775 776 756 0
775 756 759 0
775 759 565 0
775 565 564 0
759 761 565 0
565 761 567 0
761 763 567 0
567 763 569 0
763 765 569 0
569 765 571 0
765 767 571 0
571 767 573 0
767 769 573 0
573 769 575 0
769 770 575 0
575 770 577 0
770 772 777 0
770 777 578 0
770 578 577 0
778 777 772 0
779 778 772 0
774 779 772 0
780 778 779 0
783 781 782 0
776 781 783 0
776 775 781 0
775 579 781 0
580 579 775 0
775 564 580 0
581 578 777 0
777 778 581 0
581 778 583 0
780 784 584 0
778 780 584 0
583 778 584 0
586 785 782 0
587 586 782 0
781 587 782 0
781 579 587 0
588 584 784 0
588 784 787 0
588 787 786 0
788 786 787 0
586 789 785 0
589 789 586 0
591 588 786 0
788 790 592 0
786 788 592 0
591 786 592 0
792 593 791 0
594 593 792 0
594 792 589 0
589 792 789 0
598 790 793 0
592 790 598 0
593 794 791 0
599 794 593 0
795 600 601 0
796 795 602 0
602 795 601 0
797 796 603 0
603 796 602 0
798 797 604 0
604 797 603 0
799 798 605 0
605 798 604 0
606 799 605 0
800 607 793 0
793 607 598 0
801 607 800 0
608 607 801 0
803 609 802 0
610 609 803 0
610 803 599 0
599 803 794 0
611 600 804 0
804 600 795 0
805 795 796 0
804 795 805 0
805 796 797 0
806 805 797 0
807 806 797 0
797 808 807 0
798 808 797 0
798 799 809 0
808 798 809 0
810 808 809 0
811 809 799 0
811 799 606 0
811 606 612 0
613 811 612 0
614 801 812 0
608 801 614 0
609 813 802 0
616 813 609 0
619 611 814 0
814 611 804 0
815 804 805 0
814 804 815 0
806 815 805 0
816 815 806 0
809 818 810 0
817 818 809 0
819 809 811 0
817 809 819 0
613 620 811 0
811 620 819 0
621 812 820 0
614 812 621 0
616 821 813 0
623 821 616 0
822 625 626 0
823 822 627 0
627 822 626 0
629 823 627 0
630 619 824 0
824 619 814 0
824 814 815 0
825 824 815 0
826 825 815 0
815 816 826 0
817 828 818 0
827 828 817 0
829 817 819 0
827 817 829 0
620 632 819 0
819 632 829 0
830 634 820 0
820 634 621 0
831 634 830 0
635 634 831 0
821 636 832 0
623 636 821 0
832 636 637 0
832 637 833 0
832 833 834 0
835 822 836 0
835 833 822 0
833 625 822 0
637 625 833 0
822 837 836 0
823 837 822 0
638 838 837 0
629 638 837 0
823 629 837 0
838 638 639 0
838 639 839 0
838 839 840 0
824 841 839 0
824 839 639 0
824 639 630 0
825 841 824 0
842 841 825 0
827 844 828 0
843 844 827 0
845 827 829 0
843 827 845 0
632 641 829 0
829 641 845 0
643 831 846 0
635 831 643 0
834 833 847 0
833 835 847 0
839 849 840 0
848 849 839 0
850 839 841 0
848 839 850 0
851 850 841 0
852 851 841 0
842 852 841 0
852 853 851 0
854 853 852 0
854 855 853 0
856 855 854 0
843 857 855 0
844 843 855 0
856 844 855 0
857 843 845 0
857 845 646 0
857 646 645 0
845 641 646 0
643 846 859 0
643 859 858 0
643 858 650 0
650 858 651 0
849 848 860 0
848 850 861 0
860 848 861 0
862 860 861 0
863 850 851 0
861 850 863 0
864 851 853 0
863 851 864 0
865 853 855 0
864 853 865 0
865 855 857 0
865 857 654 0
865 654 653 0
857 645 654 0
866 858 859 0
866 867 659 0
866 659 651 0
866 651 858 0
868 659 867 0
660 659 868 0
861 870 862 0
869 870 861 0
871 861 863 0
869 861 871 0
872 863 864 0
871 863 872 0
872 864 865 0
872 865 663 0
872 663 662 0
865 653 663 0
669 868 873 0
660 868 669 0
870 869 874 0
871 874 869 0
871 875 874 0
672 875 871 0
671 875 672 0
871 872 672 0
672 872 674 0
872 662 674 0
877 876 878 0
876 879 878 0
879 873 878 0
879 681 873 0
681 669 873 0
682 879 880 0
681 879 682 0
682 880 683 0
671 881 875 0
685 881 671 0
883 882 884 0
882 885 884 0
884 885 886 0
885 887 876 0
885 876 877 0
885 877 886 0
887 879 876 0
888 879 887 0
888 880 879 0
889 880 888 0
880 691 683 0
889 691 880 0
685 890 881 0
693 890 685 0
883 892 882 0
882 892 891 0
891 885 882 0
893 885 891 0
893 887 885 0
894 887 893 0
894 888 887 0
895 888 894 0
895 889 888 0
896 889 895 0
889 697 691 0
896 697 889 0
693 897 890 0
699 897 693 0
898 701 899 0
899 701 702 0
899 703 900 0
702 703 899 0
900 704 901 0
703 704 900 0
901 704 705 0
892 901 705 0
891 892 705 0
705 893 891 0
706 893 705 0
706 894 893 0
707 894 706 0
902 895 894 0
708 902 894 0
707 708 894 0
902 896 895 0
903 896 902 0
896 709 697 0
903 709 896 0
699 904 897 0
711 904 699 0
712 898 905 0
701 898 712 0
902 708 713 0
713 903 902 0
714 903 713 0
714 709 903 0
711 906 904 0
716 906 711 0
717 905 907 0
712 905 717 0
716 908 906 0
719 908 716 0
721 907 909 0
717 907 721 0
719 910 908 0
722 910 719 0
724 909 911 0
721 909 724 0
722 912 910 0
726 912 722 0
728 724 911 0
728 911 914 0
728 914 913 0
915 913 914 0
726 916 912 0
730 916 726 0
732 728 917 0
917 728 913 0
915 917 913 0
918 917 915 0
920 916 730 0
919 920 730 0
733 919 730 0
734 919 733 0
736 732 917 0
918 921 737 0
917 918 737 0
736 917 737 0
919 923 920 0
922 923 919 0
734 738 919 0
919 738 922 0
740 921 924 0
737 921 740 0
923 922 925 0
738 742 926 0
738 926 925 0
738 925 922 0
927 743 744 0
928 927 745 0
745 927 744 0
746 928 745 0
748 924 929 0
740 924 748 0
931 926 742 0
930 931 742 0
749 930 742 0
927 932 930 0
927 930 749 0
927 749 743 0
933 927 928 0
932 927 933 0
934 933 928 0
934 928 746 0
934 746 750 0
750 751 936 0
750 936 935 0
750 935 934 0
748 936 751 0
929 936 748 0
930 938 931 0
937 938 930 0
939 930 932 0
937 930 939 0
940 932 933 0
939 932 940 0
941 933 934 0
940 933 941 0
935 941 934 0
942 941 935 0
938 937 943 0
937 944 943 0
939 944 937 0
939 945 944 0
940 945 939 0
940 946 945 0
941 946 940 0
941 942 946 0
949 947 948 0
949 950 947 0
951 950 949 0
951 952 950 0
953 952 951 0
954 952 953 0
957 955 956 0
947 958 955 0
948 947 955 0
957 948 955 0
959 947 950 0
958 947 959 0
960 950 952 0
959 950 960 0
961 960 952 0
962 961 952 0
954 962 952 0
962 963 754 0
961 962 754 0
753 961 754 0
754 963 965 0
755 754 965 0
964 755 965 0
965 966 964 0
967 966 965 0
968 966 967 0
970 757 969 0
758 757 970 0
760 758 970 0
760 970 956 0
760 956 955 0
955 958 760 0
760 958 762 0
958 959 762 0
762 959 764 0
959 960 764 0
764 960 766 0
960 961 766 0
766 961 768 0
961 753 768 0
771 755 964 0
964 966 771 0
771 966 773 0
968 971 774 0
966 968 774 0
773 966 774 0
757 972 969 0
776 972 757 0
973 779 971 0
971 779 774 0
974 779 973 0
780 779 974 0
976 782 975 0
783 782 976 0
783 976 776 0
776 976 972 0
784 974 977 0
780 974 784 0
782 978 975 0
785 978 782 0
979 787 977 0
977 787 784 0
980 787 979 0
788 787 980 0
785 981 978 0
789 981 785 0
790 980 982 0
788 980 790 0
984 791 983 0
792 791 984 0
792 984 789 0
789 984 981 0
793 982 985 0
790 982 793 0
791 986 983 0
794 986 791 0
987 800 985 0
985 800 793 0
988 800 987 0
801 800 988 0
803 802 989 0
990 986 794 0
990 794 803 0
990 803 989 0
991 806 807 0
992 991 808 0
808 991 807 0
810 992 808 0
812 988 993 0
801 988 812 0
994 802 813 0
989 802 994 0
989 994 990 0
990 994 995 0
816 806 996 0
996 806 991 0
997 991 992 0
996 991 997 0
810 818 992 0
992 818 997 0
820 993 998 0
812 993 820 0
999 813 821 0
994 813 999 0
994 999 995 0
995 999 1000 0
1001 825 826 0
996 1002 1001 0
996 1001 826 0
996 826 816 0
1003 996 997 0
1002 996 1003 0
818 828 997 0
997 828 1003 0
820 998 1005 0
820 1005 1004 0
820 1004 830 0
830 1004 831 0
999 821 832 0
834 1006 1000 0
834 1000 999 0
834 999 832 0
1007 835 836 0
1008 1007 837 0
837 1007 836 0
1009 1008 838 0
838 1008 837 0
840 1009 838 0
842 825 1010 0
1010 825 1001 0
1011 1001 1002 0
1010 1001 1011 0
1012 1002 1003 0
1011 1002 1012 0
828 844 1003 0
1003 844 1012 0
1005 1014 1004 0
1004 1014 1013 0
1004 846 831 0
1013 846 1004 0
1006 847 1015 0
834 847 1006 0
1016 1015 847 0
1007 1016 847 0
835 1007 847 0
1007 1017 1016 0
1008 1017 1007 0
1008 1009 1018 0
1017 1008 1018 0
1019 1017 1018 0
840 849 1009 0
1009 849 1018 0
852 842 1010 0
1010 1011 852 0
852 1011 854 0
1011 1012 854 0
854 1012 856 0
1012 844 856 0
1014 1021 1013 0
1013 1021 1020 0
1013 859 846 0
1020 859 1013 0
1019 1018 1022 0
1022 1023 1024 0
1022 1018 1023 0
1018 860 1023 0
849 860 1018 0
862 1023 860 0
1021 1026 1020 0
1020 1026 1025 0
