#!ascii version of
8802 17604
1688 1682 2143 0
2143 1682 2132 0
2144 2132 2133 0
2143 2132 2144 0
2145 2133 2134 0
2144 2133 2145 0
2146 2145 2134 0
2147 2146 2134 0
2136 2147 2134 0
2148 2146 2147 0
2151 2149 2150 0
2137 2152 2149 0
2138 2137 2149 0
2151 2138 2149 0
2153 2137 2139 0
2152 2137 2153 0
2154 2139 2140 0
2153 2139 2154 0
1685 1690 2140 0
2140 1690 2154 0
1691 2141 2155 0
1686 2141 1691 0
1687 2156 2142 0
1692 2156 1687 0
1693 1688 2157 0
2157 1688 2143 0
2158 2143 2144 0
2157 2143 2158 0
2159 2144 2145 0
2158 2144 2159 0
2160 2145 2146 0
2159 2145 2160 0
2148 2160 2146 0
2161 2160 2148 0
2149 2163 2150 0
2162 2163 2149 0
2164 2149 2152 0
2162 2149 2164 0
2165 2152 2153 0
2164 2152 2165 0
2166 2153 2154 0
2165 2153 2166 0
1690 1695 2154 0
2154 1695 2166 0
1696 2155 2167 0
1691 2155 1696 0
1692 2168 2156 0
1697 2168 1692 0
1698 1693 2169 0
2169 1693 2157 0
2170 2157 2158 0
2169 2157 2170 0
2171 2158 2159 0
2170 2158 2171 0
2172 2159 2160 0
2171 2159 2172 0
2173 2172 2160 0
2174 2173 2160 0
2161 2174 2160 0
2175 2173 2174 0
2162 2177 2163 0
2176 2177 2162 0
2178 2162 2164 0
2176 2162 2178 0
2179 2164 2165 0
2178 2164 2179 0
2180 2165 2166 0
2179 2165 2180 0
1695 1700 2166 0
2166 1700 2180 0
1701 2167 2181 0
1696 2167 1701 0
1697 2182 2168 0
1702 2182 1697 0
1703 1698 2183 0
2183 1698 2169 0
2184 2169 2170 0
2183 2169 2184 0
2185 2170 2171 0
2184 2170 2185 0
2186 2171 2172 0
2185 2171 2186 0
2187 2172 2173 0
2186 2172 2187 0
2175 2187 2173 0
2188 2187 2175 0
2176 2190 2177 0
2189 2190 2176 0
2191 2176 2178 0
2189 2176 2191 0
2192 2178 2179 0
2191 2178 2192 0
2193 2179 2180 0
2192 2179 2193 0
1700 1705 2180 0
2180 1705 2193 0
1706 1701 2181 0
1706 2181 2195 0
1706 2195 2194 0
2196 2194 2195 0
1702 2197 2182 0
1707 2197 1702 0
1708 1703 2198 0
2198 1703 2183 0
2199 2183 2184 0
2198 2183 2199 0
2200 2184 2185 0
2199 2184 2200 0
2201 2185 2186 0
2200 2185 2201 0
2202 2186 2187 0
2201 2186 2202 0
2188 2202 2187 0
2203 2202 2188 0
2189 2205 2190 0
2204 2205 2189 0
2206 2189 2191 0
2204 2189 2206 0
2207 2191 2192 0
2206 2191 2207 0
2208 2192 2193 0
2207 2192 2208 0
1705 1710 2193 0
2193 1710 2208 0
1711 1706 2209 0
2209 1706 2194 0
2196 2209 2194 0
2210 2209 2196 0
1707 2211 2197 0
1712 2211 1707 0
1713 1708 2212 0
2212 1708 2198 0
2213 2198 2199 0
2212 2198 2213 0
2214 2199 2200 0
2213 2199 2214 0
2215 2200 2201 0
2214 2200 2215 0
2216 2201 2202 0
2215 2201 2216 0
2203 2216 2202 0
2217 2216 2203 0
2204 2219 2205 0
2218 2219 2204 0
2220 2204 2206 0
2218 2204 2220 0
2221 2206 2207 0
2220 2206 2221 0
2222 2207 2208 0
2221 2207 2222 0
1710 1715 2208 0
2208 1715 2222 0
1716 1711 2223 0
2223 1711 2209 0
2210 2223 2209 0
2224 2223 2210 0
1712 2225 2211 0
1717 2225 1712 0
1719 1713 2212 0
2212 2213 2226 0
2212 2226 1720 0
2212 1720 1719 0
2227 2213 2214 0
2226 2213 2227 0
2228 2214 2215 0
2227 2214 2228 0
2229 2215 2216 0
2228 2215 2229 0
2230 2229 2216 0
2231 2230 2216 0
2217 2231 2216 0
2231 2232 2230 0
2233 2232 2231 0
2218 2234 2232 0
2219 2218 2232 0
2233 2219 2232 0
2234 2218 2220 0
2234 2220 1723 0
2234 1723 1722 0
2220 2221 1723 0
1723 2221 1725 0
2221 2222 1725 0
1725 2222 1727 0
2222 1715 1727 0
2235 1729 1716 0
2235 1716 2223 0
2235 2223 2236 0
2223 2224 2236 0
1717 2237 2225 0
1731 2237 1717 0
1733 1720 2226 0
2226 2227 1733 0
1733 2227 1735 0
2227 2228 2238 0
2227 2238 1736 0
2227 1736 1735 0
2239 2228 2229 0
2238 2228 2239 0
2240 2229 2230 0
2239 2229 2240 0
2241 2230 2232 0
2240 2230 2241 0
2242 2232 2234 0
2241 2232 2242 0
1722 1738 2234 0
2234 1738 2242 0
1741 2235 2243 0
1729 2235 1741 0
1731 2244 2237 0
1743 2244 1731 0
1747 1736 2238 0
2238 2239 2245 0
2238 2245 1748 0
2238 1748 1747 0
2246 2239 2240 0
2245 2239 2246 0
2247 2240 2241 0
2246 2240 2247 0
2248 2241 2242 0
2247 2241 2248 0
1738 1750 2242 0
2242 1750 2248 0
1752 2243 2249 0
1741 2243 1752 0
1743 2250 2244 0
1754 2250 1743 0
1758 1748 2245 0
2245 2246 2251 0
2245 2251 1759 0
2245 1759 1758 0
2252 2246 2247 0
2251 2246 2252 0
2252 2247 2248 0
2252 2248 1762 0
2252 1762 1761 0
2248 1750 1762 0
1764 2249 2253 0
1752 2249 1764 0
1754 2254 2250 0
1766 2254 1754 0
1769 1759 2255 0
2255 1759 2251 0
2256 2251 2252 0
2255 2251 2256 0
1761 1771 2252 0
2252 1771 2256 0
1773 2253 2257 0
1764 2253 1773 0
1766 2258 2254 0
1774 2258 1766 0
1776 1769 2259 0
2259 1769 2255 0
2260 2255 2256 0
2259 2255 2260 0
1771 1778 2256 0
2256 1778 2260 0
1780 2257 2261 0
1773 2257 1780 0
1774 2262 2258 0
1781 2262 1774 0
1786 1776 2263 0
2263 1776 2259 0
2264 2259 2260 0
2263 2259 2264 0
1778 1788 2260 0
2260 1788 2264 0
1780 2261 2266 0
1780 2266 2265 0
1780 2265 1790 0
1790 2265 1792 0
1781 2267 2262 0
1794 2267 1781 0
1799 1786 2268 0
2268 1786 2263 0
2269 2263 2264 0
2268 2263 2269 0
1788 1801 2264 0
2264 1801 2269 0
2270 2265 2266 0
2271 1804 1792 0
2270 2271 1792 0
2265 2270 1792 0
1794 2272 2267 0
1806 2272 1794 0
1811 1799 2273 0
2273 1799 2268 0
2274 2268 2269 0
2273 2268 2274 0
1801 1813 2269 0
2269 1813 2274 0
1816 2271 2275 0
1804 2271 1816 0
1806 2276 2272 0
1818 2276 1806 0
1821 1811 2277 0
2277 1811 2273 0
2278 2273 2274 0
2277 2273 2278 0
1813 1823 2274 0
2274 1823 2278 0
1825 2275 2279 0
1816 2275 1825 0
2276 1826 2280 0
1818 1826 2276 0
2280 1826 2281 0
2281 1826 1828 0
1831 1821 2277 0
2277 2278 2282 0
2277 2282 1832 0
2277 1832 1831 0
1823 1834 2278 0
2278 1834 2282 0
1836 2279 2283 0
1825 2279 1836 0
1828 2284 2281 0
1838 2284 1828 0
1841 1832 2285 0
2285 1832 2282 0
1834 1843 2282 0
2282 1843 2285 0
1845 2283 2286 0
1836 2283 1845 0
1838 2287 2284 0
1847 2287 1838 0
1851 1841 2285 0
2285 1843 1851 0
1854 2286 2288 0
1845 2286 1854 0
1847 2289 2287 0
1856 2289 1847 0
1861 2288 2290 0
1854 2288 1861 0
2292 2289 1856 0
2291 2292 1856 0
1862 2291 1856 0
1864 2291 1862 0
1868 2290 2293 0
1861 2290 1868 0
2292 2291 2294 0
1864 1870 2295 0
1864 2295 2294 0
1864 2294 2291 0
2296 1872 2297 0
2297 1872 1873 0
1868 2297 1873 0
2293 2297 1868 0
2295 1874 2298 0
1870 1874 2295 0
2298 1874 2299 0
2299 1874 1876 0
1878 2296 2300 0
1872 2296 1878 0
2302 2299 1876 0
2301 2302 1876 0
1879 2301 1876 0
1880 2301 1879 0
1881 2300 2303 0
1878 2300 1881 0
2301 2305 2302 0
2304 2305 2301 0
1880 1882 2301 0
2301 1882 2304 0
1881 2303 2307 0
1881 2307 2306 0
1881 2306 1884 0
1884 2306 1885 0
2304 2309 2305 0
2308 2309 2304 0
1882 1886 2304 0
2304 1886 2308 0
2310 1888 1889 0
2307 2311 2306 0
2311 1890 2306 0
2311 2310 1890 0
2310 1889 1890 0
1890 1885 2306 0
2308 2313 2309 0
2312 2313 2308 0
1886 1892 2308 0
2308 1892 2312 0
1894 1888 2314 0
2314 1888 2310 0
2311 2314 2310 0
2315 2314 2311 0
2312 2317 2313 0
2316 2317 2312 0
1892 1896 2312 0
2312 1896 2316 0
2318 1897 1898 0
2314 2319 2318 0
2314 2318 1898 0
2314 1898 1894 0
2315 2319 2314 0
2320 2319 2315 0
2316 2322 2317 0
2321 2322 2316 0
2323 2321 2316 0
2323 2316 1896 0
2323 1896 1899 0
1900 2323 1899 0
1901 1897 2324 0
2324 1897 2318 0
2325 2318 2319 0
2324 2318 2325 0
2320 2325 2319 0
2326 2325 2320 0
2322 2321 2327 0
2321 2328 2327 0
2323 2328 2321 0
1900 1902 2329 0
1900 2329 2328 0
1900 2328 2323 0
1903 1901 2330 0
2330 1901 2324 0
2330 2324 2325 0
2331 2330 2325 0
2332 2331 2325 0
2325 2326 2332 0
1902 2333 2329 0
1904 2333 1902 0
2334 1906 1907 0
2335 2330 2336 0
2335 2334 2330 0
2334 1903 2330 0
1907 1903 2334 0
2330 2331 2336 0
1904 2337 2333 0
1908 2337 1904 0
1909 1906 2338 0
2338 1906 2334 0
2335 2338 2334 0
2339 2338 2335 0
2341 2337 1908 0
2340 2341 1908 0
1910 2340 1908 0
1911 2340 1910 0
1913 1909 2342 0
2342 1909 2338 0
2339 2342 2338 0
2343 2342 2339 0
2340 2345 2341 0
2344 2345 2340 0
1911 1914 2340 0
2340 1914 2344 0
1916 1913 2346 0
2346 1913 2342 0
2343 2346 2342 0
2347 2346 2343 0
2344 2349 2345 0
2348 2349 2344 0
1914 1918 2344 0
2344 1918 2348 0
1925 1916 2350 0
2350 1916 2346 0
2347 2350 2346 0
2351 2350 2347 0
2349 2348 2352 0
2352 2353 2354 0
2352 2348 2353 0
2348 1926 2353 0
1918 1926 2348 0
2355 2353 1927 0
1927 2353 1926 0
2356 2355 1928 0
1928 2355 1927 0
2357 2356 1929 0
1929 2356 1928 0
2358 2357 1930 0
1930 2357 1929 0
2359 2358 1931 0
1931 2358 1930 0
1933 2359 1931 0
2360 1938 1925 0
2360 1925 2350 0
2360 2350 2361 0
2350 2351 2361 0
2354 2353 2362 0
2353 2363 2362 0
2355 2363 2353 0
2355 2356 2364 0
2363 2355 2364 0
2365 2363 2364 0
2366 2356 2357 0
2364 2356 2366 0
2367 2357 2358 0
2366 2357 2367 0
2368 2358 2359 0
2367 2358 2368 0
2369 2368 2359 0
2369 2359 1933 0
2369 1933 1939 0
2370 2369 1940 0
1940 2369 1939 0
2371 2370 1941 0
1941 2370 1940 0
2372 2371 1942 0
1942 2371 1941 0
2373 2372 1943 0
1943 2372 1942 0
1938 2360 2374 0
1943 1938 2374 0
2373 1943 2374 0
2365 2364 2375 0
2364 2376 2375 0
2366 2376 2364 0
2366 2377 2376 0
2367 2377 2366 0
2367 2378 2377 0
2368 2378 2367 0
2368 2379 2378 0
2369 2379 2368 0
2369 2380 2379 0
2370 2380 2369 0
2370 2381 2380 0
2371 2381 2370 0
2371 2382 2381 0
2372 2382 2371 0
2372 2383 2382 0
2373 2383 2372 0
2373 2374 2383 0
2386 2384 2385 0
2386 2387 2384 0
2388 2387 2386 0
2388 2389 2387 0
2390 2389 2388 0
2390 2391 2389 0
2392 2391 2390 0
2392 2393 2391 0
2394 2393 2392 0
2395 2393 2394 0
2398 2396 2397 0
2398 2399 2396 0
2400 2399 2398 0
2400 2401 2399 0
2402 2401 2400 0
2403 2401 2402 0
1945 2404 2385 0
1946 1945 2385 0
2384 1946 2385 0
2384 2387 1946 0
1946 2387 1948 0
2387 2389 1948 0
1948 2389 1950 0
2389 2391 1950 0
1950 2391 1952 0
2391 2393 1952 0
1952 2393 1954 0
2395 2405 1955 0
2393 2395 1955 0
1954 2393 1955 0
2408 2406 2407 0
2397 2406 2408 0
2397 2396 2406 0
2396 1957 2406 0
1958 1957 2396 0
2396 2399 1958 0
1958 2399 1960 0
2399 2401 1960 0
1960 2401 1962 0
2410 2401 2403 0
2410 2409 2401 0
2409 1962 2401 0
1963 1962 2409 0
2411 2409 2410 0
2413 1965 2412 0
1966 1965 2413 0
1966 2413 1945 0
1945 2413 2404 0
1968 1955 2405 0
1968 2405 2415 0
1968 2415 2414 0
2416 2414 2415 0
2419 2417 2418 0
2407 2417 2419 0
2407 2406 2417 0
2406 1970 2417 0
1971 1970 2406 0
2406 1957 1971 0
1976 1963 2409 0
2420 1978 1976 0
2420 1976 2409 0
2420 2409 2411 0
2421 1978 2420 0
1980 1978 2421 0
2422 1980 2421 0
1982 1980 2422 0
1982 2422 1965 0
1965 2422 2412 0
1984 1968 2423 0
2423 1968 2414 0
2416 2423 2414 0
2424 2423 2416 0
2417 2426 2418 0
2425 2426 2417 0
1970 1986 2417 0
2417 1986 2425 0
1991 1984 2427 0
2427 1984 2423 0
2424 2427 2423 0
2428 2427 2424 0
2425 2430 2426 0
2429 2430 2425 0
1986 1993 2425 0
2425 1993 2429 0
1999 1991 2427 0
2432 2427 2428 0
2432 2431 2427 0
2431 1999 2427 0
2000 1999 2431 0
2433 2431 2432 0
2436 2434 2435 0
2429 2437 2434 0
2430 2429 2434 0
2436 2430 2434 0
1993 2002 2429 0
2429 2002 2437 0
2004 2000 2438 0
2438 2000 2431 0
2433 2438 2431 0
2439 2438 2433 0
2434 2441 2435 0
2440 2441 2434 0
2440 2434 2437 0
2440 2437 2007 0
2440 2007 2006 0
2437 2002 2007 0
2009 2004 2442 0
2442 2004 2438 0
2439 2442 2438 0
2443 2442 2439 0
2011 2444 2441 0
2012 2011 2441 0
2440 2012 2441 0
2440 2006 2012 0
2013 2009 2445 0
2445 2009 2442 0
2443 2445 2442 0
2446 2445 2443 0
2011 2447 2444 0
2015 2447 2011 0
2016 2013 2448 0
2448 2013 2445 0
2446 2448 2445 0
2449 2448 2446 0
2451 2447 2015 0
2450 2451 2015 0
2017 2450 2015 0
2019 2450 2017 0
2022 2016 2452 0
2452 2016 2448 0
2449 2452 2448 0
2453 2452 2449 0
2450 2455 2451 0
2454 2455 2450 0
2456 2454 2450 0
2456 2450 2019 0
2456 2019 2023 0
2457 2456 2024 0
2024 2456 2023 0
2025 2457 2024 0
2027 2022 2458 0
2458 2022 2452 0
2453 2458 2452 0
2459 2458 2453 0
2454 2461 2455 0
2460 2461 2454 0
2462 2454 2456 0
2460 2454 2462 0
2463 2456 2457 0
2462 2456 2463 0
2025 2029 2457 0
2457 2029 2463 0
2465 2464 2466 0
2464 2467 2466 0
2466 2467 2468 0
2034 2469 2468 0
2034 2468 2467 0
2034 2467 2033 0
2471 2469 2034 0
2471 2034 2035 0
2471 2035 2470 0
2471 2470 2472 0
2037 2027 2473 0
2473 2027 2458 0
2459 2473 2458 0
2474 2473 2459 0
2460 2476 2461 0
2475 2476 2460 0
2477 2460 2462 0
2475 2460 2477 0
2478 2462 2463 0
2477 2462 2478 0
2029 2039 2463 0
2463 2039 2478 0
2465 2480 2464 0
2464 2480 2479 0
2479 2467 2464 0
2481 2467 2479 0
2467 2481 2482 0
2033 2467 2482 0
2042 2033 2482 0
2482 2483 2470 0
2042 2482 2470 0
2035 2042 2470 0
2470 2483 2472 0
2472 2483 2484 0
2044 2037 2485 0
2485 2037 2473 0
2474 2485 2473 0
2486 2485 2474 0
2475 2488 2476 0
2487 2488 2475 0
2489 2475 2477 0
2487 2475 2489 0
2489 2477 2478 0
2489 2478 2047 0
2489 2047 2046 0
2478 2039 2047 0
2480 2490 2049 0
2480 2049 2050 0
2480 2050 2479 0
2050 2481 2479 0
2051 2481 2050 0
2051 2482 2481 0
2052 2482 2051 0
2491 2483 2482 0
2053 2491 2482 0
2052 2053 2482 0
2483 2491 2484 0
2484 2491 2492 0
2055 2044 2493 0
2493 2044 2485 0
2486 2493 2485 0
2494 2493 2486 0
2487 2496 2488 0
2495 2496 2487 0
2497 2487 2489 0
2495 2487 2497 0
2046 2057 2489 0
2489 2057 2497 0
2058 2490 2498 0
2049 2490 2058 0
2053 2059 2499 0
2491 2053 2499 0
2500 2491 2499 0
2500 2492 2491 0
2062 2055 2493 0
2494 2501 2063 0
2493 2494 2063 0
2062 2493 2063 0
2065 2502 2496 0
2066 2065 2496 0
2495 2066 2496 0
2495 2497 2066 0
2066 2497 2068 0
2497 2057 2068 0
2503 2069 2070 0
2058 2498 2504 0
2070 2058 2504 0
2503 2070 2504 0
2059 2505 2499 0
2071 2505 2059 0
2074 2501 2506 0
2063 2501 2074 0
2065 2507 2502 0
2075 2507 2065 0
2076 2069 2508 0
2508 2069 2503 0
2504 2508 2503 0
2509 2508 2504 0
2511 2505 2071 0
2510 2511 2071 0
2078 2510 2071 0
2079 2510 2078 0
2081 2506 2512 0
2074 2506 2081 0
2515 2513 2514 0
2515 2516 2513 0
2517 2516 2515 0
2507 2075 2082 0
2507 2082 2516 0
2507 2516 2517 0
2084 2076 2518 0
2518 2076 2508 0
2509 2518 2508 0
2519 2518 2509 0
2510 2521 2511 0
2520 2521 2510 0
2079 2085 2510 0
2510 2085 2520 0
2087 2512 2522 0
2081 2512 2087 0
2513 2524 2514 0
2523 2524 2513 0
2525 2513 2516 0
2523 2513 2525 0
2082 2088 2516 0
2516 2088 2525 0
2090 2084 2526 0
2526 2084 2518 0
2519 2526 2518 0
2527 2526 2519 0
2520 2529 2521 0
2528 2529 2520 0
2085 2092 2520 0
2520 2092 2528 0
2094 2522 2530 0
2087 2522 2094 0
2523 2532 2524 0
2531 2532 2523 0
2533 2523 2525 0
2531 2523 2533 0
2088 2095 2525 0
2525 2095 2533 0
2097 2090 2534 0
2534 2090 2526 0
2527 2534 2526 0
2535 2534 2527 0
2528 2537 2529 0
2536 2537 2528 0
2092 2099 2528 0
2528 2099 2536 0
2100 2530 2538 0
2094 2530 2100 0
2531 2540 2532 0
2539 2540 2531 0
2541 2531 2533 0
2539 2531 2541 0
2095 2101 2533 0
2533 2101 2541 0
2542 2102 2103 0
2534 2543 2542 0
2534 2542 2103 0
2534 2103 2097 0
2535 2543 2534 0
2544 2543 2535 0
2536 2546 2537 0
2545 2546 2536 0
2099 2105 2536 0
2536 2105 2545 0
2106 2538 2547 0
2100 2538 2106 0
2539 2549 2540 0
2548 2549 2539 0
2550 2539 2541 0
2548 2539 2550 0
2101 2107 2541 0
2541 2107 2550 0
2109 2102 2551 0
2551 2102 2542 0
2552 2542 2543 0
2551 2542 2552 0
2544 2552 2543 0
2553 2552 2544 0
2545 2555 2546 0
2554 2555 2545 0
2105 2111 2545 0
2545 2111 2554 0
2113 2547 2556 0
2106 2547 2113 0
2548 2558 2549 0
2557 2558 2548 0
2559 2548 2550 0
2557 2548 2559 0
2107 2114 2550 0
2550 2114 2559 0
2116 2109 2560 0
2560 2109 2551 0
2561 2551 2552 0
2560 2551 2561 0
2562 2561 2552 0
2563 2562 2552 0
2553 2563 2552 0
2564 2562 2563 0
2554 2566 2555 0
2565 2566 2554 0
2111 2118 2554 0
2554 2118 2565 0
2120 2556 2567 0
2113 2556 2120 0
2557 2569 2558 0
2568 2569 2557 0
2570 2557 2559 0
2568 2557 2570 0
2114 2121 2559 0
2559 2121 2570 0
2123 2116 2571 0
2571 2116 2560 0
2572 2560 2561 0
2571 2560 2572 0
2573 2561 2562 0
2572 2561 2573 0
2574 2573 2562 0
2575 2574 2562 0
2564 2575 2562 0
2575 2576 2574 0
2577 2576 2575 0
2565 2578 2576 0
2566 2565 2576 0
2577 2566 2576 0
2118 2125 2565 0
2565 2125 2578 0
2579 2128 2567 0
2567 2128 2120 0
2580 2128 2579 0
2129 2128 2580 0
2568 2582 2569 0
2581 2582 2568 0
2581 2568 2570 0
2581 2570 2131 0
2581 2131 2130 0
2570 2121 2131 0
2135 2123 2571 0
2571 2572 2583 0
2571 2583 2136 0
2571 2136 2135 0
2584 2572 2573 0
2583 2572 2584 0
2585 2573 2574 0
2584 2573 2585 0
2586 2574 2576 0
2585 2574 2586 0
2587 2576 2578 0
2586 2576 2587 0
2125 2138 2578 0
2578 2138 2587 0
2141 2580 2588 0
2129 2580 2141 0
2582 2581 2589 0
2130 2142 2590 0
2130 2590 2589 0
2130 2589 2581 0
2147 2136 2583 0
2583 2584 2591 0
2583 2591 2148 0
2583 2148 2147 0
2592 2584 2585 0
2591 2584 2592 0
2593 2585 2586 0
2592 2585 2593 0
2593 2586 2587 0
2593 2587 2151 0
2593 2151 2150 0
2587 2138 2151 0
2155 2588 2594 0
2141 2588 2155 0
2142 2595 2590 0
2156 2595 2142 0
2161 2148 2596 0
2596 2148 2591 0
2597 2591 2592 0
2596 2591 2597 0
2598 2592 2593 0
2597 2592 2598 0
2150 2163 2593 0
2593 2163 2598 0
2167 2155 2594 0
2167 2594 2600 0
2167 2600 2599 0
2601 2599 2600 0
2156 2602 2595 0
2168 2602 2156 0
2174 2161 2596 0
2596 2597 2603 0
2596 2603 2175 0
2596 2175 2174 0
2604 2597 2598 0
2603 2597 2604 0
2163 2177 2598 0
2598 2177 2604 0
2181 2167 2605 0
2605 2167 2599 0
2601 2605 2599 0
2606 2605 2601 0
2168 2607 2602 0
2182 2607 2168 0
2188 2175 2608 0
2608 2175 2603 0
2609 2603 2604 0
2608 2603 2609 0
2177 2190 2604 0
2604 2190 2609 0
2195 2181 2605 0
2606 2610 2196 0
2605 2606 2196 0
2195 2605 2196 0
2182 2611 2607 0
2197 2611 2182 0
2203 2188 2612 0
2612 2188 2608 0
2613 2608 2609 0
2612 2608 2613 0
2190 2205 2609 0
2609 2205 2613 0
2210 2610 2614 0
2196 2610 2210 0
2197 2615 2611 0
2211 2615 2197 0
2217 2203 2616 0
2616 2203 2612 0
2617 2612 2613 0
2616 2612 2617 0
2205 2219 2613 0
2613 2219 2617 0
2224 2614 2618 0
2210 2614 2224 0
2211 2619 2615 0
2225 2619 2211 0
2231 2217 2616 0
2616 2617 2231 0
2231 2617 2233 0
2617 2219 2233 0
2620 2235 2236 0
2224 2618 2621 0
2236 2224 2621 0
2620 2236 2621 0
2225 2622 2619 0
2237 2622 2225 0
2623 2243 2235 0
2623 2235 2620 0
2623 2620 2624 0
2620 2621 2624 0
2237 2625 2622 0
2244 2625 2237 0
2249 2623 2626 0
2243 2623 2249 0
2244 2627 2625 0
2250 2627 2244 0
2253 2626 2628 0
2249 2626 2253 0
2250 2629 2627 0
2254 2629 2250 0
2257 2628 2630 0
2253 2628 2257 0
2254 2631 2629 0
2258 2631 2254 0
2261 2630 2632 0
2257 2630 2261 0
2258 2633 2631 0
2262 2633 2258 0
2266 2632 2634 0
2261 2632 2266 0
2262 2635 2633 0
2267 2635 2262 0
2636 2270 2634 0
2634 2270 2266 0
2637 2270 2636 0
2271 2270 2637 0
2267 2638 2635 0
2272 2638 2267 0
2275 2637 2639 0
2271 2637 2275 0
2272 2640 2638 0
2276 2640 2272 0
2279 2639 2641 0
2275 2639 2279 0
2643 2640 2276 0
2642 2643 2276 0
2280 2642 2276 0
2281 2642 2280 0
2283 2641 2644 0
2279 2641 2283 0
2642 2646 2643 0
2645 2646 2642 0
2281 2284 2642 0
2642 2284 2645 0
2286 2644 2647 0
2283 2644 2286 0
2645 2649 2646 0
2648 2649 2645 0
2284 2287 2645 0
2645 2287 2648 0
2288 2647 2650 0
2286 2647 2288 0
2649 2648 2651 0
2287 2289 2652 0
2287 2652 2651 0
2287 2651 2648 0
2290 2650 2653 0
2288 2650 2290 0
2289 2654 2652 0
2292 2654 2289 0
2293 2653 2655 0
2290 2653 2293 0
2654 2294 2656 0
2292 2294 2654 0
2656 2294 2657 0
2657 2294 2295 0
2658 2296 2659 0
2659 2296 2297 0
2293 2659 2297 0
2655 2659 2293 0
2661 2657 2295 0
2660 2661 2295 0
2298 2660 2295 0
2299 2660 2298 0
2300 2658 2662 0
2296 2658 2300 0
2661 2660 2663 0
2299 2302 2664 0
2299 2664 2663 0
2299 2663 2660 0
2666 2665 2667 0
2303 2300 2662 0
2665 2303 2662 0
2667 2665 2662 0
2302 2668 2664 0
2305 2668 2302 0
2666 2670 2665 0
2665 2670 2669 0
2665 2307 2303 0
2669 2307 2665 0
2305 2671 2668 0
2309 2671 2305 0
2670 2673 2669 0
2669 2673 2672 0
2669 2311 2307 0
2672 2311 2669 0
2309 2674 2671 0
2313 2674 2309 0
2673 2676 2672 0
2672 2676 2675 0
2672 2315 2311 0
2675 2315 2672 0
2313 2677 2674 0
2317 2677 2313 0
2676 2679 2675 0
2675 2679 2678 0
2675 2320 2315 0
2678 2320 2675 0
2677 2317 2322 0
2681 2677 2322 0
2680 2681 2322 0
2681 2680 2682 0
2679 2684 2678 0
2678 2684 2683 0
2678 2326 2320 0
2683 2326 2678 0
2680 2322 2327 0
2327 2328 2685 0
2680 2327 2685 0
2682 2680 2685 0
2685 2328 2686 0
2686 2328 2329 0
2684 2687 2331 0
2684 2331 2332 0
2684 2332 2683 0
2332 2326 2683 0
2329 2688 2686 0
2333 2688 2329 0
2689 2335 2690 0
2690 2335 2336 0
2331 2690 2336 0
2687 2690 2331 0
2333 2691 2688 0
2337 2691 2333 0
2339 2689 2692 0
2335 2689 2339 0
2337 2693 2691 0
2341 2693 2337 0
2343 2692 2694 0
2339 2692 2343 0
2341 2695 2693 0
2345 2695 2341 0
2347 2694 2696 0
2343 2694 2347 0
2345 2697 2695 0
2349 2697 2345 0
2351 2696 2698 0
2347 2696 2351 0
2700 2697 2349 0
2699 2700 2349 0
2352 2699 2349 0
2354 2699 2352 0
2701 2360 2361 0
2351 2698 2702 0
2361 2351 2702 0
2701 2361 2702 0
2700 2699 2703 0
2703 2704 2705 0
2703 2699 2704 0
2699 2362 2704 0
2354 2362 2699 0
2706 2704 2363 0
2363 2704 2362 0
2365 2706 2363 0
2707 2374 2360 0
2707 2360 2701 0
2707 2701 2708 0
2701 2702 2708 0
2704 2710 2705 0
2709 2710 2704 0
2711 2704 2706 0
2709 2704 2711 0
2712 2711 2706 0
2712 2706 2365 0
2712 2365 2375 0
2713 2712 2376 0
2376 2712 2375 0
2714 2713 2377 0
2377 2713 2376 0
2715 2714 2378 0
2378 2714 2377 0
2716 2715 2379 0
2379 2715 2378 0
2717 2716 2380 0
2380 2716 2379 0
2718 2717 2381 0
2381 2717 2380 0
2381 2382 2720 0
2381 2720 2719 0
2381 2719 2718 0
2720 2383 2721 0
2382 2383 2720 0
2374 2721 2383 0
2707 2721 2374 0
2710 2709 2722 0
2709 2723 2722 0
2711 2723 2709 0
2711 2724 2723 0
2712 2724 2711 0
2712 2725 2724 0
2713 2725 2712 0
2713 2726 2725 0
2714 2726 2713 0
2714 2727 2726 0
2715 2727 2714 0
2715 2728 2727 0
2716 2728 2715 0
2716 2729 2728 0
2717 2729 2716 0
2717 2730 2729 0
2718 2730 2717 0
2718 2719 2730 0
2733 2731 2732 0
2733 2734 2731 0
2735 2734 2733 0
2735 2736 2734 0
2737 2736 2735 0
2737 2738 2736 0
2739 2738 2737 0
2739 2740 2738 0
2741 2740 2739 0
2742 2740 2741 0
2745 2743 2744 0
2745 2746 2743 0
2747 2746 2745 0
2747 2748 2746 0
2749 2748 2747 0
2749 2750 2748 0
2751 2750 2749 0
2752 2750 2751 0
2755 2753 2754 0
2755 2756 2386 0
2753 2755 2386 0
2385 2753 2386 0
2757 2386 2756 0
2388 2386 2757 0
2390 2388 2757 0
2390 2757 2732 0
2390 2732 2731 0
2731 2734 2390 0
2390 2734 2392 0
2734 2736 2392 0
2392 2736 2394 0
2736 2738 2758 0
2736 2758 2395 0
2736 2395 2394 0
2759 2738 2740 0
2758 2738 2759 0
2742 2759 2740 0
2760 2759 2742 0
2743 2762 2744 0
2761 2762 2743 0
2761 2743 2746 0
2761 2746 2398 0
2761 2398 2397 0
2746 2748 2398 0
2398 2748 2400 0
2748 2750 2400 0
2400 2750 2402 0
2764 2750 2752 0
2764 2763 2750 0
2763 2402 2750 0
2403 2402 2763 0
2765 2763 2764 0
2753 2767 2754 0
2766 2767 2753 0
2385 2404 2753 0
2753 2404 2766 0
2405 2395 2768 0
2768 2395 2758 0
2769 2758 2759 0
2768 2758 2769 0
2760 2769 2759 0
2770 2769 2760 0
2773 2771 2772 0
2762 2771 2773 0
2762 2761 2771 0
2761 2407 2771 0
2408 2407 2761 0
2761 2397 2408 0
2410 2403 2763 0
2775 2763 2765 0
2775 2774 2763 0
2774 2410 2763 0
2411 2410 2774 0
2775 2776 2774 0
2777 2776 2775 0
2777 2778 2776 0
2779 2778 2777 0
2767 2778 2779 0
2767 2766 2778 0
2766 2412 2778 0
2413 2412 2766 0
2766 2404 2413 0
2415 2405 2768 0
2768 2769 2780 0
2768 2780 2416 0
2768 2416 2415 0
2770 2780 2769 0
2781 2780 2770 0
2418 2782 2772 0
2419 2418 2772 0
2771 2419 2772 0
2771 2407 2419 0
2420 2411 2774 0
2774 2776 2420 0
2420 2776 2421 0
2776 2778 2421 0
2421 2778 2422 0
2778 2412 2422 0
2424 2416 2783 0
2783 2416 2780 0
2781 2783 2780 0
2784 2783 2781 0
2418 2785 2782 0
2426 2785 2418 0
2428 2424 2786 0
2786 2424 2783 0
2787 2786 2783 0
2788 2787 2783 0
2784 2788 2783 0
2789 2787 2788 0
2792 2790 2791 0
2785 2426 2430 0
2785 2430 2790 0
2785 2790 2792 0
2432 2428 2786 0
2786 2787 2793 0
2786 2793 2433 0
2786 2433 2432 0
2789 2793 2787 0
2794 2793 2789 0
2435 2795 2791 0
2436 2435 2791 0
2790 2436 2791 0
2790 2430 2436 0
2439 2433 2796 0
2796 2433 2793 0
2794 2796 2793 0
2797 2796 2794 0
2435 2798 2795 0
2441 2798 2435 0
2799 2443 2439 0
2799 2439 2796 0
2799 2796 2800 0
2796 2797 2800 0
2441 2801 2798 0
2444 2801 2441 0
2446 2799 2802 0
2443 2799 2446 0
2444 2803 2801 0
2447 2803 2444 0
2449 2802 2804 0
2446 2802 2449 0
2447 2805 2803 0
2451 2805 2447 0
2453 2804 2806 0
2449 2804 2453 0
2451 2807 2805 0
2455 2807 2451 0
2809 2808 2810 0
2808 2811 2810 0
2810 2811 2812 0
2811 2813 2812 0
2812 2813 2814 0
2814 2813 2815 0
2459 2806 2816 0
2453 2806 2459 0
2455 2817 2807 0
2461 2817 2455 0
2809 2818 2465 0
2809 2465 2466 0
2809 2466 2808 0
2466 2811 2808 0
2468 2811 2466 0
2468 2813 2811 0
2469 2813 2468 0
2815 2819 2820 0
2815 2471 2819 0
2813 2471 2815 0
2469 2471 2813 0
2472 2819 2471 0
2474 2816 2821 0
2459 2816 2474 0
2461 2822 2817 0
2476 2822 2461 0
2480 2465 2818 0
2480 2818 2824 0
2480 2824 2823 0
2824 2825 2823 0
2826 2825 2824 0
2826 2827 2825 0
2828 2827 2826 0
2819 2829 2827 0
2820 2819 2827 0
2828 2820 2827 0
2472 2484 2819 0
2819 2484 2829 0
2486 2821 2830 0
2474 2821 2486 0
2833 2831 2832 0
2822 2476 2488 0
2822 2488 2831 0
2822 2831 2833 0
2490 2480 2834 0
2834 2480 2823 0
2835 2823 2825 0
2834 2823 2835 0
2836 2825 2827 0
2835 2825 2836 0
2837 2827 2829 0
2836 2827 2837 0
2484 2492 2829 0
2829 2492 2837 0
2494 2486 2830 0
2494 2830 2839 0
2494 2839 2838 0
2840 2838 2839 0
2831 2842 2832 0
2841 2842 2831 0
2488 2496 2831 0
2831 2496 2841 0
2498 2490 2843 0
2843 2490 2834 0
2844 2834 2835 0
2843 2834 2844 0
2845 2835 2836 0
2844 2835 2845 0
2845 2836 2837 0
2845 2837 2500 0
2845 2500 2499 0
2837 2492 2500 0
2501 2494 2846 0
2846 2494 2838 0
2840 2846 2838 0
2847 2846 2840 0
2841 2849 2842 0
2848 2849 2841 0
2496 2502 2841 0
2841 2502 2848 0
2504 2498 2850 0
2850 2498 2843 0
2851 2843 2844 0
2850 2843 2851 0
2852 2844 2845 0
2851 2844 2852 0
2499 2505 2845 0
2845 2505 2852 0
2506 2501 2853 0
2853 2501 2846 0
2847 2853 2846 0
2854 2853 2847 0
2848 2856 2849 0
2855 2856 2848 0
2502 2507 2848 0
2848 2507 2855 0
2509 2504 2857 0
2857 2504 2850 0
2858 2850 2851 0
2857 2850 2858 0
2859 2851 2852 0
2858 2851 2859 0
2505 2511 2852 0
2852 2511 2859 0
2512 2506 2860 0
2860 2506 2853 0
2854 2860 2853 0
2861 2860 2854 0
2863 2514 2862 0
2515 2514 2863 0
2517 2515 2863 0
2517 2863 2856 0
2517 2856 2855 0
2855 2507 2517 0
2519 2509 2864 0
2864 2509 2857 0
2865 2857 2858 0
2864 2857 2865 0
2866 2858 2859 0
2865 2858 2866 0
2511 2521 2859 0
2859 2521 2866 0
2522 2512 2867 0
2867 2512 2860 0
2868 2867 2860 0
2869 2868 2860 0
2861 2869 2860 0
2870 2868 2869 0
2514 2871 2862 0
2524 2871 2514 0
2527 2519 2872 0
2872 2519 2864 0
2873 2864 2865 0
2872 2864 2873 0
2874 2865 2866 0
2873 2865 2874 0
2521 2529 2866 0
2866 2529 2874 0
2530 2522 2875 0
2875 2522 2867 0
2876 2867 2868 0
2875 2867 2876 0
2870 2876 2868 0
2877 2876 2870 0
2524 2878 2871 0
2532 2878 2524 0
2535 2527 2879 0
2879 2527 2872 0
2880 2872 2873 0
2879 2872 2880 0
2881 2873 2874 0
2880 2873 2881 0
2529 2537 2874 0
2874 2537 2881 0
2538 2530 2882 0
2882 2530 2875 0
2883 2875 2876 0
2882 2875 2883 0
2877 2883 2876 0
2884 2883 2877 0
2532 2885 2878 0
2540 2885 2532 0
2544 2535 2886 0
2886 2535 2879 0
2887 2879 2880 0
2886 2879 2887 0
2888 2880 2881 0
2887 2880 2888 0
2537 2546 2881 0
2881 2546 2888 0
2547 2538 2889 0
2889 2538 2882 0
2890 2882 2883 0
2889 2882 2890 0
2884 2890 2883 0
2891 2890 2884 0
2540 2892 2885 0
2549 2892 2540 0
2553 2544 2893 0
2893 2544 2886 0
2894 2886 2887 0
2893 2886 2894 0
2895 2887 2888 0
2894 2887 2895 0
2546 2555 2888 0
2888 2555 2895 0
2556 2547 2896 0
2896 2547 2889 0
2897 2889 2890 0
2896 2889 2897 0
2891 2897 2890 0
2898 2897 2891 0
2549 2899 2892 0
2558 2899 2549 0
2563 2553 2893 0
2893 2894 2900 0
2893 2900 2564 0
2893 2564 2563 0
2901 2894 2895 0
2900 2894 2901 0
2555 2566 2895 0
2895 2566 2901 0
2567 2556 2902 0
2902 2556 2896 0
2903 2896 2897 0
2902 2896 2903 0
2898 2903 2897 0
2904 2903 2898 0
2558 2905 2899 0
2569 2905 2558 0
2575 2564 2900 0
2900 2901 2575 0
2575 2901 2577 0
2901 2566 2577 0
2579 2567 2902 0
2902 2903 2906 0
2902 2906 2580 0
2902 2580 2579 0
2904 2906 2903 0
2907 2906 2904 0
2569 2908 2905 0
2582 2908 2569 0
2588 2580 2909 0
2909 2580 2906 0
2907 2909 2906 0
2910 2909 2907 0
2908 2589 2911 0
2582 2589 2908 0
2911 2589 2912 0
2912 2589 2590 0
2594 2588 2913 0
2913 2588 2909 0
2910 2913 2909 0
2914 2913 2910 0
2590 2915 2912 0
2595 2915 2590 0
2600 2594 2913 0
2914 2916 2601 0
2913 2914 2601 0
2600 2913 2601 0
2595 2917 2915 0
2602 2917 2595 0
2606 2916 2918 0
2601 2916 2606 0
2602 2919 2917 0
2607 2919 2602 0
2610 2918 2920 0
2606 2918 2610 0
2607 2921 2919 0
2611 2921 2607 0
2614 2920 2922 0
2610 2920 2614 0
2611 2923 2921 0
2615 2923 2611 0
2618 2922 2924 0
2614 2922 2618 0
2615 2925 2923 0
2619 2925 2615 0
2621 2924 2926 0
2618 2924 2621 0
2619 2927 2925 0
2622 2927 2619 0
2928 2623 2624 0
2621 2926 2929 0
2624 2621 2929 0
2928 2624 2929 0
2622 2930 2927 0
2625 2930 2622 0
2931 2626 2623 0
2931 2623 2928 0
2931 2928 2932 0
2928 2929 2932 0
2625 2933 2930 0
2627 2933 2625 0
2628 2931 2934 0
2626 2931 2628 0
2627 2935 2933 0
2629 2935 2627 0
2630 2934 2936 0
2628 2934 2630 0
2629 2937 2935 0
2631 2937 2629 0
2632 2936 2938 0
2630 2936 2632 0
2631 2939 2937 0
2633 2939 2631 0
2634 2938 2940 0
2632 2938 2634 0
2633 2941 2939 0
2635 2941 2633 0
2634 2940 2943 0
2634 2943 2942 0
2634 2942 2636 0
2636 2942 2637 0
2635 2944 2941 0
2638 2944 2635 0
2945 2942 2943 0
2946 2639 2637 0
2945 2946 2637 0
2942 2945 2637 0
2638 2947 2944 0
2640 2947 2638 0
2641 2946 2948 0
2639 2946 2641 0
2640 2949 2947 0
2643 2949 2640 0
2644 2948 2950 0
2641 2948 2644 0
2643 2951 2949 0
2646 2951 2643 0
2647 2950 2952 0
2644 2950 2647 0
2646 2953 2951 0
2649 2953 2646 0
2955 2954 2956 0
2650 2647 2952 0
2954 2650 2952 0
2956 2954 2952 0
2953 2651 2957 0
2649 2651 2953 0
2957 2651 2958 0
2958 2651 2652 0
2955 2960 2954 0
2954 2960 2959 0
2954 2653 2650 0
2959 2653 2954 0
2958 2652 2654 0
2962 2958 2654 0
2961 2962 2654 0
2962 2961 2963 0
2960 2965 2959 0
2959 2965 2964 0
2959 2655 2653 0
2964 2655 2959 0
2961 2654 2656 0
2657 2966 2963 0
2657 2963 2961 0
2657 2961 2656 0
2965 2967 2658 0
2965 2658 2659 0
2965 2659 2964 0
2659 2655 2964 0
2657 2968 2966 0
2661 2968 2657 0
2970 2969 2971 0
2662 2658 2967 0
2969 2662 2967 0
2971 2969 2967 0
2973 2968 2661 0
2972 2973 2661 0
2663 2972 2661 0
2664 2972 2663 0
2970 2974 2666 0
2970 2666 2667 0
2970 2667 2969 0
2667 2662 2969 0
2973 2972 2975 0
2664 2668 2976 0
2664 2976 2975 0
2664 2975 2972 0
2670 2974 2977 0
2666 2974 2670 0
2668 2978 2976 0
2671 2978 2668 0
2673 2977 2979 0
2670 2977 2673 0
2671 2980 2978 0
2674 2980 2671 0
2676 2979 2981 0
2673 2979 2676 0
2674 2982 2980 0
2677 2982 2674 0
2679 2981 2983 0
2676 2981 2679 0
2982 2681 2984 0
2677 2681 2982 0
2984 2681 2985 0
2985 2681 2682 0
2684 2983 2986 0
2679 2983 2684 0
2985 2685 2987 0
2682 2685 2985 0
2987 2685 2988 0
2988 2685 2686 0
2990 2989 2991 0
2687 2684 2986 0
2989 2687 2986 0
2991 2989 2986 0
2686 2992 2988 0
2688 2992 2686 0
2990 2993 2689 0
2990 2689 2690 0
2990 2690 2989 0
2690 2687 2989 0
2688 2994 2992 0
2691 2994 2688 0
2692 2993 2995 0
2689 2993 2692 0
2691 2996 2994 0
2693 2996 2691 0
2694 2995 2997 0
2692 2995 2694 0
2693 2998 2996 0
2695 2998 2693 0
2696 2997 2999 0
2694 2997 2696 0
2695 3000 2998 0
2697 3000 2695 0
2698 2999 3001 0
2696 2999 2698 0
2697 3002 3000 0
2700 3002 2697 0
2702 3001 3003 0
2698 3001 2702 0
3002 2703 3004 0
2700 2703 3002 0
3004 2703 3005 0
3005 2703 2705 0
3006 2707 3007 0
3007 2707 2708 0
2702 3007 2708 0
3003 3007 2702 0
2705 3008 3005 0
2710 3008 2705 0
3009 2719 2720 0
3010 3009 2721 0
2721 3009 2720 0
2707 3006 3011 0
2721 2707 3011 0
3010 2721 3011 0
3013 3008 2710 0
3012 3013 2710 0
2722 3012 2710 0
3014 3012 2723 0
2723 3012 2722 0
3015 3014 2724 0
2724 3014 2723 0
3016 3015 2725 0
2725 3015 2724 0
3017 3016 2726 0
2726 3016 2725 0
3018 3017 2727 0
2727 3017 2726 0
3019 3018 2728 0
2728 3018 2727 0
3020 3019 2729 0
2729 3019 2728 0
3021 3020 2730 0
2730 3020 2729 0
3009 3022 3021 0
3009 3021 2730 0
3009 2730 2719 0
3022 3009 3010 0
3023 3022 3010 0
3024 3023 3010 0
3010 3011 3024 0
3012 3026 3013 0
3025 3026 3012 0
3027 3012 3014 0
3025 3012 3027 0
3028 3014 3015 0
3027 3014 3028 0
3029 3015 3016 0
3028 3015 3029 0
3030 3016 3017 0
3029 3016 3030 0
3030 3017 3018 0
3031 3030 3018 0
3032 3031 3018 0
3018 3033 3032 0
3019 3033 3018 0
3019 3034 3033 0
3020 3034 3019 0
3020 3035 3034 0
3021 3035 3020 0
3021 3036 3035 0
3022 3036 3021 0
3022 3023 3036 0
3026 3025 3037 0
3025 3038 3037 0
3027 3038 3025 0
3027 3039 3038 0
3028 3039 3027 0
3028 3040 3039 0
3029 3040 3028 0
3029 3041 3040 0
3030 3041 3029 0
3030 3031 3041 0
3044 3042 3043 0
3044 3045 3042 0
3046 3045 3044 0
3046 3047 3045 0
3048 3047 3046 0
3048 3049 3047 0
3050 3049 3048 0
3050 3051 3049 0
3052 3051 3050 0
3053 3051 3052 0
3056 3054 3055 0
3056 3057 3054 0
3058 3057 3056 0
3058 3059 3057 0
3060 3059 3058 0
3061 3059 3060 0
3064 3062 3063 0
3064 3065 3062 0
3066 3065 3064 0
3066 3067 3065 0
3068 3067 3066 0
3069 3067 3068 0
2732 3070 3043 0
2733 2732 3043 0
3042 2733 3043 0
3042 3045 2733 0
2733 3045 2735 0
3045 3047 2735 0
2735 3047 2737 0
3047 3049 2737 0
2737 3049 2739 0
3049 3051 2739 0
2739 3051 2741 0
3053 3071 2742 0
3051 3053 2742 0
2741 3051 2742 0
3074 3072 3073 0
3055 3072 3074 0
3055 3054 3072 0
3054 2744 3072 0
2745 2744 3054 0
3054 3057 2745 0
2745 3057 2747 0
3057 3059 2747 0
2747 3059 2749 0
3075 2751 2749 0
3075 2749 3059 0
3075 3059 3061 0
2751 3075 3077 0
2752 2751 3077 0
3076 2752 3077 0
3078 3076 3077 0
3062 3080 3063 0
3079 3080 3062 0
3081 3062 3065 0
3079 3062 3081 0
3081 3065 3067 0
3081 3067 2755 0
3081 2755 2754 0
3082 2756 2755 0
3082 2755 3067 0
3082 3067 3069 0
3083 2756 3082 0
2757 2756 3083 0
2757 3083 2732 0
2732 3083 3070 0
2760 2742 3071 0
2760 3071 3085 0
2760 3085 3084 0
3086 3084 3085 0
3089 3087 3088 0
3072 3090 3087 0
3073 3072 3087 0
3089 3073 3087 0
2744 2762 3072 0
3072 2762 3090 0
2764 2752 3076 0
3092 3076 3078 0
3092 3091 3076 0
3091 2764 3076 0
2765 2764 3091 0
3079 3093 3091 0
3080 3079 3091 0
3092 3080 3091 0
3094 3079 3081 0
3093 3079 3094 0
2754 2767 3081 0
3081 2767 3094 0
2770 2760 3095 0
3095 2760 3084 0
3086 3095 3084 0
3096 3095 3086 0
3087 3098 3088 0
3097 3098 3087 0
3097 3087 3090 0
3097 3090 2773 0
3097 2773 2772 0
3090 2762 2773 0
2775 2765 3091 0
3091 3093 2775 0
2775 3093 2777 0
3093 3094 2777 0
2777 3094 2779 0
3094 2767 2779 0
2781 2770 3099 0
3099 2770 3095 0
3096 3099 3095 0
3100 3099 3096 0
3097 3102 3098 0
3101 3102 3097 0
2772 2782 3097 0
3097 2782 3101 0
2784 2781 3103 0
3103 2781 3099 0
3100 3103 3099 0
3104 3103 3100 0
3101 3106 3102 0
3105 3106 3101 0
2782 2785 3101 0
3101 2785 3105 0
2788 2784 3103 0
3104 3107 2789 0
3103 3104 2789 0
2788 3103 2789 0
2791 3108 3106 0
2792 2791 3106 0
3105 2792 3106 0
3105 2785 2792 0
2794 3107 3109 0
2789 3107 2794 0
3112 3110 3111 0
3108 2791 2795 0
3108 2795 3110 0
3108 3110 3112 0
2797 3109 3113 0
2794 3109 2797 0
3110 3115 3111 0
3114 3115 3110 0
2795 2798 3110 0
3110 2798 3114 0
3116 2799 2800 0
2797 3113 3117 0
2800 2797 3117 0
3116 2800 3117 0
3114 3119 3115 0
3118 3119 3114 0
2798 2801 3114 0
3114 2801 3118 0
2802 2799 3120 0
3120 2799 3116 0
3117 3120 3116 0
3121 3120 3117 0
3118 3123 3119 0
3122 3123 3118 0
2801 2803 3118 0
3118 2803 3122 0
2804 2802 3124 0
3124 2802 3120 0
3121 3124 3120 0
3125 3124 3121 0
3122 3127 3123 0
3126 3127 3122 0
2803 2805 3122 0
3122 2805 3126 0
2806 2804 3128 0
3128 2804 3124 0
3125 3128 3124 0
3129 3128 3125 0
3126 3131 3127 0
3130 3131 3126 0
2805 2807 3126 0
3126 2807 3130 0
3132 2809 2810 0
3133 3132 2812 0
2812 3132 2810 0
3134 3133 2814 0
2814 3133 2812 0
2815 3134 2814 0
2816 2806 3135 0
3135 2806 3128 0
3129 3135 3128 0
3136 3135 3129 0
3130 3138 3131 0
3137 3138 3130 0
2807 2817 3130 0
3130 2817 3137 0
2818 2809 3139 0
3139 2809 3132 0
3140 3132 3133 0
3139 3132 3140 0
3141 3133 3134 0
3140 3133 3141 0
2815 2820 3134 0
3134 2820 3141 0
2821 2816 3142 0
3142 2816 3135 0
3136 3142 3135 0
3143 3142 3136 0
3137 3145 3138 0
3144 3145 3137 0
2817 2822 3137 0
3137 2822 3144 0
2824 2818 3139 0
3139 3140 2824 0
2824 3140 2826 0
3140 3141 2826 0
2826 3141 2828 0
3141 2820 2828 0
2830 2821 3146 0
3146 2821 3142 0
3143 3146 3142 0
3147 3146 3143 0
2832 3148 3145 0
2833 2832 3145 0
3144 2833 3145 0
3144 2822 2833 0
2839 2830 3146 0
3147 3149 2840 0
3146 3147 2840 0
2839 3146 2840 0
2832 3150 3148 0
2842 3150 2832 0
2847 3149 3151 0
2840 3149 2847 0
2842 3152 3150 0
2849 3152 2842 0
2854 3151 3153 0
2847 3151 2854 0
2849 3154 3152 0
2856 3154 2849 0
2861 2854 3153 0
2861 3153 3156 0
2861 3156 3155 0
3157 3155 3156 0
3159 2862 3158 0
2863 2862 3159 0
2863 3159 2856 0
2856 3159 3154 0
2869 2861 3155 0
3157 3160 2870 0
3155 3157 2870 0
2869 3155 2870 0
2862 3161 3158 0
2871 3161 2862 0
2877 2870 3160 0
2877 3160 3163 0
2877 3163 3162 0
3164 3162 3163 0
2871 3165 3161 0
2878 3165 2871 0
2884 2877 3166 0
3166 2877 3162 0
3164 3166 3162 0
3167 3166 3164 0
2878 3168 3165 0
2885 3168 2878 0
2891 2884 3169 0
3169 2884 3166 0
3167 3169 3166 0
3170 3169 3167 0
2885 3171 3168 0
2892 3171 2885 0
2898 2891 3172 0
3172 2891 3169 0
3170 3172 3169 0
3173 3172 3170 0
2892 3174 3171 0
2899 3174 2892 0
3175 2904 2898 0
3175 2898 3172 0
3175 3172 3176 0
3172 3173 3176 0
2899 3177 3174 0
2905 3177 2899 0
2907 3175 3178 0
2904 3175 2907 0
2905 3179 3177 0
2908 3179 2905 0
2910 3178 3180 0
2907 3178 2910 0
3182 3179 2908 0
3181 3182 2908 0
2911 3181 2908 0
2912 3181 2911 0
2914 3180 3183 0
2910 3180 2914 0
3182 3181 3184 0
2912 2915 3185 0
2912 3185 3184 0
2912 3184 3181 0
2916 3183 3186 0
2914 3183 2916 0
2915 3187 3185 0
2917 3187 2915 0
2918 3186 3188 0
2916 3186 2918 0
2917 3189 3187 0
2919 3189 2917 0
2920 3188 3190 0
2918 3188 2920 0
2919 3191 3189 0
2921 3191 2919 0
2922 3190 3192 0
2920 3190 2922 0
2921 3193 3191 0
2923 3193 2921 0
2924 3192 3194 0
2922 3192 2924 0
3193 2923 2925 0
3196 3193 2925 0
3195 3196 2925 0
3196 3195 3197 0
2926 3194 3198 0
2924 3194 2926 0
3199 2925 2927 0
3195 2925 3199 0
3195 3199 3197 0
3197 3199 3200 0
2929 3198 3201 0
2926 3198 2929 0
3202 2927 2930 0
3199 2927 3202 0
3199 3202 3200 0
3200 3202 3203 0
3204 2931 2932 0
2929 3201 3205 0
2932 2929 3205 0
3204 2932 3205 0
3206 2930 2933 0
3202 2930 3206 0
3202 3206 3203 0
3203 3206 3207 0
3208 2934 2931 0
3208 2931 3204 0
3208 3204 3209 0
3204 3205 3209 0
2933 2935 3210 0
3206 2933 3210 0
3211 3206 3210 0
3211 3207 3206 0
2936 3208 3212 0
2934 3208 2936 0
2935 3213 3210 0
2937 3213 2935 0
2938 3212 3214 0
2936 3212 2938 0
2937 3215 3213 0
2939 3215 2937 0
2940 3214 3216 0
2938 3214 2940 0
2939 3217 3215 0
2941 3217 2939 0
2943 3216 3218 0
2940 3216 2943 0
2941 3219 3217 0
2944 3219 2941 0
2943 3218 3221 0
2943 3221 3220 0
2943 3220 2945 0
2945 3220 2946 0
2944 3222 3219 0
2947 3222 2944 0
3221 3224 3220 0
3220 3224 3223 0
3220 2948 2946 0
3223 2948 3220 0
2947 3225 3222 0
2949 3225 2947 0
3224 3227 3223 0
3223 3227 3226 0
3223 2950 2948 0
3226 2950 3223 0
2949 3228 3225 0
2951 3228 2949 0
3227 3230 3226 0
3226 3230 3229 0
3226 2952 2950 0
3229 2952 3226 0
3228 2951 2953 0
3232 3228 2953 0
3231 3232 2953 0
3232 3231 3233 0
3230 3234 2955 0
3230 2955 2956 0
3230 2956 3229 0
2956 2952 3229 0
3231 2953 2957 0
3231 3236 3233 0
3231 2957 3236 0
2957 3235 3236 0
2958 3235 2957 0
3236 3235 3237 0
2960 3234 3238 0
2955 3234 2960 0
3235 2958 2962 0
2963 3239 3237 0
2963 3237 3235 0
2963 3235 2962 0
3241 3240 3242 0
2965 2960 3238 0
3240 2965 3238 0
3242 3240 3238 0
2963 3243 3239 0
2966 3243 2963 0
3241 3245 3240 0
3240 3245 3244 0
3240 2967 2965 0
3244 2967 3240 0
2966 3246 3243 0
2968 3246 2966 0
3245 3247 2970 0
3245 2970 2971 0
3245 2971 3244 0
2971 2967 3244 0
2968 3248 3246 0
2973 3248 2968 0
2974 3247 3249 0
2970 3247 2974 0
3248 2975 3250 0
2973 2975 3248 0
3250 2975 3251 0
3251 2975 2976 0
2977 3249 3252 0
2974 3249 2977 0
2976 3253 3251 0
2978 3253 2976 0
2979 3252 3254 0
2977 3252 2979 0
2978 3255 3253 0
2980 3255 2978 0
2981 3254 3256 0
2979 3254 2981 0
2980 3257 3255 0
2982 3257 2980 0
2983 3256 3258 0
2981 3256 2983 0
3257 2984 3259 0
2982 2984 3257 0
3259 2984 3260 0
3260 2984 2985 0
3262 3261 3263 0
2986 2983 3258 0
3261 2986 3258 0
3263 3261 3258 0
3265 3260 2985 0
3264 3265 2985 0
2987 3264 2985 0
2988 3264 2987 0
3262 3266 2990 0
3262 2990 2991 0
3262 2991 3261 0
2991 2986 3261 0
3264 3268 3265 0
3267 3268 3264 0
2988 2992 3264 0
3264 2992 3267 0
2993 3266 3269 0
2990 3266 2993 0
3268 3267 3270 0
2992 2994 3271 0
2992 3271 3270 0
2992 3270 3267 0
2995 3269 3272 0
2993 3269 2995 0
2994 3273 3271 0
2996 3273 2994 0
3275 3274 3276 0
2997 2995 3272 0
3274 2997 3272 0
3276 3274 3272 0
2996 3277 3273 0
2998 3277 2996 0
3275 3279 3274 0
3274 3279 3278 0
3274 2999 2997 0
3278 2999 3274 0
2998 3280 3277 0
3000 3280 2998 0
3279 3282 3278 0
3278 3282 3281 0
3278 3001 2999 0
3281 3001 3278 0
3000 3283 3280 0
3002 3283 3000 0
3282 3285 3281 0
3281 3285 3284 0
3281 3003 3001 0
3284 3003 3281 0
3283 3004 3286 0
3002 3004 3283 0
3286 3004 3287 0
3287 3004 3005 0
3285 3288 3006 0
3285 3006 3007 0
3285 3007 3284 0
3007 3003 3284 0
3005 3289 3287 0
3008 3289 3005 0
3011 3288 3290 0
3006 3288 3011 0
3008 3291 3289 0
3013 3291 3008 0
3292 3023 3024 0
3011 3290 3293 0
3024 3011 3293 0
3292 3024 3293 0
3013 3294 3291 0
3026 3294 3013 0
3295 3031 3032 0
3296 3295 3033 0
3033 3295 3032 0
3033 3034 3298 0
3033 3298 3297 0
3033 3297 3296 0
3298 3035 3299 0
3034 3035 3298 0
3299 3036 3300 0
3035 3036 3299 0
3301 3300 3036 0
3292 3301 3036 0
3023 3292 3036 0
3292 3293 3301 0
3303 3294 3026 0
3302 3303 3026 0
3037 3302 3026 0
3304 3302 3038 0
3038 3302 3037 0
3305 3304 3039 0
3039 3304 3038 0
3306 3305 3040 0
3040 3305 3039 0
3307 3306 3041 0
3041 3306 3040 0
3295 3308 3307 0
3295 3307 3041 0
3295 3041 3031 0
3308 3295 3296 0
3309 3308 3296 0
3310 3309 3296 0
3296 3297 3310 0
3303 3302 3311 0
3302 3312 3311 0
3304 3312 3302 0
3304 3313 3312 0
3305 3313 3304 0
3305 3314 3313 0
3306 3314 3305 0
3306 3315 3314 0
3307 3315 3306 0
3307 3316 3315 0
3308 3316 3307 0
3308 3309 3316 0
3318 3043 3317 0
3044 3043 3318 0
3319 3044 3318 0
3046 3044 3319 0
3320 3046 3319 0
3048 3046 3320 0
3321 3048 3320 0
3050 3048 3321 0
3322 3050 3321 0
3052 3050 3322 0
3323 3052 3322 0
3053 3052 3323 0
3326 3324 3325 0
3326 3327 3324 0
3328 3327 3326 0
3328 3329 3056 0
3327 3328 3056 0
3055 3327 3056 0
3330 3056 3329 0
3058 3056 3330 0
3331 3058 3330 0
3060 3058 3331 0
3060 3331 3333 0
3061 3060 3333 0
3332 3061 3333 0
3334 3332 3333 0
3064 3063 3335 0
3066 3335 3336 0
3064 3335 3066 0
3068 3336 3337 0
3066 3336 3068 0
3068 3337 3069 0
3043 3338 3317 0
3070 3338 3043 0
3071 3323 3339 0
3053 3323 3071 0
3324 3341 3325 0
3340 3341 3324 0
3340 3324 3327 0
3340 3327 3074 0
3340 3074 3073 0
3327 3055 3074 0
3075 3061 3332 0
3342 3077 3075 0
3342 3075 3332 0
3342 3332 3334 0
3077 3342 3344 0
3078 3077 3344 0
3343 3078 3344 0
3345 3343 3344 0
3345 3080 3343 0
3335 3080 3345 0
3063 3080 3335 0
3345 3346 3335 0
3335 3346 3336 0
3346 3347 3336 0
3336 3347 3337 0
3347 3348 3082 0
3347 3082 3069 0
3347 3069 3337 0
3349 3082 3348 0
3083 3082 3349 0
3083 3349 3070 0
3070 3349 3338 0
3350 3085 3339 0
3339 3085 3071 0
3351 3085 3350 0
3086 3085 3351 0
3354 3352 3353 0
3341 3352 3354 0
3341 3340 3352 0
3340 3088 3352 0
3089 3088 3340 0
3340 3073 3089 0
3092 3078 3343 0
3343 3080 3092 0
3096 3086 3351 0
3096 3351 3356 0
3096 3356 3355 0
3356 3357 3355 0
3358 3357 3356 0
3359 3357 3358 0
3352 3361 3353 0
3360 3361 3352 0
3088 3098 3352 0
3352 3098 3360 0
3100 3096 3362 0
3362 3096 3355 0
3363 3355 3357 0
3362 3355 3363 0
3359 3363 3357 0
3364 3363 3359 0
3360 3366 3361 0
3365 3366 3360 0
3098 3102 3360 0
3360 3102 3365 0
3104 3100 3367 0
3367 3100 3362 0
3368 3362 3363 0
3367 3362 3368 0
3364 3368 3363 0
3369 3368 3364 0
3365 3371 3366 0
3370 3371 3365 0
3102 3106 3365 0
3365 3106 3370 0
3107 3104 3372 0
3372 3104 3367 0
3372 3367 3368 0
3373 3372 3368 0
3374 3373 3368 0
3368 3369 3374 0
3370 3376 3371 0
3375 3376 3370 0
3106 3108 3370 0
3370 3108 3375 0
3109 3107 3377 0
3377 3107 3372 0
3373 3377 3372 0
3378 3377 3373 0
3111 3379 3376 0
3112 3111 3376 0
3375 3112 3376 0
3375 3108 3112 0
3113 3109 3380 0
3380 3109 3377 0
3378 3380 3377 0
3381 3380 3378 0
3111 3382 3379 0
3115 3382 3111 0
3117 3113 3383 0
3383 3113 3380 0
3381 3383 3380 0
3384 3383 3381 0
3115 3385 3382 0
3119 3385 3115 0
3386 3121 3117 0
3386 3117 3383 0
3386 3383 3387 0
3383 3384 3387 0
3119 3388 3385 0
3123 3388 3119 0
3125 3386 3389 0
3121 3386 3125 0
3123 3390 3388 0
3127 3390 3123 0
3129 3389 3391 0
3125 3389 3129 0
3127 3392 3390 0
3131 3392 3127 0
3136 3391 3393 0
3129 3391 3136 0
3131 3394 3392 0
3138 3394 3131 0
3143 3393 3395 0
3136 3393 3143 0
3138 3396 3394 0
3145 3396 3138 0
3147 3395 3397 0
3143 3395 3147 0
3145 3398 3396 0
3148 3398 3145 0
3149 3397 3399 0
3147 3397 3149 0
3148 3400 3398 0
3150 3400 3148 0
3151 3399 3401 0
3149 3399 3151 0
3150 3402 3400 0
3152 3402 3150 0
3153 3401 3403 0
3151 3401 3153 0
3152 3404 3402 0
3154 3404 3152 0
3405 3156 3403 0
3403 3156 3153 0
3406 3156 3405 0
3157 3156 3406 0
3408 3158 3407 0
3159 3158 3408 0
3159 3408 3154 0
3154 3408 3404 0
3160 3406 3409 0
3157 3406 3160 0
3158 3410 3407 0
3161 3410 3158 0
3411 3163 3409 0
3409 3163 3160 0
3412 3163 3411 0
3164 3163 3412 0
3161 3413 3410 0
3165 3413 3161 0
3167 3412 3414 0
3164 3412 3167 0
3165 3415 3413 0
3168 3415 3165 0
3170 3414 3416 0
3167 3414 3170 0
3168 3417 3415 0
3171 3417 3168 0
3173 3416 3418 0
3170 3416 3173 0
3171 3419 3417 0
3174 3419 3171 0
3420 3175 3421 0
3421 3175 3176 0
3173 3421 3176 0
3418 3421 3173 0
3174 3422 3419 0
3177 3422 3174 0
3178 3420 3423 0
3175 3420 3178 0
3177 3424 3422 0
3179 3424 3177 0
3180 3423 3425 0
3178 3423 3180 0
3179 3426 3424 0
3182 3426 3179 0
3183 3425 3427 0
3180 3425 3183 0
3429 3426 3182 0
3428 3429 3182 0
3184 3428 3182 0
3185 3428 3184 0
3186 3427 3430 0
3183 3427 3186 0
3429 3428 3431 0
3185 3187 3432 0
3185 3432 3431 0
3185 3431 3428 0
3188 3430 3433 0
3186 3430 3188 0
3187 3434 3432 0
3189 3434 3187 0
3190 3433 3435 0
3188 3433 3190 0
3189 3436 3434 0
3191 3436 3189 0
3192 3435 3437 0
3190 3435 3192 0
3191 3438 3436 0
3193 3438 3191 0
3194 3437 3439 0
3192 3437 3194 0
3438 3196 3440 0
3193 3196 3438 0
3440 3196 3441 0
3441 3196 3197 0
3198 3439 3442 0
3194 3439 3198 0
3197 3443 3441 0
3200 3443 3197 0
3201 3442 3444 0
3198 3442 3201 0
3200 3445 3443 0
3203 3445 3200 0
3205 3444 3446 0
3201 3444 3205 0
3203 3447 3445 0
3207 3447 3203 0
3448 3208 3449 0
3449 3208 3209 0
3205 3449 3209 0
3446 3449 3205 0
3211 3210 3450 0
3451 3447 3207 0
3451 3207 3211 0
3451 3211 3450 0
3212 3448 3452 0
3208 3448 3212 0
3453 3210 3213 0
3450 3210 3453 0
3450 3453 3451 0
3451 3453 3454 0
3214 3452 3455 0
3212 3452 3214 0
3456 3213 3215 0
3453 3213 3456 0
3453 3456 3454 0
3454 3456 3457 0
3216 3455 3458 0
3214 3455 3216 0
3459 3215 3217 0
3456 3215 3459 0
3456 3459 3457 0
3457 3459 3460 0
3218 3458 3461 0
3216 3458 3218 0
3217 3219 3462 0
3459 3217 3462 0
3463 3459 3462 0
3463 3460 3459 0
3221 3461 3464 0
3218 3461 3221 0
3219 3465 3462 0
3222 3465 3219 0
3224 3464 3466 0
3221 3464 3224 0
3222 3467 3465 0
3225 3467 3222 0
3227 3466 3468 0
3224 3466 3227 0
3467 3225 3228 0
3470 3467 3228 0
3469 3470 3228 0
3469 3471 3470 0
3470 3471 3472 0
3472 3471 3473 0
3230 3468 3474 0
3227 3468 3230 0
3469 3228 3232 0
3475 3471 3469 0
3233 3475 3469 0
3232 3233 3469 0
3471 3475 3473 0
3473 3475 3476 0
3234 3474 3477 0
3230 3474 3234 0
3475 3233 3236 0
3237 3478 3476 0
3237 3476 3475 0
3237 3475 3236 0
3238 3477 3479 0
3234 3477 3238 0
3237 3480 3478 0
3239 3480 3237 0
3481 3241 3482 0
3482 3241 3242 0
3238 3482 3242 0
3479 3482 3238 0
3239 3483 3480 0
3243 3483 3239 0
3245 3481 3484 0
3241 3481 3245 0
3243 3485 3483 0
3246 3485 3243 0
3247 3484 3486 0
3245 3484 3247 0
3246 3487 3485 0
3248 3487 3246 0
3249 3486 3488 0
3247 3486 3249 0
3487 3250 3489 0
3248 3250 3487 0
3489 3250 3490 0
3490 3250 3251 0
3252 3488 3491 0
3249 3488 3252 0
3251 3492 3490 0
3253 3492 3251 0
3254 3491 3493 0
3252 3491 3254 0
3253 3494 3492 0
3255 3494 3253 0
3256 3493 3495 0
3254 3493 3256 0
3255 3496 3494 0
3257 3496 3255 0
3498 3497 3499 0
3258 3256 3495 0
3497 3258 3495 0
3499 3497 3495 0
3496 3259 3500 0
3257 3259 3496 0
3500 3259 3501 0
3501 3259 3260 0
3498 3502 3262 0
3498 3262 3263 0
3498 3263 3497 0
3263 3258 3497 0
3501 3260 3265 0
3504 3501 3265 0
3503 3504 3265 0
3504 3503 3505 0
3266 3502 3506 0
3262 3502 3266 0
3507 3265 3268 0
3503 3265 3507 0
3503 3507 3505 0
3505 3507 3508 0
3269 3506 3509 0
3266 3506 3269 0
3507 3268 3270 0
3271 3510 3508 0
3271 3508 3507 0
3271 3507 3270 0
3272 3509 3511 0
3269 3509 3272 0
3271 3512 3510 0
3273 3512 3271 0
3513 3275 3514 0
3514 3275 3276 0
3272 3514 3276 0
3511 3514 3272 0
3273 3515 3512 0
3277 3515 3273 0
3279 3513 3516 0
3275 3513 3279 0
3277 3517 3515 0
