#!ascii version of
764 1524
3.000000  13.500000  54.000000  0
3.500000  14.000000  54.000000  0
3.000000  14.000000  54.500000  0
2.000000  13.500000  54.000000  0
2.000000  14.000000  54.500000  0
1.500000  14.000000  54.000000  0
3.000000  13.500000  53.000000  0
3.500000  14.000000  53.000000  0
2.000000  13.500000  53.000000  0
1.000000  13.500000  53.000000  0
1.000000  14.000000  53.500000  0
0.000000  13.500000  53.000000  0
0.000000  14.000000  53.500000  0
-1.000000  13.500000  53.000000  0
-1.000000  14.000000  53.500000  0
-1.500000  14.000000  53.000000  0
3.000000  13.500000  52.000000  0
3.500000  14.000000  52.000000  0
2.000000  13.500000  52.000000  0
1.000000  13.500000  52.000000  0
0.000000  13.500000  52.000000  0
-1.000000  13.500000  52.000000  0
-1.500000  14.000000  52.000000  0
3.000000  13.500000  51.000000  0
3.500000  14.000000  51.000000  0
2.000000  13.500000  51.000000  0
1.000000  13.500000  51.000000  0
0.000000  13.500000  51.000000  0
-1.000000  13.500000  51.000000  0
-1.500000  14.000000  51.000000  0
3.000000  13.500000  50.000000  0
3.500000  14.000000  50.000000  0
2.000000  13.500000  50.000000  0
1.000000  13.500000  50.000000  0
0.000000  13.500000  50.000000  0
-1.000000  13.500000  50.000000  0
-1.500000  14.000000  50.000000  0
3.000000  13.500000  49.000000  0
3.500000  14.000000  49.000000  0
2.000000  13.500000  49.000000  0
1.000000  13.500000  49.000000  0
0.000000  13.500000  49.000000  0
-1.000000  13.500000  49.000000  0
-1.500000  14.000000  49.000000  0
3.000000  13.500000  48.000000  0
3.500000  14.000000  48.000000  0
2.000000  13.500000  48.000000  0
1.000000  13.500000  48.000000  0
0.000000  13.500000  48.000000  0
-1.000000  13.500000  48.000000  0
-1.500000  14.000000  48.000000  0
3.000000  13.500000  47.000000  0
3.500000  14.000000  47.000000  0
2.000000  13.500000  47.000000  0
1.000000  13.500000  47.000000  0
0.000000  13.500000  47.000000  0
-1.000000  13.500000  47.000000  0
-1.500000  14.000000  47.000000  0
3.000000  13.500000  46.000000  0
3.500000  14.000000  46.000000  0
2.000000  13.500000  46.000000  0
1.000000  13.500000  46.000000  0
0.000000  13.500000  46.000000  0
-1.000000  13.500000  46.000000  0
-1.500000  14.000000  46.000000  0
3.000000  13.500000  45.000000  0
3.500000  14.000000  45.000000  0
2.000000  13.500000  45.000000  0
1.000000  13.500000  45.000000  0
0.000000  13.500000  45.000000  0
-1.000000  13.500000  45.000000  0
-1.500000  14.000000  45.000000  0
3.000000  14.000000  44.500000  0
2.000000  13.500000  44.000000  0
2.500000  14.000000  44.000000  0
1.000000  13.500000  44.000000  0
0.000000  13.500000  44.000000  0
-0.500000  14.000000  44.000000  0
-1.000000  14.000000  44.500000  0
2.000000  13.500000  43.000000  0
2.500000  14.000000  43.000000  0
1.000000  13.500000  43.000000  0
0.000000  13.500000  43.000000  0
-0.500000  14.000000  43.000000  0
2.000000  13.500000  42.000000  0
2.500000  14.000000  42.000000  0
1.000000  13.500000  42.000000  0
0.000000  13.500000  42.000000  0
-0.500000  14.000000  42.000000  0
2.000000  14.000000  41.500000  0
1.000000  14.000000  41.500000  0
0.000000  14.000000  41.500000  0
3.000000  14.500000  54.000000  0
2.000000  14.500000  54.000000  0
3.500000  15.000000  53.000000  0
3.000000  15.000000  53.500000  0
2.000000  15.000000  53.500000  0
1.000000  15.000000  53.500000  0
0.000000  15.000000  53.500000  0
-1.000000  15.000000  53.500000  0
-1.500000  15.000000  53.000000  0
3.500000  15.000000  52.000000  0
-1.500000  15.000000  52.000000  0
3.500000  15.000000  51.000000  0
-1.500000  15.000000  51.000000  0
3.500000  15.000000  50.000000  0
-1.500000  15.000000  50.000000  0
3.500000  15.000000  49.000000  0
-1.500000  15.000000  49.000000  0
3.500000  15.000000  48.000000  0
-1.500000  15.000000  48.000000  0
3.500000  15.000000  47.000000  0
-1.500000  15.000000  47.000000  0
3.500000  15.000000  46.000000  0
-1.500000  15.000000  46.000000  0
3.500000  15.000000  45.000000  0
-1.500000  15.000000  45.000000  0
3.000000  14.500000  44.000000  0
3.500000  15.000000  44.000000  0
-1.000000  14.500000  44.000000  0
-1.500000  15.000000  44.000000  0
3.000000  14.500000  43.000000  0
3.500000  15.000000  43.000000  0
-1.000000  14.500000  43.000000  0
-1.500000  15.000000  43.000000  0
3.000000  14.500000  42.000000  0
3.500000  15.000000  42.000000  0
-1.000000  14.500000  42.000000  0
-1.500000  15.000000  42.000000  0
3.000000  14.500000  41.000000  0
3.500000  15.000000  41.000000  0
2.000000  14.500000  41.000000  0
1.000000  14.500000  41.000000  0
0.000000  14.500000  41.000000  0
-1.000000  14.500000  41.000000  0
-1.500000  15.000000  41.000000  0
3.000000  14.500000  40.000000  0
3.500000  15.000000  40.000000  0
2.000000  14.500000  40.000000  0
1.000000  14.500000  40.000000  0
0.000000  14.500000  40.000000  0
-1.000000  14.500000  40.000000  0
-1.500000  15.000000  40.000000  0
3.000000  14.500000  39.000000  0
3.500000  15.000000  39.000000  0
2.000000  14.500000  39.000000  0
1.000000  14.500000  39.000000  0
0.000000  14.500000  39.000000  0
-1.000000  14.500000  39.000000  0
-1.500000  15.000000  39.000000  0
3.000000  14.500000  38.000000  0
3.500000  15.000000  38.000000  0
2.000000  14.500000  38.000000  0
1.000000  14.500000  38.000000  0
0.000000  14.500000  38.000000  0
-1.000000  14.500000  38.000000  0
-1.500000  15.000000  38.000000  0
3.000000  14.500000  37.000000  0
3.500000  15.000000  37.000000  0
2.000000  14.500000  37.000000  0
1.000000  14.500000  37.000000  0
0.000000  14.500000  37.000000  0
-1.000000  14.500000  37.000000  0
-1.500000  15.000000  37.000000  0
3.000000  14.500000  36.000000  0
3.500000  15.000000  36.000000  0
2.000000  14.500000  36.000000  0
1.000000  14.500000  36.000000  0
0.000000  14.500000  36.000000  0
-1.000000  14.500000  36.000000  0
-1.500000  15.000000  36.000000  0
3.000000  14.500000  35.000000  0
3.500000  15.000000  35.000000  0
2.000000  14.500000  35.000000  0
1.000000  14.500000  35.000000  0
0.000000  14.500000  35.000000  0
-1.000000  14.500000  35.000000  0
-1.500000  15.000000  35.000000  0
3.000000  14.500000  34.000000  0
3.500000  15.000000  34.000000  0
2.500000  15.000000  34.000000  0
2.000000  15.000000  34.500000  0
1.000000  15.000000  34.500000  0
0.000000  15.000000  34.500000  0
-1.000000  15.000000  34.500000  0
3.000000  15.000000  33.500000  0
3.500000  16.000000  53.000000  0
3.000000  16.000000  53.500000  0
2.000000  15.500000  53.000000  0
2.500000  16.000000  53.000000  0
1.000000  15.500000  53.000000  0
0.000000  15.500000  53.000000  0
-1.000000  15.500000  53.000000  0
3.500000  16.000000  52.000000  0
2.000000  16.000000  52.500000  0
1.000000  16.000000  52.500000  0
0.000000  16.000000  52.500000  0
-1.000000  16.000000  52.500000  0
-1.500000  16.000000  52.000000  0
3.500000  16.000000  51.000000  0
-1.500000  16.000000  51.000000  0
3.500000  16.000000  50.000000  0
-1.500000  16.000000  50.000000  0
3.500000  16.000000  49.000000  0
-1.500000  16.000000  49.000000  0
3.500000  16.000000  48.000000  0
-1.500000  16.000000  48.000000  0
3.500000  16.000000  47.000000  0
-1.500000  16.000000  47.000000  0
3.500000  16.000000  46.000000  0
-1.500000  16.000000  46.000000  0
3.500000  16.000000  45.000000  0
-1.500000  16.000000  45.000000  0
3.500000  16.000000  44.000000  0
-1.500000  16.000000  44.000000  0
3.500000  16.000000  43.000000  0
-1.500000  16.000000  43.000000  0
3.500000  16.000000  42.000000  0
-1.500000  16.000000  42.000000  0
3.500000  16.000000  41.000000  0
-1.500000  16.000000  41.000000  0
3.500000  16.000000  40.000000  0
-1.500000  16.000000  40.000000  0
3.500000  16.000000  39.000000  0
-1.500000  16.000000  39.000000  0
3.500000  16.000000  38.000000  0
-1.500000  16.000000  38.000000  0
3.500000  16.000000  37.000000  0
-1.500000  16.000000  37.000000  0
3.500000  16.000000  36.000000  0
-1.500000  16.000000  36.000000  0
3.500000  16.000000  35.000000  0
-1.500000  16.000000  35.000000  0
3.000000  15.500000  34.000000  0
3.000000  16.000000  34.500000  0
2.000000  16.000000  34.500000  0
1.000000  16.000000  34.500000  0
0.000000  16.000000  34.500000  0
-1.000000  16.000000  34.500000  0
3.000000  16.500000  53.000000  0
3.500000  17.000000  52.000000  0
3.000000  17.000000  52.500000  0
2.000000  16.500000  52.000000  0
2.500000  17.000000  52.000000  0
1.000000  16.500000  52.000000  0
0.000000  16.500000  52.000000  0
-1.000000  16.500000  52.000000  0
3.500000  17.000000  51.000000  0
2.000000  17.000000  51.500000  0
1.000000  17.000000  51.500000  0
0.000000  17.000000  51.500000  0
-1.000000  17.000000  51.500000  0
-1.500000  17.000000  51.000000  0
3.500000  17.000000  50.000000  0
-1.500000  17.000000  50.000000  0
3.500000  17.000000  49.000000  0
-1.500000  17.000000  49.000000  0
3.500000  17.000000  48.000000  0
-1.500000  17.000000  48.000000  0
3.500000  17.000000  47.000000  0
-1.500000  17.000000  47.000000  0
3.500000  17.000000  46.000000  0
-1.500000  17.000000  46.000000  0
3.500000  17.000000  45.000000  0
-1.500000  17.000000  45.000000  0
3.500000  17.000000  44.000000  0
-1.500000  17.000000  44.000000  0
3.500000  17.000000  43.000000  0
-1.500000  17.000000  43.000000  0
3.500000  17.000000  42.000000  0
-1.500000  17.000000  42.000000  0
3.500000  17.000000  41.000000  0
-1.500000  17.000000  41.000000  0
3.500000  17.000000  40.000000  0
-1.500000  17.000000  40.000000  0
3.500000  17.000000  39.000000  0
-1.500000  17.000000  39.000000  0
3.500000  17.000000  38.000000  0
-1.500000  17.000000  38.000000  0
3.500000  17.000000  37.000000  0
-1.500000  17.000000  37.000000  0
3.500000  17.000000  36.000000  0
-1.500000  17.000000  36.000000  0
3.500000  17.000000  35.000000  0
1.000000  16.500000  35.000000  0
1.500000  17.000000  35.000000  0
1.000000  17.000000  35.500000  0
0.000000  16.500000  35.000000  0
0.000000  17.000000  35.500000  0
-1.000000  16.500000  35.000000  0
-1.000000  17.000000  35.500000  0
3.000000  17.000000  34.500000  0
2.000000  17.000000  34.500000  0
3.000000  17.500000  52.000000  0
3.500000  18.000000  51.000000  0
3.000000  18.000000  51.500000  0
2.000000  18.000000  51.500000  0
1.000000  18.000000  51.500000  0
0.000000  18.000000  51.500000  0
-1.000000  18.000000  51.500000  0
-1.500000  18.000000  51.000000  0
3.500000  18.000000  50.000000  0
-1.500000  18.000000  50.000000  0
3.500000  18.000000  49.000000  0
-1.500000  18.000000  49.000000  0
3.500000  18.000000  48.000000  0
-1.500000  18.000000  48.000000  0
3.500000  18.000000  47.000000  0
-1.500000  18.000000  47.000000  0
3.500000  18.000000  46.000000  0
-1.500000  18.000000  46.000000  0
3.500000  18.000000  45.000000  0
-1.500000  18.000000  45.000000  0
3.500000  18.000000  44.000000  0
-1.500000  18.000000  44.000000  0
3.500000  18.000000  43.000000  0
-1.500000  18.000000  43.000000  0
3.500000  18.000000  42.000000  0
-1.500000  18.000000  42.000000  0
3.500000  18.000000  41.000000  0
-1.500000  18.000000  41.000000  0
3.500000  18.000000  40.000000  0
-1.500000  18.000000  40.000000  0
3.500000  18.000000  39.000000  0
-1.500000  18.000000  39.000000  0
3.500000  18.000000  38.000000  0
-1.500000  18.000000  38.000000  0
3.500000  18.000000  37.000000  0
-1.500000  18.000000  37.000000  0
3.500000  18.000000  36.000000  0
0.000000  17.500000  36.000000  0
0.500000  18.000000  36.000000  0
0.000000  18.000000  36.500000  0
-1.000000  17.500000  36.000000  0
-1.000000  18.000000  36.500000  0
3.500000  18.000000  35.000000  0
2.000000  17.500000  35.000000  0
2.500000  18.000000  35.000000  0
2.000000  18.000000  35.500000  0
1.000000  18.000000  35.500000  0
3.000000  18.000000  34.500000  0
3.000000  18.500000  51.000000  0
2.000000  18.500000  51.000000  0
1.000000  18.500000  51.000000  0
0.000000  18.500000  51.000000  0
-1.000000  18.500000  51.000000  0
3.500000  19.000000  50.000000  0
3.000000  19.000000  50.500000  0
2.000000  19.000000  50.500000  0
1.000000  19.000000  50.500000  0
0.000000  19.000000  50.500000  0
-1.000000  19.000000  50.500000  0
-1.500000  19.000000  50.000000  0
3.500000  19.000000  49.000000  0
-1.500000  19.000000  49.000000  0
3.500000  19.000000  48.000000  0
-1.500000  19.000000  48.000000  0
3.500000  19.000000  47.000000  0
-1.500000  19.000000  47.000000  0
3.500000  19.000000  46.000000  0
-1.500000  19.000000  46.000000  0
3.500000  19.000000  45.000000  0
-1.500000  19.000000  45.000000  0
3.500000  19.000000  44.000000  0
-1.500000  19.000000  44.000000  0
3.500000  19.000000  43.000000  0
-1.500000  19.000000  43.000000  0
3.500000  19.000000  42.000000  0
-1.500000  19.000000  42.000000  0
3.500000  19.000000  41.000000  0
-1.500000  19.000000  41.000000  0
3.500000  19.000000  40.000000  0
-1.500000  19.000000  40.000000  0
3.500000  19.000000  39.000000  0
-1.500000  19.000000  39.000000  0
3.500000  19.000000  38.000000  0
-1.500000  19.000000  38.000000  0
3.500000  19.000000  37.000000  0
-1.500000  19.000000  37.000000  0
3.500000  19.000000  36.000000  0
0.500000  19.000000  36.000000  0
0.000000  19.000000  36.500000  0
-1.000000  19.000000  36.500000  0
3.000000  18.500000  35.000000  0
3.000000  19.000000  35.500000  0
2.000000  19.000000  35.500000  0
1.000000  19.000000  35.500000  0
3.500000  20.000000  50.000000  0
3.000000  20.000000  50.500000  0
2.000000  20.000000  50.500000  0
1.000000  20.000000  50.500000  0
0.000000  20.000000  50.500000  0
-1.000000  20.000000  50.500000  0
-1.500000  20.000000  50.000000  0
3.500000  20.000000  49.000000  0
-1.500000  20.000000  49.000000  0
3.500000  20.000000  48.000000  0
-1.500000  20.000000  48.000000  0
3.500000  20.000000  47.000000  0
-1.500000  20.000000  47.000000  0
3.500000  20.000000  46.000000  0
-1.500000  20.000000  46.000000  0
3.500000  20.000000  45.000000  0
-1.500000  20.000000  45.000000  0
3.500000  20.000000  44.000000  0
-1.500000  20.000000  44.000000  0
3.500000  20.000000  43.000000  0
-1.500000  20.000000  43.000000  0
3.500000  20.000000  42.000000  0
-1.500000  20.000000  42.000000  0
3.500000  20.000000  41.000000  0
-1.500000  20.000000  41.000000  0
3.500000  20.000000  40.000000  0
-1.500000  20.000000  40.000000  0
3.500000  20.000000  39.000000  0
-1.500000  20.000000  39.000000  0
3.500000  20.000000  38.000000  0
-1.500000  20.000000  38.000000  0
3.500000  20.000000  37.000000  0
-1.500000  20.000000  37.000000  0
3.500000  20.000000  36.000000  0
1.000000  19.500000  36.000000  0
1.500000  20.000000  36.000000  0
1.000000  20.000000  36.500000  0
0.000000  20.000000  36.500000  0
-1.000000  20.000000  36.500000  0
3.000000  20.000000  35.500000  0
2.000000  20.000000  35.500000  0
3.500000  21.000000  50.000000  0
3.000000  21.000000  50.500000  0
2.000000  21.000000  50.500000  0
1.000000  21.000000  50.500000  0
0.000000  21.000000  50.500000  0
-1.000000  21.000000  50.500000  0
-1.500000  21.000000  50.000000  0
3.500000  21.000000  49.000000  0
-1.500000  21.000000  49.000000  0
3.500000  21.000000  48.000000  0
-1.500000  21.000000  48.000000  0
3.500000  21.000000  47.000000  0
-1.500000  21.000000  47.000000  0
3.500000  21.000000  46.000000  0
-1.500000  21.000000  46.000000  0
3.500000  21.000000  45.000000  0
-1.500000  21.000000  45.000000  0
3.500000  21.000000  44.000000  0
-1.500000  21.000000  44.000000  0
3.500000  21.000000  43.000000  0
-1.500000  21.000000  43.000000  0
3.500000  21.000000  42.000000  0
-1.500000  21.000000  42.000000  0
3.500000  21.000000  41.000000  0
-1.500000  21.000000  41.000000  0
3.500000  21.000000  40.000000  0
-1.500000  21.000000  40.000000  0
3.500000  21.000000  39.000000  0
-1.500000  21.000000  39.000000  0
3.500000  21.000000  38.000000  0
-1.500000  21.000000  38.000000  0
3.500000  21.000000  37.000000  0
-1.500000  21.000000  37.000000  0
3.500000  21.000000  36.000000  0
2.000000  20.500000  36.000000  0
2.500000  21.000000  36.000000  0
2.000000  21.000000  36.500000  0
1.000000  21.000000  36.500000  0
0.000000  21.000000  36.500000  0
-1.000000  21.000000  36.500000  0
3.000000  21.000000  35.500000  0
3.500000  22.000000  50.000000  0
3.000000  22.000000  50.500000  0
2.000000  22.000000  50.500000  0
1.000000  22.000000  50.500000  0
0.000000  22.000000  50.500000  0
-1.000000  22.000000  50.500000  0
-1.500000  22.000000  50.000000  0
3.500000  22.000000  49.000000  0
-1.500000  22.000000  49.000000  0
3.500000  22.000000  48.000000  0
-1.500000  22.000000  48.000000  0
3.500000  22.000000  47.000000  0
-1.500000  22.000000  47.000000  0
3.500000  22.000000  46.000000  0
-1.500000  22.000000  46.000000  0
3.500000  22.000000  45.000000  0
-1.500000  22.000000  45.000000  0
3.500000  22.000000  44.000000  0
-1.500000  22.000000  44.000000  0
3.500000  22.000000  43.000000  0
-1.500000  22.000000  43.000000  0
3.500000  22.000000  42.000000  0
-1.500000  22.000000  42.000000  0
3.500000  22.000000  41.000000  0
-1.500000  22.000000  41.000000  0
3.500000  22.000000  40.000000  0
-1.500000  22.000000  40.000000  0
3.500000  22.000000  39.000000  0
-1.500000  22.000000  39.000000  0
3.500000  22.000000  38.000000  0
-1.500000  22.000000  38.000000  0
3.500000  22.000000  37.000000  0
-1.000000  21.500000  37.000000  0
-0.500000  22.000000  37.000000  0
-1.000000  22.000000  37.500000  0
3.500000  22.000000  36.000000  0
2.500000  22.000000  36.000000  0
2.000000  22.000000  36.500000  0
1.000000  22.000000  36.500000  0
0.000000  22.000000  36.500000  0
3.000000  22.000000  35.500000  0
3.000000  22.500000  50.000000  0
2.000000  22.500000  50.000000  0
1.000000  22.500000  50.000000  0
0.000000  22.500000  50.000000  0
-1.000000  22.500000  50.000000  0
3.500000  23.000000  49.000000  0
3.000000  23.000000  49.500000  0
2.000000  23.000000  49.500000  0
1.000000  23.000000  49.500000  0
0.000000  23.000000  49.500000  0
-1.000000  23.000000  49.500000  0
-1.500000  23.000000  49.000000  0
3.500000  23.000000  48.000000  0
-1.500000  23.000000  48.000000  0
3.500000  23.000000  47.000000  0
-1.500000  23.000000  47.000000  0
3.500000  23.000000  46.000000  0
-1.500000  23.000000  46.000000  0
3.500000  23.000000  45.000000  0
-1.500000  23.000000  45.000000  0
3.500000  23.000000  44.000000  0
-1.500000  23.000000  44.000000  0
3.500000  23.000000  43.000000  0
-1.500000  23.000000  43.000000  0
3.500000  23.000000  42.000000  0
-1.500000  23.000000  42.000000  0
3.500000  23.000000  41.000000  0
-1.500000  23.000000  41.000000  0
3.500000  23.000000  40.000000  0
-1.500000  23.000000  40.000000  0
3.500000  23.000000  39.000000  0
-1.500000  23.000000  39.000000  0
3.500000  23.000000  38.000000  0
-1.500000  23.000000  38.000000  0
3.500000  23.000000  37.000000  0
1.000000  22.500000  37.000000  0
1.500000  23.000000  37.000000  0
1.000000  23.000000  37.500000  0
0.000000  22.500000  37.000000  0
0.000000  23.000000  37.500000  0
-1.000000  23.000000  37.500000  0
3.000000  22.500000  36.000000  0
3.000000  23.000000  36.500000  0
2.000000  23.000000  36.500000  0
3.500000  24.000000  49.000000  0
3.000000  24.000000  49.500000  0
2.000000  24.000000  49.500000  0
1.000000  24.000000  49.500000  0
0.000000  24.000000  49.500000  0
-1.000000  24.000000  49.500000  0
-1.500000  24.000000  49.000000  0
3.500000  24.000000  48.000000  0
-1.500000  24.000000  48.000000  0
3.500000  24.000000  47.000000  0
-1.500000  24.000000  47.000000  0
3.500000  24.000000  46.000000  0
-1.500000  24.000000  46.000000  0
3.500000  24.000000  45.000000  0
-1.500000  24.000000  45.000000  0
3.500000  24.000000  44.000000  0
-1.500000  24.000000  44.000000  0
3.500000  24.000000  43.000000  0
-1.500000  24.000000  43.000000  0
3.500000  24.000000  42.000000  0
-1.500000  24.000000  42.000000  0
3.500000  24.000000  41.000000  0
-1.500000  24.000000  41.000000  0
3.500000  24.000000  40.000000  0
-1.500000  24.000000  40.000000  0
3.500000  24.000000  39.000000  0
-1.500000  24.000000  39.000000  0
3.000000  23.500000  38.000000  0
3.000000  24.000000  38.500000  0
2.500000  24.000000  38.000000  0
0.000000  23.500000  38.000000  0
0.500000  24.000000  38.000000  0
0.000000  24.000000  38.500000  0
-1.000000  23.500000  38.000000  0
-1.000000  24.000000  38.500000  0
3.000000  23.500000  37.000000  0
2.000000  23.500000  37.000000  0
2.000000  24.000000  37.500000  0
1.000000  24.000000  37.500000  0
3.500000  25.000000  49.000000  0
3.000000  25.000000  49.500000  0
2.000000  25.000000  49.500000  0
1.000000  25.000000  49.500000  0
0.000000  25.000000  49.500000  0
-1.000000  25.000000  49.500000  0
-1.500000  25.000000  49.000000  0
3.500000  25.000000  48.000000  0
-1.500000  25.000000  48.000000  0
3.500000  25.000000  47.000000  0
-1.500000  25.000000  47.000000  0
3.500000  25.000000  46.000000  0
-1.500000  25.000000  46.000000  0
3.500000  25.000000  45.000000  0
-1.500000  25.000000  45.000000  0
3.500000  25.000000  44.000000  0
-1.500000  25.000000  44.000000  0
3.500000  25.000000  43.000000  0
-1.500000  25.000000  43.000000  0
3.500000  25.000000  42.000000  0
-1.500000  25.000000  42.000000  0
3.000000  24.500000  41.000000  0
3.000000  25.000000  41.500000  0
2.500000  25.000000  41.000000  0
-2.000000  24.500000  41.000000  0
-2.000000  25.000000  41.500000  0
-2.500000  25.000000  41.000000  0
3.000000  24.500000  40.000000  0
2.500000  25.000000  40.000000  0
-2.000000  24.500000  40.000000  0
-2.500000  25.000000  40.000000  0
3.000000  24.500000  39.000000  0
2.500000  25.000000  39.000000  0
-2.000000  24.500000  39.000000  0
-2.500000  25.000000  39.000000  0
2.000000  24.500000  38.000000  0
2.000000  25.000000  38.500000  0
1.000000  24.500000  38.000000  0
1.000000  25.000000  38.500000  0
0.000000  25.000000  38.500000  0
-1.000000  25.000000  38.500000  0
-2.000000  25.000000  38.500000  0
3.000000  25.500000  49.000000  0
2.000000  25.500000  49.000000  0
1.000000  25.500000  49.000000  0
0.000000  25.500000  49.000000  0
-1.000000  25.500000  49.000000  0
3.500000  26.000000  48.000000  0
3.000000  26.000000  48.500000  0
2.000000  26.000000  48.500000  0
1.000000  26.000000  48.500000  0
0.000000  26.000000  48.500000  0
-1.000000  26.000000  48.500000  0
-1.500000  26.000000  48.000000  0
3.500000  26.000000  47.000000  0
-1.500000  26.000000  47.000000  0
3.500000  26.000000  46.000000  0
-1.500000  26.000000  46.000000  0
3.500000  26.000000  45.000000  0
-1.500000  26.000000  45.000000  0
3.000000  25.500000  44.000000  0
3.000000  26.000000  44.500000  0
2.500000  26.000000  44.000000  0
-2.000000  25.500000  44.000000  0
-2.000000  26.000000  44.500000  0
-2.500000  26.000000  44.000000  0
3.000000  25.500000  43.000000  0
2.500000  26.000000  43.000000  0
-2.000000  25.500000  43.000000  0
-2.500000  26.000000  43.000000  0
3.000000  25.500000  42.000000  0
2.500000  26.000000  42.000000  0
-2.000000  25.500000  42.000000  0
-2.500000  26.000000  42.000000  0
2.500000  26.000000  41.000000  0
-2.500000  26.000000  41.000000  0
2.500000  26.000000  40.000000  0
1.000000  25.500000  40.000000  0
1.500000  26.000000  40.000000  0
1.000000  26.000000  40.500000  0
0.000000  25.500000  40.000000  0
0.000000  26.000000  40.500000  0
-1.000000  25.500000  40.000000  0
-1.000000  26.000000  40.500000  0
-1.500000  26.000000  40.000000  0
-2.500000  26.000000  40.000000  0
2.000000  25.500000  39.000000  0
2.000000  26.000000  39.500000  0
1.000000  25.500000  39.000000  0
0.000000  25.500000  39.000000  0
-1.000000  25.500000  39.000000  0
-2.000000  25.500000  39.000000  0
-2.000000  26.000000  39.500000  0
3.000000  26.500000  48.000000  0
2.000000  26.500000  48.000000  0
1.000000  26.500000  48.000000  0
0.500000  27.000000  48.000000  0
0.000000  27.000000  48.500000  0
-1.000000  26.500000  48.000000  0
-0.500000  27.000000  48.000000  0
3.500000  27.000000  47.000000  0
3.000000  27.000000  47.500000  0
2.000000  27.000000  47.500000  0
1.000000  27.000000  47.500000  0
-1.000000  27.000000  47.500000  0
-2.000000  26.500000  47.000000  0
-2.000000  27.000000  47.500000  0
-2.500000  27.000000  47.000000  0
3.000000  26.500000  46.000000  0
3.000000  27.000000  46.500000  0
2.500000  27.000000  46.000000  0
-2.000000  26.500000  46.000000  0
-2.500000  27.000000  46.000000  0
3.000000  26.500000  45.000000  0
2.500000  27.000000  45.000000  0
-2.000000  26.500000  45.000000  0
-2.500000  27.000000  45.000000  0
2.500000  27.000000  44.000000  0
-2.500000  27.000000  44.000000  0
2.500000  27.000000  43.000000  0
-2.500000  27.000000  43.000000  0
2.500000  27.000000  42.000000  0
1.000000  26.500000  42.000000  0
1.500000  27.000000  42.000000  0
1.000000  27.000000  42.500000  0
0.000000  26.500000  42.000000  0
0.000000  27.000000  42.500000  0
-1.000000  26.500000  42.000000  0
-1.000000  27.000000  42.500000  0
-1.500000  27.000000  42.000000  0
-2.500000  27.000000  42.000000  0
2.500000  27.000000  41.000000  0
1.000000  26.500000  41.000000  0
1.500000  27.000000  41.000000  0
0.000000  26.500000  41.000000  0
-1.000000  26.500000  41.000000  0
-2.000000  26.500000  41.000000  0
-2.000000  27.000000  41.500000  0
2.000000  26.500000  40.000000  0
2.000000  27.000000  40.500000  0
-2.000000  26.500000  40.000000  0
0.000000  27.500000  48.000000  0
3.000000  27.500000  47.000000  0
2.000000  27.500000  47.000000  0
1.000000  27.500000  47.000000  0
0.000000  27.500000  47.000000  0
-1.000000  27.500000  47.000000  0
-2.000000  27.500000  47.000000  0
2.000000  27.500000  46.000000  0
1.000000  27.500000  46.000000  0
0.000000  27.500000  46.000000  0
-1.000000  27.500000  46.000000  0
-2.000000  27.500000  46.000000  0
2.000000  27.500000  45.000000  0
1.000000  27.500000  45.000000  0
0.000000  27.500000  45.000000  0
-1.000000  27.500000  45.000000  0
-2.000000  27.500000  45.000000  0
2.000000  27.500000  44.000000  0
1.000000  27.500000  44.000000  0
0.000000  27.500000  44.000000  0
-1.000000  27.500000  44.000000  0
-2.000000  27.500000  44.000000  0
2.000000  27.500000  43.000000  0
1.000000  27.500000  43.000000  0
0.000000  27.500000  43.000000  0
-1.000000  27.500000  43.000000  0
-2.000000  27.500000  43.000000  0
2.000000  27.500000  42.000000  0
-2.000000  27.500000  42.000000  0
2.000000  27.500000  41.000000  0
1 2 0 0
0 2 3 0
2 4 3 0
5 3 4 0
0 7 1 0
6 7 0 0
8 0 3 0
6 0 8 0
9 8 3 0
10 9 3 0
5 10 3 0
10 11 9 0
12 11 10 0
12 13 11 0
14 13 12 0
15 13 14 0
6 17 7 0
16 17 6 0
18 6 8 0
16 6 18 0
19 8 9 0
18 8 19 0
20 9 11 0
19 9 20 0
21 11 13 0
20 11 21 0
15 21 13 0
22 21 15 0
16 24 17 0
23 24 16 0
25 16 18 0
23 16 25 0
26 18 19 0
25 18 26 0
27 19 20 0
26 19 27 0
28 20 21 0
27 20 28 0
22 28 21 0
29 28 22 0
23 31 24 0
30 31 23 0
32 23 25 0
30 23 32 0
33 25 26 0
32 25 33 0
34 26 27 0
33 26 34 0
35 27 28 0
34 27 35 0
29 35 28 0
36 35 29 0
30 38 31 0
37 38 30 0
39 30 32 0
37 30 39 0
40 32 33 0
39 32 40 0
41 33 34 0
40 33 41 0
42 34 35 0
41 34 42 0
36 42 35 0
43 42 36 0
37 45 38 0
44 45 37 0
46 37 39 0
44 37 46 0
47 39 40 0
46 39 47 0
48 40 41 0
47 40 48 0
49 41 42 0
48 41 49 0
43 49 42 0
50 49 43 0
44 52 45 0
51 52 44 0
53 44 46 0
51 44 53 0
54 46 47 0
53 46 54 0
55 47 48 0
54 47 55 0
56 48 49 0
55 48 56 0
50 56 49 0
57 56 50 0
51 59 52 0
58 59 51 0
60 51 53 0
58 51 60 0
61 53 54 0
60 53 61 0
62 54 55 0
61 54 62 0
63 55 56 0
62 55 63 0
57 63 56 0
64 63 57 0
58 66 59 0
65 66 58 0
67 58 60 0
65 58 67 0
68 60 61 0
67 60 68 0
69 61 62 0
68 61 69 0
70 62 63 0
69 62 70 0
64 70 63 0
71 70 64 0
66 65 72 0
65 67 73 0
72 65 73 0
74 72 73 0
75 67 68 0
73 67 75 0
76 68 69 0
75 68 76 0
76 69 70 0
77 76 70 0
78 77 70 0
70 71 78 0
73 80 74 0
79 80 73 0
81 73 75 0
79 73 81 0
82 75 76 0
81 75 82 0
77 82 76 0
83 82 77 0
79 85 80 0
84 85 79 0
86 79 81 0
84 79 86 0
87 81 82 0
86 81 87 0
83 87 82 0
88 87 83 0
85 84 89 0
84 90 89 0
86 90 84 0
86 91 90 0
87 91 86 0
87 88 91 0
2 1 92 0
4 92 93 0
2 92 4 0
4 93 5 0
1 7 94 0
92 1 94 0
95 92 94 0
95 96 92 0
92 96 93 0
96 97 10 0
96 10 5 0
96 5 93 0
98 10 97 0
12 10 98 0
99 12 98 0
14 12 99 0
100 14 99 0
15 14 100 0
7 101 94 0
17 101 7 0
22 100 102 0
15 100 22 0
17 103 101 0
24 103 17 0
29 102 104 0
22 102 29 0
24 105 103 0
31 105 24 0
36 104 106 0
29 104 36 0
31 107 105 0
38 107 31 0
43 106 108 0
36 106 43 0
38 109 107 0
45 109 38 0
50 108 110 0
43 108 50 0
45 111 109 0
52 111 45 0
57 110 112 0
50 110 57 0
52 113 111 0
59 113 52 0
64 112 114 0
57 112 64 0
59 115 113 0
66 115 59 0
71 114 116 0
64 114 71 0
118 115 66 0
117 118 66 0
72 117 66 0
74 117 72 0
119 77 78 0
71 116 120 0
78 71 120 0
119 78 120 0
117 122 118 0
121 122 117 0
74 80 117 0
117 80 121 0
83 77 123 0
123 77 119 0
120 123 119 0
124 123 120 0
121 126 122 0
125 126 121 0
80 85 121 0
121 85 125 0
88 83 127 0
127 83 123 0
124 127 123 0
128 127 124 0
125 130 126 0
129 130 125 0
131 129 125 0
131 125 85 0
131 85 89 0
132 131 90 0
90 131 89 0
133 132 91 0
91 132 90 0
127 134 133 0
127 133 91 0
127 91 88 0
128 134 127 0
135 134 128 0
129 137 130 0
136 137 129 0
138 129 131 0
136 129 138 0
139 131 132 0
138 131 139 0
140 132 133 0
139 132 140 0
141 133 134 0
140 133 141 0
135 141 134 0
142 141 135 0
136 144 137 0
143 144 136 0
145 136 138 0
143 136 145 0
146 138 139 0
145 138 146 0
147 139 140 0
146 139 147 0
148 140 141 0
147 140 148 0
142 148 141 0
149 148 142 0
143 151 144 0
150 151 143 0
152 143 145 0
150 143 152 0
153 145 146 0
152 145 153 0
154 146 147 0
153 146 154 0
155 147 148 0
154 147 155 0
149 155 148 0
156 155 149 0
150 158 151 0
157 158 150 0
159 150 152 0
157 150 159 0
160 152 153 0
159 152 160 0
161 153 154 0
160 153 161 0
162 154 155 0
161 154 162 0
156 162 155 0
163 162 156 0
157 165 158 0
164 165 157 0
166 157 159 0
164 157 166 0
167 159 160 0
166 159 167 0
168 160 161 0
167 160 168 0
169 161 162 0
168 161 169 0
163 169 162 0
170 169 163 0
164 172 165 0
171 172 164 0
173 164 166 0
171 164 173 0
174 166 167 0
173 166 174 0
175 167 168 0
174 167 175 0
176 168 169 0
175 168 176 0
170 176 169 0
177 176 170 0
171 179 172 0
178 179 171 0
178 171 173 0
180 178 173 0
181 180 173 0
173 182 181 0
174 182 173 0
174 183 182 0
175 183 174 0
175 184 183 0
176 184 175 0
176 177 184 0
179 178 185 0
178 180 185 0
187 94 186 0
95 94 187 0
96 95 187 0
188 96 187 0
189 188 187 0
97 188 190 0
96 188 97 0
98 190 191 0
97 190 98 0
99 191 192 0
98 191 99 0
99 192 100 0
94 193 186 0
101 193 94 0
194 188 189 0
194 195 188 0
188 195 190 0
195 196 190 0
190 196 191 0
196 197 191 0
191 197 192 0
198 102 100 0
197 198 100 0
192 197 100 0
101 199 193 0
103 199 101 0
104 198 200 0
102 198 104 0
103 201 199 0
105 201 103 0
106 200 202 0
104 200 106 0
105 203 201 0
107 203 105 0
108 202 204 0
106 202 108 0
107 205 203 0
109 205 107 0
110 204 206 0
108 204 110 0
109 207 205 0
111 207 109 0
112 206 208 0
110 206 112 0
111 209 207 0
113 209 111 0
114 208 210 0
112 208 114 0
113 211 209 0
115 211 113 0
116 210 212 0
114 210 116 0
115 213 211 0
118 213 115 0
120 212 214 0
116 212 120 0
118 215 213 0
122 215 118 0
124 214 216 0
120 214 124 0
122 217 215 0
126 217 122 0
128 216 218 0
124 216 128 0
126 219 217 0
130 219 126 0
135 218 220 0
128 218 135 0
130 221 219 0
137 221 130 0
142 220 222 0
135 220 142 0
137 223 221 0
144 223 137 0
149 222 224 0
142 222 149 0
144 225 223 0
151 225 144 0
156 224 226 0
149 224 156 0
151 227 225 0
158 227 151 0
163 226 228 0
156 226 163 0
158 229 227 0
165 229 158 0
170 228 230 0
163 228 170 0
165 231 229 0
172 231 165 0
177 230 232 0
170 230 177 0
231 172 179 0
234 231 179 0
233 234 179 0
181 235 234 0
181 234 233 0
181 233 180 0
235 182 236 0
181 182 235 0
236 183 237 0
182 183 236 0
237 184 238 0
183 184 237 0
177 238 184 0
232 238 177 0
233 179 185 0
185 180 233 0
187 186 239 0
187 239 189 0
186 193 240 0
239 186 240 0
241 239 240 0
241 189 239 0
241 243 189 0
243 194 189 0
242 194 243 0
195 242 244 0
194 242 195 0
196 244 245 0
195 244 196 0
197 245 246 0
196 245 197 0
197 246 198 0
193 247 240 0
199 247 193 0
248 242 243 0
248 249 242 0
242 249 244 0
249 250 244 0
244 250 245 0
250 251 245 0
245 251 246 0
252 200 198 0
251 252 198 0
246 251 198 0
199 253 247 0
201 253 199 0
202 252 254 0
200 252 202 0
201 255 253 0
203 255 201 0
204 254 256 0
202 254 204 0
203 257 255 0
205 257 203 0
206 256 258 0
204 256 206 0
205 259 257 0
207 259 205 0
208 258 260 0
206 258 208 0
207 261 259 0
209 261 207 0
210 260 262 0
208 260 210 0
209 263 261 0
211 263 209 0
212 262 264 0
210 262 212 0
211 265 263 0
213 265 211 0
214 264 266 0
212 264 214 0
213 267 265 0
215 267 213 0
216 266 268 0
214 266 216 0
215 269 267 0
217 269 215 0
218 268 270 0
216 268 218 0
217 271 269 0
219 271 217 0
220 270 272 0
218 270 220 0
219 273 271 0
221 273 219 0
222 272 274 0
220 272 222 0
221 275 273 0
223 275 221 0
224 274 276 0
222 274 224 0
223 277 275 0
225 277 223 0
226 276 278 0
224 276 226 0
225 279 277 0
227 279 225 0
228 278 280 0
226 278 228 0
227 281 279 0
229 281 227 0
230 280 282 0
228 280 230 0
229 283 281 0
231 283 229 0
285 284 286 0
284 287 286 0
286 287 288 0
287 289 288 0
288 289 290 0
232 230 282 0
289 232 282 0
290 289 282 0
283 234 291 0
231 234 283 0
291 235 292 0
234 235 291 0
292 235 236 0
285 292 236 0
284 285 236 0
236 287 284 0
237 287 236 0
237 289 287 0
238 289 237 0
238 232 289 0
241 240 293 0
241 293 243 0
240 247 294 0
293 240 294 0
295 293 294 0
295 296 248 0
295 248 243 0
295 243 293 0
297 248 296 0
249 248 297 0
298 249 297 0
250 249 298 0
299 250 298 0
251 250 299 0
300 251 299 0
252 251 300 0
247 301 294 0
253 301 247 0
254 300 302 0
252 300 254 0
253 303 301 0
255 303 253 0
256 302 304 0
254 302 256 0
255 305 303 0
257 305 255 0
258 304 306 0
256 304 258 0
257 307 305 0
259 307 257 0
260 306 308 0
258 306 260 0
259 309 307 0
261 309 259 0
262 308 310 0
260 308 262 0
261 311 309 0
263 311 261 0
264 310 312 0
262 310 264 0
263 313 311 0
265 313 263 0
266 312 314 0
264 312 266 0
265 315 313 0
267 315 265 0
268 314 316 0
266 314 268 0
267 317 315 0
269 317 267 0
270 316 318 0
268 316 270 0
269 319 317 0
271 319 269 0
272 318 320 0
270 318 272 0
271 321 319 0
273 321 271 0
274 320 322 0
272 320 274 0
273 323 321 0
275 323 273 0
276 322 324 0
274 322 276 0
275 325 323 0
277 325 275 0
278 324 326 0
276 324 278 0
277 327 325 0
279 327 277 0
280 326 328 0
278 326 280 0
279 329 327 0
281 329 279 0
331 330 332 0
330 333 332 0
332 333 334 0
282 280 328 0
333 282 328 0
334 333 328 0
281 335 329 0
283 335 281 0
337 336 338 0
286 339 338 0
286 338 336 0
286 336 285 0
339 286 288 0
331 339 288 0
330 331 288 0
288 333 330 0
290 333 288 0
290 282 333 0
335 291 340 0
283 291 335 0
340 291 292 0
337 340 292 0
336 337 292 0
292 285 336 0
295 294 341 0
296 341 342 0
295 341 296 0
297 342 343 0
296 342 297 0
298 343 344 0
297 343 298 0
299 344 345 0
298 344 299 0
299 345 300 0
294 301 346 0
341 294 346 0
347 341 346 0
347 348 341 0
341 348 342 0
348 349 342 0
342 349 343 0
349 350 343 0
343 350 344 0
350 351 344 0
344 351 345 0
352 302 300 0
351 352 300 0
345 351 300 0
301 353 346 0
303 353 301 0
304 352 354 0
302 352 304 0
303 355 353 0
305 355 303 0
306 354 356 0
304 354 306 0
305 357 355 0
307 357 305 0
308 356 358 0
306 356 308 0
307 359 357 0
309 359 307 0
310 358 360 0
308 358 310 0
309 361 359 0
311 361 309 0
312 360 362 0
310 360 312 0
311 363 361 0
313 363 311 0
314 362 364 0
312 362 314 0
313 365 363 0
315 365 313 0
316 364 366 0
314 364 316 0
315 367 365 0
317 367 315 0
318 366 368 0
316 366 318 0
317 369 367 0
319 369 317 0
320 368 370 0
318 368 320 0
319 371 369 0
321 371 319 0
322 370 372 0
320 370 322 0
321 373 371 0
323 373 321 0
324 372 374 0
322 372 324 0
323 375 373 0
325 375 323 0
326 374 376 0
324 374 326 0
325 377 375 0
327 377 325 0
328 376 378 0
326 376 328 0
327 379 377 0
329 379 327 0
380 331 381 0
381 331 332 0
381 334 382 0
332 334 381 0
328 382 334 0
378 382 328 0
379 329 335 0
384 379 335 0
383 384 335 0
338 385 384 0
338 384 383 0
338 383 337 0
385 339 386 0
338 339 385 0
331 386 339 0
380 386 331 0
383 335 340 0
340 337 383 0
388 346 387 0
347 346 388 0
389 347 388 0
348 347 389 0
390 348 389 0
349 348 390 0
391 349 390 0
350 349 391 0
392 350 391 0
351 350 392 0
393 351 392 0
352 351 393 0
346 394 387 0
353 394 346 0
354 393 395 0
352 393 354 0
353 396 394 0
355 396 353 0
356 395 397 0
354 395 356 0
355 398 396 0
357 398 355 0
358 397 399 0
356 397 358 0
357 400 398 0
359 400 357 0
360 399 401 0
358 399 360 0
359 402 400 0
361 402 359 0
362 401 403 0
360 401 362 0
361 404 402 0
363 404 361 0
364 403 405 0
362 403 364 0
363 406 404 0
365 406 363 0
366 405 407 0
364 405 366 0
365 408 406 0
367 408 365 0
368 407 409 0
366 407 368 0
367 410 408 0
369 410 367 0
370 409 411 0
368 409 370 0
369 412 410 0
371 412 369 0
372 411 413 0
370 411 372 0
371 414 412 0
373 414 371 0
374 413 415 0
372 413 374 0
373 416 414 0
375 416 373 0
376 415 417 0
374 415 376 0
375 418 416 0
377 418 375 0
378 417 419 0
376 417 378 0
377 420 418 0
379 420 377 0
422 421 423 0
381 424 423 0
381 423 421 0
381 421 380 0
424 382 425 0
381 382 424 0
378 425 382 0
419 425 378 0
420 384 426 0
379 384 420 0
426 385 427 0
384 385 426 0
427 385 386 0
422 427 386 0
421 422 386 0
386 380 421 0
429 387 428 0
388 387 429 0
430 388 429 0
389 388 430 0
431 389 430 0
390 389 431 0
432 390 431 0
391 390 432 0
433 391 432 0
392 391 433 0
434 392 433 0
393 392 434 0
387 435 428 0
394 435 387 0
395 434 436 0
393 434 395 0
394 437 435 0
396 437 394 0
397 436 438 0
395 436 397 0
396 439 437 0
398 439 396 0
399 438 440 0
397 438 399 0
398 441 439 0
400 441 398 0
401 440 442 0
399 440 401 0
400 443 441 0
402 443 400 0
403 442 444 0
401 442 403 0
402 445 443 0
404 445 402 0
405 444 446 0
403 444 405 0
404 447 445 0
406 447 404 0
407 446 448 0
405 446 407 0
406 449 447 0
408 449 406 0
409 448 450 0
407 448 409 0
408 451 449 0
410 451 408 0
411 450 452 0
409 450 411 0
410 453 451 0
412 453 410 0
413 452 454 0
411 452 413 0
412 455 453 0
414 455 412 0
415 454 456 0
413 454 415 0
414 457 455 0
416 457 414 0
417 456 458 0
415 456 417 0
416 459 457 0
418 459 416 0
419 458 460 0
417 458 419 0
418 461 459 0
420 461 418 0
463 462 464 0
423 465 464 0
423 464 462 0
423 462 422 0
465 424 466 0
423 424 465 0
466 425 467 0
424 425 466 0
419 467 425 0
460 467 419 0
461 426 468 0
420 426 461 0
468 426 427 0
463 468 427 0
462 463 427 0
427 422 462 0
470 428 469 0
429 428 470 0
471 429 470 0
430 429 471 0
472 430 471 0
431 430 472 0
473 431 472 0
432 431 473 0
474 432 473 0
433 432 474 0
475 433 474 0
434 433 475 0
428 476 469 0
435 476 428 0
436 475 477 0
434 475 436 0
435 478 476 0
437 478 435 0
438 477 479 0
436 477 438 0
437 480 478 0
439 480 437 0
440 479 481 0
438 479 440 0
439 482 480 0
441 482 439 0
442 481 483 0
440 481 442 0
441 484 482 0
443 484 441 0
444 483 485 0
442 483 444 0
443 486 484 0
445 486 443 0
446 485 487 0
444 485 446 0
445 488 486 0
447 488 445 0
448 487 489 0
446 487 448 0
447 490 488 0
449 490 447 0
450 489 491 0
448 489 450 0
449 492 490 0
451 492 449 0
452 491 493 0
450 491 452 0
451 494 492 0
453 494 451 0
454 493 495 0
452 493 454 0
453 496 494 0
455 496 453 0
456 495 497 0
454 495 456 0
455 498 496 0
457 498 455 0
458 497 499 0
456 497 458 0
457 500 498 0
459 500 457 0
502 501 503 0
460 458 499 0
501 460 499 0
503 501 499 0
459 504 500 0
461 504 459 0
505 463 506 0
506 463 464 0
506 465 507 0
464 465 506 0
507 466 508 0
465 466 507 0
508 466 467 0
502 508 467 0
501 502 467 0
467 460 501 0
504 468 509 0
461 468 504 0
463 509 468 0
505 509 463 0
470 469 510 0
471 510 511 0
470 510 471 0
472 511 512 0
471 511 472 0
473 512 513 0
472 512 473 0
474 513 514 0
473 513 474 0
474 514 475 0
469 476 515 0
510 469 515 0
516 510 515 0
516 517 510 0
510 517 511 0
517 518 511 0
511 518 512 0
518 519 512 0
512 519 513 0
519 520 513 0
513 520 514 0
521 477 475 0
520 521 475 0
514 520 475 0
476 522 515 0
478 522 476 0
479 521 523 0
477 521 479 0
478 524 522 0
480 524 478 0
481 523 525 0
479 523 481 0
480 526 524 0
482 526 480 0
483 525 527 0
481 525 483 0
482 528 526 0
484 528 482 0
485 527 529 0
483 527 485 0
484 530 528 0
486 530 484 0
487 529 531 0
485 529 487 0
486 532 530 0
488 532 486 0
489 531 533 0
487 531 489 0
488 534 532 0
490 534 488 0
491 533 535 0
489 533 491 0
490 536 534 0
492 536 490 0
493 535 537 0
491 535 493 0
492 538 536 0
494 538 492 0
495 537 539 0
493 537 495 0
494 540 538 0
496 540 494 0
497 539 541 0
495 539 497 0
496 542 540 0
498 542 496 0
499 541 543 0
497 541 499 0
498 544 542 0
500 544 498 0
546 545 547 0
545 548 547 0
547 548 549 0
503 550 549 0
503 549 548 0
503 548 502 0
499 550 503 0
543 550 499 0
544 500 504 0
552 544 504 0
551 552 504 0
506 553 552 0
506 552 551 0
506 551 505 0
553 506 507 0
546 553 507 0
545 546 507 0
507 548 545 0
508 548 507 0
508 502 548 0
551 504 509 0
509 505 551 0
555 515 554 0
516 515 555 0
556 516 555 0
517 516 556 0
557 517 556 0
518 517 557 0
558 518 557 0
519 518 558 0
559 519 558 0
520 519 559 0
560 520 559 0
521 520 560 0
515 561 554 0
522 561 515 0
523 560 562 0
521 560 523 0
522 563 561 0
524 563 522 0
525 562 564 0
523 562 525 0
524 565 563 0
526 565 524 0
527 564 566 0
525 564 527 0
526 567 565 0
528 567 526 0
529 566 568 0
527 566 529 0
528 569 567 0
530 569 528 0
531 568 570 0
529 568 531 0
530 571 569 0
532 571 530 0
533 570 572 0
531 570 533 0
532 573 571 0
534 573 532 0
535 572 574 0
533 572 535 0
534 575 573 0
536 575 534 0
537 574 576 0
535 574 537 0
536 577 575 0
538 577 536 0
539 576 578 0
537 576 539 0
538 579 577 0
540 579 538 0
541 578 580 0
539 578 541 0
579 540 542 0
582 579 542 0
581 582 542 0
582 581 583 0
585 584 586 0
584 587 586 0
586 587 588 0
543 541 580 0
587 543 580 0
588 587 580 0
589 542 544 0
581 542 589 0
581 589 590 0
581 590 591 0
581 591 583 0
547 592 591 0
547 591 590 0
547 590 546 0
592 547 549 0
585 592 549 0
584 585 549 0
549 587 584 0
550 587 549 0
550 543 587 0
589 544 552 0
552 590 589 0
553 590 552 0
553 546 590 0
594 554 593 0
555 554 594 0
595 555 594 0
556 555 595 0
596 556 595 0
557 556 596 0
597 557 596 0
558 557 597 0
598 558 597 0
559 558 598 0
599 559 598 0
560 559 599 0
554 600 593 0
561 600 554 0
562 599 601 0
560 599 562 0
561 602 600 0
563 602 561 0
564 601 603 0
562 601 564 0
563 604 602 0
565 604 563 0
566 603 605 0
564 603 566 0
565 606 604 0
567 606 565 0
568 605 607 0
566 605 568 0
567 608 606 0
569 608 567 0
570 607 609 0
568 607 570 0
569 610 608 0
571 610 569 0
572 609 611 0
570 609 572 0
571 612 610 0
573 612 571 0
574 611 613 0
572 611 574 0
612 573 575 0
615 612 575 0
614 615 575 0
615 614 616 0
576 574 613 0
576 613 618 0
576 618 617 0
619 617 618 0
620 575 577 0
614 575 620 0
614 620 616 0
616 620 621 0
578 576 622 0
622 576 617 0
619 622 617 0
623 622 619 0
624 577 579 0
620 577 624 0
620 624 621 0
621 624 625 0
580 578 626 0
626 578 622 0
623 626 622 0
627 626 623 0
624 579 582 0
624 629 625 0
624 582 629 0
582 628 629 0
583 628 582 0
628 630 629 0
629 630 631 0
586 632 631 0
586 631 630 0
586 630 585 0
632 588 633 0
586 588 632 0
634 633 588 0
626 634 588 0
580 626 588 0
626 627 634 0
628 583 591 0
591 630 628 0
592 630 591 0
592 585 630 0
594 593 635 0
595 635 636 0
594 635 595 0
596 636 637 0
595 636 596 0
597 637 638 0
596 637 597 0
598 638 639 0
597 638 598 0
598 639 599 0
593 600 640 0
635 593 640 0
641 635 640 0
641 642 635 0
635 642 636 0
642 643 636 0
636 643 637 0
643 644 637 0
637 644 638 0
644 645 638 0
638 645 639 0
646 601 599 0
645 646 599 0
639 645 599 0
600 647 640 0
602 647 600 0
603 646 648 0
601 646 603 0
602 649 647 0
604 649 602 0
605 648 650 0
603 648 605 0
604 651 649 0
606 651 604 0
607 650 652 0
605 650 607 0
651 606 608 0
654 651 608 0
653 654 608 0
654 653 655 0
609 607 652 0
609 652 657 0
609 657 656 0
658 656 657 0
659 608 610 0
653 608 659 0
653 659 655 0
655 659 660 0
611 609 661 0
661 609 656 0
658 661 656 0
662 661 658 0
663 610 612 0
659 610 663 0
659 663 660 0
660 663 664 0
613 611 665 0
665 611 661 0
662 665 661 0
666 665 662 0
663 612 615 0
616 667 664 0
616 664 663 0
616 663 615 0
618 613 665 0
666 668 619 0
665 666 619 0
618 665 619 0
616 669 667 0
621 669 616 0
671 670 672 0
670 673 672 0
672 673 674 0
673 675 674 0
674 675 676 0
676 675 677 0
623 668 678 0
619 668 623 0
669 621 625 0
680 669 625 0
679 680 625 0
679 681 670 0
679 670 671 0
679 671 680 0
681 673 670 0
682 673 681 0
682 675 673 0
683 675 682 0
675 683 684 0
675 684 685 0
675 685 677 0
627 623 678 0
684 627 678 0
685 684 678 0
679 625 629 0
629 681 679 0
631 681 629 0
631 682 681 0
632 682 631 0
632 683 682 0
633 683 632 0
633 684 683 0
634 684 633 0
634 627 684 0
641 640 686 0
642 686 687 0
641 686 642 0
643 687 688 0
642 687 643 0
690 644 643 0
689 690 643 0
688 689 643 0
645 644 690 0
691 645 690 0
692 691 690 0
645 691 646 0
640 647 693 0
686 640 693 0
694 686 693 0
694 695 686 0
686 695 687 0
695 696 687 0
687 696 688 0
696 689 688 0
697 691 692 0
648 646 698 0
646 699 698 0
646 691 699 0
691 697 699 0
700 698 699 0
693 647 649 0
702 693 649 0
701 702 649 0
702 701 703 0
650 648 704 0
704 648 698 0
700 704 698 0
705 704 700 0
706 649 651 0
701 649 706 0
701 706 703 0
703 706 707 0
652 650 708 0
708 650 704 0
705 708 704 0
709 708 705 0
706 651 654 0
655 710 707 0
655 707 706 0
655 706 654 0
657 652 708 0
709 711 658 0
708 709 658 0
657 708 658 0
655 712 710 0
660 712 655 0
662 711 713 0
658 711 662 0
660 714 712 0
664 714 660 0
716 715 717 0
715 718 717 0
717 718 719 0
718 720 719 0
719 720 721 0
721 720 722 0
666 713 723 0
662 713 666 0
664 724 714 0
667 724 664 0
716 726 715 0
715 726 725 0
725 718 715 0
727 718 725 0
727 720 718 0
728 720 727 0
720 728 729 0
720 729 730 0
720 730 722 0
668 666 723 0
729 668 723 0
730 729 723 0
724 667 669 0
732 724 669 0
731 732 669 0
731 726 732 0
731 671 726 0
671 725 726 0
672 725 671 0
672 727 725 0
674 727 672 0
674 728 727 0
676 728 674 0
733 729 728 0
677 733 728 0
676 677 728 0
729 678 668 0
733 678 729 0
731 669 680 0
680 671 731 0
733 677 685 0
685 678 733 0
690 689 734 0
690 734 692 0
694 693 735 0
695 735 736 0
694 735 695 0
696 736 737 0
695 736 696 0
737 738 734 0
696 737 734 0
689 696 734 0
734 738 739 0
692 734 739 0
697 692 739 0
699 739 740 0
697 739 699 0
699 740 700 0
735 693 702 0
741 736 735 0
703 741 735 0
702 703 735 0
741 737 736 0
742 737 741 0
742 738 737 0
743 738 742 0
743 739 738 0
744 739 743 0
744 740 739 0
745 740 744 0
740 705 700 0
745 705 740 0
746 703 707 0
741 703 746 0
746 742 741 0
747 742 746 0
747 743 742 0
748 743 747 0
748 744 743 0
749 744 748 0
749 745 744 0
750 745 749 0
745 709 705 0
750 709 745 0
751 707 710 0
746 707 751 0
751 747 746 0
752 747 751 0
752 748 747 0
753 748 752 0
753 749 748 0
754 749 753 0
754 750 749 0
755 750 754 0
750 711 709 0
755 711 750 0
756 710 712 0
751 710 756 0
756 752 751 0
757 752 756 0
757 753 752 0
758 753 757 0
758 754 753 0
759 754 758 0
759 755 754 0
760 755 759 0
755 713 711 0
760 713 755 0
761 712 714 0
756 712 761 0
757 756 761 0
717 757 761 0
716 717 761 0
717 758 757 0
719 758 717 0
719 759 758 0
721 759 719 0
762 760 759 0
722 762 759 0
721 722 759 0
760 723 713 0
762 723 760 0
763 714 724 0
761 714 763 0
761 726 716 0
763 726 761 0
762 722 730 0
730 723 762 0
763 724 732 0
732 726 763 0
