#!ascii version of
688 1372
1.000000  -16.500000  57.000000  0
1.500000  -16.000000  57.000000  0
1.000000  -16.000000  57.500000  0
0.500000  -16.000000  57.000000  0
1.000000  -16.000000  56.500000  0
5.000000  -15.500000  57.000000  0
5.500000  -15.000000  57.000000  0
5.000000  -15.000000  57.500000  0
4.000000  -15.500000  57.000000  0
4.000000  -15.000000  57.500000  0
3.000000  -15.500000  57.000000  0
3.000000  -15.000000  57.500000  0
2.000000  -15.500000  57.000000  0
2.000000  -15.000000  57.500000  0
1.000000  -15.000000  57.500000  0
0.500000  -15.000000  57.000000  0
5.000000  -15.500000  56.000000  0
5.500000  -15.000000  56.000000  0
4.000000  -15.500000  56.000000  0
3.000000  -15.500000  56.000000  0
2.000000  -15.500000  56.000000  0
1.000000  -15.500000  56.000000  0
0.500000  -15.000000  56.000000  0
5.000000  -15.500000  55.000000  0
5.500000  -15.000000  55.000000  0
4.000000  -15.500000  55.000000  0
3.000000  -15.500000  55.000000  0
2.000000  -15.500000  55.000000  0
1.000000  -15.500000  55.000000  0
0.500000  -15.000000  55.000000  0
5.000000  -15.500000  54.000000  0
5.500000  -15.000000  54.000000  0
4.000000  -15.500000  54.000000  0
3.000000  -15.500000  54.000000  0
2.000000  -15.500000  54.000000  0
1.000000  -15.500000  54.000000  0
0.500000  -15.000000  54.000000  0
5.000000  -15.500000  53.000000  0
5.500000  -15.000000  53.000000  0
4.000000  -15.500000  53.000000  0
3.000000  -15.500000  53.000000  0
2.000000  -15.500000  53.000000  0
1.000000  -15.500000  53.000000  0
0.500000  -15.000000  53.000000  0
5.000000  -15.500000  52.000000  0
5.500000  -15.000000  52.000000  0
4.000000  -15.500000  52.000000  0
3.000000  -15.500000  52.000000  0
2.000000  -15.500000  52.000000  0
1.000000  -15.500000  52.000000  0
0.500000  -15.000000  52.000000  0
5.000000  -15.500000  51.000000  0
5.500000  -15.000000  51.000000  0
4.000000  -15.500000  51.000000  0
3.000000  -15.500000  51.000000  0
2.000000  -15.500000  51.000000  0
1.000000  -15.500000  51.000000  0
0.500000  -15.000000  51.000000  0
5.000000  -15.500000  50.000000  0
5.500000  -15.000000  50.000000  0
4.000000  -15.500000  50.000000  0
3.000000  -15.500000  50.000000  0
2.000000  -15.500000  50.000000  0
1.000000  -15.500000  50.000000  0
0.500000  -15.000000  50.000000  0
5.000000  -15.500000  49.000000  0
5.500000  -15.000000  49.000000  0
4.000000  -15.500000  49.000000  0
3.000000  -15.500000  49.000000  0
2.000000  -15.500000  49.000000  0
1.000000  -15.500000  49.000000  0
0.500000  -15.000000  49.000000  0
5.000000  -15.500000  48.000000  0
5.500000  -15.000000  48.000000  0
4.000000  -15.500000  48.000000  0
3.000000  -15.500000  48.000000  0
2.000000  -15.500000  48.000000  0
1.000000  -15.500000  48.000000  0
0.500000  -15.000000  48.000000  0
5.000000  -15.000000  47.500000  0
4.000000  -15.000000  47.500000  0
3.000000  -15.000000  47.500000  0
2.000000  -15.000000  47.500000  0
1.000000  -15.500000  47.000000  0
1.500000  -15.000000  47.000000  0
0.500000  -15.000000  47.000000  0
1.000000  -15.500000  46.000000  0
1.500000  -15.000000  46.000000  0
0.500000  -15.000000  46.000000  0
1.000000  -15.000000  45.500000  0
5.500000  -14.000000  57.000000  0
5.000000  -14.000000  57.500000  0
4.000000  -14.000000  57.500000  0
3.000000  -14.000000  57.500000  0
2.000000  -14.000000  57.500000  0
1.000000  -14.000000  57.500000  0
0.500000  -14.000000  57.000000  0
5.500000  -14.000000  56.000000  0
0.500000  -14.000000  56.000000  0
5.500000  -14.000000  55.000000  0
0.500000  -14.000000  55.000000  0
5.500000  -14.000000  54.000000  0
0.500000  -14.000000  54.000000  0
5.500000  -14.000000  53.000000  0
0.500000  -14.000000  53.000000  0
5.500000  -14.000000  52.000000  0
0.500000  -14.000000  52.000000  0
5.500000  -14.000000  51.000000  0
0.500000  -14.000000  51.000000  0
5.500000  -14.000000  50.000000  0
0.500000  -14.000000  50.000000  0
5.000000  -14.500000  49.000000  0
5.000000  -14.000000  49.500000  0
4.500000  -14.000000  49.000000  0
0.500000  -14.000000  49.000000  0
5.000000  -14.500000  48.000000  0
4.500000  -14.000000  48.000000  0
0.500000  -14.000000  48.000000  0
4.000000  -14.500000  47.000000  0
4.500000  -14.000000  47.000000  0
3.000000  -14.500000  47.000000  0
2.000000  -14.500000  47.000000  0
0.500000  -14.000000  47.000000  0
4.000000  -14.000000  46.500000  0
3.000000  -14.000000  46.500000  0
2.000000  -14.000000  46.500000  0
1.500000  -14.000000  46.000000  0
0.500000  -14.000000  46.000000  0
1.000000  -14.000000  45.500000  0
5.000000  -13.500000  58.000000  0
5.500000  -13.000000  58.000000  0
5.000000  -13.000000  58.500000  0
4.000000  -13.500000  58.000000  0
4.000000  -13.000000  58.500000  0
3.000000  -13.500000  58.000000  0
3.000000  -13.000000  58.500000  0
2.000000  -13.500000  58.000000  0
2.000000  -13.000000  58.500000  0
1.000000  -13.500000  58.000000  0
1.000000  -13.000000  58.500000  0
0.500000  -13.000000  58.000000  0
5.500000  -13.000000  57.000000  0
0.500000  -13.000000  57.000000  0
5.500000  -13.000000  56.000000  0
0.500000  -13.000000  56.000000  0
5.500000  -13.000000  55.000000  0
0.500000  -13.000000  55.000000  0
5.500000  -13.000000  54.000000  0
0.500000  -13.000000  54.000000  0
5.500000  -13.000000  53.000000  0
0.500000  -13.000000  53.000000  0
5.500000  -13.000000  52.000000  0
0.500000  -13.000000  52.000000  0
5.000000  -13.500000  51.000000  0
5.000000  -13.000000  51.500000  0
4.500000  -13.000000  51.000000  0
0.500000  -13.000000  51.000000  0
5.000000  -13.500000  50.000000  0
4.500000  -13.000000  50.000000  0
0.500000  -13.000000  50.000000  0
4.500000  -13.000000  49.000000  0
0.500000  -13.000000  49.000000  0
4.500000  -13.000000  48.000000  0
0.500000  -13.000000  48.000000  0
4.500000  -13.000000  47.000000  0
0.500000  -13.000000  47.000000  0
4.000000  -13.000000  46.500000  0
3.000000  -13.000000  46.500000  0
2.000000  -13.000000  46.500000  0
1.000000  -13.500000  46.000000  0
1.000000  -13.000000  46.500000  0
5.500000  -12.000000  58.000000  0
5.000000  -12.000000  58.500000  0
4.000000  -12.000000  58.500000  0
3.000000  -12.000000  58.500000  0
2.000000  -12.000000  58.500000  0
1.000000  -12.000000  58.500000  0
0.500000  -12.000000  58.000000  0
5.500000  -12.000000  57.000000  0
0.500000  -12.000000  57.000000  0
5.500000  -12.000000  56.000000  0
0.500000  -12.000000  56.000000  0
5.500000  -12.000000  55.000000  0
0.500000  -12.000000  55.000000  0
5.500000  -12.000000  54.000000  0
0.500000  -12.000000  54.000000  0
5.500000  -12.000000  53.000000  0
0.500000  -12.000000  53.000000  0
5.500000  -12.000000  52.000000  0
0.500000  -12.000000  52.000000  0
5.000000  -12.000000  51.500000  0
4.500000  -12.000000  51.000000  0
0.500000  -12.000000  51.000000  0
4.500000  -12.000000  50.000000  0
0.500000  -12.000000  50.000000  0
4.500000  -12.000000  49.000000  0
0.500000  -12.000000  49.000000  0
4.500000  -12.000000  48.000000  0
0.500000  -12.000000  48.000000  0
4.000000  -12.500000  47.000000  0
4.000000  -12.000000  47.500000  0
3.500000  -12.000000  47.000000  0
0.500000  -12.000000  47.000000  0
3.000000  -12.000000  46.500000  0
2.000000  -12.000000  46.500000  0
1.000000  -12.000000  46.500000  0
5.500000  -11.000000  58.000000  0
5.000000  -11.000000  58.500000  0
4.000000  -11.000000  58.500000  0
3.000000  -11.000000  58.500000  0
2.000000  -11.000000  58.500000  0
1.000000  -11.000000  58.500000  0
0.500000  -11.000000  58.000000  0
5.500000  -11.000000  57.000000  0
0.500000  -11.000000  57.000000  0
5.500000  -11.000000  56.000000  0
0.500000  -11.000000  56.000000  0
5.500000  -11.000000  55.000000  0
0.500000  -11.000000  55.000000  0
5.500000  -11.000000  54.000000  0
0.500000  -11.000000  54.000000  0
5.500000  -11.000000  53.000000  0
0.500000  -11.000000  53.000000  0
5.500000  -11.000000  52.000000  0
0.500000  -11.000000  52.000000  0
5.000000  -11.000000  51.500000  0
4.500000  -11.000000  51.000000  0
0.500000  -11.000000  51.000000  0
4.500000  -11.000000  50.000000  0
0.500000  -11.000000  50.000000  0
4.500000  -11.000000  49.000000  0
0.500000  -11.000000  49.000000  0
4.500000  -11.000000  48.000000  0
0.500000  -11.000000  48.000000  0
4.000000  -11.000000  47.500000  0
3.500000  -11.000000  47.000000  0
0.500000  -11.000000  47.000000  0
3.000000  -11.000000  46.500000  0
2.000000  -11.000000  46.500000  0
1.000000  -11.000000  46.500000  0
5.500000  -10.000000  58.000000  0
5.000000  -10.000000  58.500000  0
4.000000  -10.000000  58.500000  0
3.000000  -10.000000  58.500000  0
2.000000  -10.000000  58.500000  0
1.000000  -10.000000  58.500000  0
0.500000  -10.000000  58.000000  0
5.500000  -10.000000  57.000000  0
0.500000  -10.000000  57.000000  0
5.500000  -10.000000  56.000000  0
0.500000  -10.000000  56.000000  0
5.500000  -10.000000  55.000000  0
0.500000  -10.000000  55.000000  0
5.500000  -10.000000  54.000000  0
0.500000  -10.000000  54.000000  0
5.500000  -10.000000  53.000000  0
0.500000  -10.000000  53.000000  0
5.500000  -10.000000  52.000000  0
0.500000  -10.000000  52.000000  0
5.000000  -10.000000  51.500000  0
4.500000  -10.000000  51.000000  0
0.500000  -10.000000  51.000000  0
4.500000  -10.000000  50.000000  0
0.500000  -10.000000  50.000000  0
4.500000  -10.000000  49.000000  0
0.500000  -10.000000  49.000000  0
4.500000  -10.000000  48.000000  0
0.500000  -10.000000  48.000000  0
4.000000  -10.000000  47.500000  0
3.500000  -10.000000  47.000000  0
1.000000  -10.500000  47.000000  0
1.500000  -10.000000  47.000000  0
1.000000  -10.000000  47.500000  0
3.000000  -10.500000  46.000000  0
3.500000  -10.000000  46.000000  0
2.000000  -10.500000  46.000000  0
1.500000  -10.000000  46.000000  0
3.000000  -10.000000  45.500000  0
2.000000  -10.000000  45.500000  0
5.500000  -9.000000  58.000000  0
5.000000  -9.000000  58.500000  0
4.000000  -9.000000  58.500000  0
3.000000  -9.000000  58.500000  0
2.000000  -9.000000  58.500000  0
1.000000  -9.000000  58.500000  0
0.500000  -9.000000  58.000000  0
5.500000  -9.000000  57.000000  0
0.500000  -9.000000  57.000000  0
5.500000  -9.000000  56.000000  0
0.500000  -9.000000  56.000000  0
5.500000  -9.000000  55.000000  0
0.500000  -9.000000  55.000000  0
5.500000  -9.000000  54.000000  0
0.500000  -9.000000  54.000000  0
5.500000  -9.000000  53.000000  0
0.500000  -9.000000  53.000000  0
5.000000  -9.500000  52.000000  0
5.000000  -9.000000  52.500000  0
4.500000  -9.000000  52.000000  0
0.500000  -9.000000  52.000000  0
4.500000  -9.000000  51.000000  0
0.500000  -9.000000  51.000000  0
4.500000  -9.000000  50.000000  0
1.000000  -9.500000  50.000000  0
1.500000  -9.000000  50.000000  0
1.000000  -9.000000  50.500000  0
4.500000  -9.000000  49.000000  0
1.000000  -9.500000  49.000000  0
1.500000  -9.000000  49.000000  0
4.000000  -9.500000  48.000000  0
4.000000  -9.000000  48.500000  0
3.500000  -9.000000  48.000000  0
1.000000  -9.500000  48.000000  0
1.500000  -9.000000  48.000000  0
3.500000  -9.000000  47.000000  0
1.500000  -9.000000  47.000000  0
3.500000  -9.000000  46.000000  0
1.500000  -9.000000  46.000000  0
3.000000  -9.000000  45.500000  0
2.000000  -9.500000  45.000000  0
2.500000  -9.000000  45.000000  0
1.500000  -9.000000  45.000000  0
2.000000  -9.000000  44.500000  0
5.000000  -8.500000  59.000000  0
5.500000  -8.000000  59.000000  0
5.000000  -8.000000  59.500000  0
4.000000  -8.500000  59.000000  0
4.000000  -8.000000  59.500000  0
3.500000  -8.000000  59.000000  0
5.500000  -8.000000  58.000000  0
3.000000  -8.000000  58.500000  0
2.000000  -8.000000  58.500000  0
1.000000  -8.000000  58.500000  0
0.500000  -8.000000  58.000000  0
5.500000  -8.000000  57.000000  0
0.500000  -8.000000  57.000000  0
5.500000  -8.000000  56.000000  0
0.500000  -8.000000  56.000000  0
5.500000  -8.000000  55.000000  0
0.500000  -8.000000  55.000000  0
5.500000  -8.000000  54.000000  0
0.500000  -8.000000  54.000000  0
5.500000  -8.000000  53.000000  0
0.500000  -8.000000  53.000000  0
5.000000  -8.000000  52.500000  0
4.500000  -8.000000  52.000000  0
0.500000  -8.000000  52.000000  0
4.000000  -8.500000  51.000000  0
4.000000  -8.000000  51.500000  0
3.500000  -8.000000  51.000000  0
0.500000  -8.000000  51.000000  0
4.000000  -8.500000  50.000000  0
3.500000  -8.000000  50.000000  0
1.500000  -8.000000  50.000000  0
1.000000  -8.000000  50.500000  0
4.000000  -8.500000  49.000000  0
3.500000  -8.000000  49.000000  0
1.500000  -8.000000  49.000000  0
3.500000  -8.000000  48.000000  0
1.500000  -8.000000  48.000000  0
3.000000  -8.500000  47.000000  0
3.000000  -8.000000  47.500000  0
2.500000  -8.000000  47.000000  0
1.000000  -8.500000  47.000000  0
1.000000  -8.000000  47.500000  0
0.500000  -8.000000  47.000000  0
3.000000  -8.500000  46.000000  0
2.500000  -8.000000  46.000000  0
1.000000  -8.500000  46.000000  0
0.500000  -8.000000  46.000000  0
2.500000  -8.000000  45.000000  0
1.000000  -8.500000  45.000000  0
0.500000  -8.000000  45.000000  0
2.000000  -8.000000  44.500000  0
1.000000  -8.000000  44.500000  0
5.500000  -7.000000  59.000000  0
5.000000  -7.000000  59.500000  0
4.000000  -7.000000  59.500000  0
3.500000  -7.000000  59.000000  0
5.500000  -7.000000  58.000000  0
3.000000  -7.000000  58.500000  0
2.000000  -7.000000  58.500000  0
1.000000  -7.000000  58.500000  0
0.500000  -7.000000  58.000000  0
5.500000  -7.000000  57.000000  0
0.500000  -7.000000  57.000000  0
5.500000  -7.000000  56.000000  0
0.500000  -7.000000  56.000000  0
5.500000  -7.000000  55.000000  0
0.500000  -7.000000  55.000000  0
5.500000  -7.000000  54.000000  0
0.500000  -7.000000  54.000000  0
5.500000  -7.000000  53.000000  0
0.500000  -7.000000  53.000000  0
5.000000  -7.000000  52.500000  0
4.500000  -7.000000  52.000000  0
0.500000  -7.000000  52.000000  0
4.000000  -7.000000  51.500000  0
3.500000  -7.000000  51.000000  0
0.500000  -7.000000  51.000000  0
3.500000  -7.000000  50.000000  0
1.000000  -7.500000  50.000000  0
0.500000  -7.000000  50.000000  0
3.000000  -7.500000  49.000000  0
3.000000  -7.000000  49.500000  0
2.500000  -7.000000  49.000000  0
1.000000  -7.500000  49.000000  0
0.500000  -7.000000  49.000000  0
3.000000  -7.500000  48.000000  0
2.500000  -7.000000  48.000000  0
1.000000  -7.500000  48.000000  0
0.500000  -7.000000  48.000000  0
2.500000  -7.000000  47.000000  0
0.500000  -7.000000  47.000000  0
2.500000  -7.000000  46.000000  0
0.500000  -7.000000  46.000000  0
2.500000  -7.000000  45.000000  0
1.000000  -7.500000  45.000000  0
1.500000  -7.000000  45.000000  0
1.000000  -7.000000  45.500000  0
2.000000  -7.500000  44.000000  0
2.500000  -7.000000  44.000000  0
1.500000  -7.000000  44.000000  0
2.000000  -7.000000  43.500000  0
5.500000  -6.000000  59.000000  0
5.000000  -6.000000  59.500000  0
4.000000  -6.000000  59.500000  0
3.000000  -6.500000  59.000000  0
3.000000  -6.000000  59.500000  0
2.000000  -6.500000  59.000000  0
2.000000  -6.000000  59.500000  0
1.500000  -6.000000  59.000000  0
5.500000  -6.000000  58.000000  0
1.000000  -6.000000  58.500000  0
0.500000  -6.000000  58.000000  0
5.500000  -6.000000  57.000000  0
0.500000  -6.000000  57.000000  0
5.500000  -6.000000  56.000000  0
0.500000  -6.000000  56.000000  0
5.500000  -6.000000  55.000000  0
0.500000  -6.000000  55.000000  0
5.500000  -6.000000  54.000000  0
0.500000  -6.000000  54.000000  0
5.500000  -6.000000  53.000000  0
0.500000  -6.000000  53.000000  0
5.000000  -6.000000  52.500000  0
4.000000  -6.500000  52.000000  0
4.000000  -6.000000  52.500000  0
3.500000  -6.000000  52.000000  0
0.000000  -6.500000  52.000000  0
0.000000  -6.000000  52.500000  0
-0.500000  -6.000000  52.000000  0
3.000000  -6.500000  51.000000  0
3.000000  -6.000000  51.500000  0
2.500000  -6.000000  51.000000  0
0.500000  -6.000000  51.000000  0
0.000000  -6.000000  51.500000  0
3.000000  -6.500000  50.000000  0
2.500000  -6.000000  50.000000  0
0.500000  -6.000000  50.000000  0
2.500000  -6.000000  49.000000  0
0.500000  -6.000000  49.000000  0
2.500000  -6.000000  48.000000  0
0.500000  -6.000000  48.000000  0
2.500000  -6.000000  47.000000  0
0.500000  -6.000000  47.000000  0
2.500000  -6.000000  46.000000  0
1.000000  -6.500000  46.000000  0
1.500000  -6.000000  46.000000  0
1.000000  -6.000000  46.500000  0
2.500000  -6.000000  45.000000  0
1.500000  -6.000000  45.000000  0
2.500000  -6.000000  44.000000  0
1.500000  -6.000000  44.000000  0
2.000000  -6.500000  43.000000  0
2.500000  -6.000000  43.000000  0
1.500000  -6.000000  43.000000  0
2.000000  -6.500000  42.000000  0
2.500000  -6.000000  42.000000  0
1.500000  -6.000000  42.000000  0
2.000000  -6.000000  41.500000  0
5.500000  -5.000000  59.000000  0
5.000000  -5.000000  59.500000  0
4.000000  -5.000000  59.500000  0
3.000000  -5.000000  59.500000  0
2.000000  -5.500000  59.000000  0
2.500000  -5.000000  59.000000  0
5.500000  -5.000000  58.000000  0
2.000000  -5.000000  58.500000  0
1.000000  -5.000000  58.500000  0
0.500000  -5.000000  58.000000  0
5.500000  -5.000000  57.000000  0
0.500000  -5.000000  57.000000  0
5.500000  -5.000000  56.000000  0
0.500000  -5.000000  56.000000  0
5.000000  -5.500000  55.000000  0
5.000000  -5.000000  55.500000  0
4.500000  -5.000000  55.000000  0
0.000000  -5.500000  55.000000  0
0.000000  -5.000000  55.500000  0
-0.500000  -5.000000  55.000000  0
5.000000  -5.500000  54.000000  0
4.500000  -5.000000  54.000000  0
0.000000  -5.500000  54.000000  0
-0.500000  -5.000000  54.000000  0
5.000000  -5.500000  53.000000  0
4.500000  -5.000000  53.000000  0
0.000000  -5.500000  53.000000  0
-0.500000  -5.000000  53.000000  0
4.000000  -5.000000  52.500000  0
3.500000  -5.000000  52.000000  0
-0.500000  -5.000000  52.000000  0
3.000000  -5.000000  51.500000  0
2.500000  -5.000000  51.000000  0
0.500000  -5.000000  51.000000  0
0.000000  -5.000000  51.500000  0
2.500000  -5.000000  50.000000  0
1.000000  -5.500000  50.000000  0
1.500000  -5.000000  50.000000  0
1.000000  -5.000000  50.500000  0
2.500000  -5.000000  49.000000  0
1.000000  -5.500000  49.000000  0
1.500000  -5.000000  49.000000  0
2.500000  -5.000000  48.000000  0
1.000000  -5.500000  48.000000  0
1.500000  -5.000000  48.000000  0
2.500000  -5.000000  47.000000  0
1.000000  -5.500000  47.000000  0
1.500000  -5.000000  47.000000  0
2.500000  -5.000000  46.000000  0
1.500000  -5.000000  46.000000  0
2.500000  -5.000000  45.000000  0
1.500000  -5.000000  45.000000  0
2.500000  -5.000000  44.000000  0
1.500000  -5.000000  44.000000  0
2.500000  -5.000000  43.000000  0
1.500000  -5.000000  43.000000  0
2.000000  -5.500000  42.000000  0
2.000000  -5.000000  42.500000  0
5.500000  -4.000000  59.000000  0
5.000000  -4.000000  59.500000  0
4.000000  -4.500000  59.000000  0
4.500000  -4.000000  59.000000  0
3.000000  -4.500000  59.000000  0
5.500000  -4.000000  58.000000  0
4.000000  -4.000000  58.500000  0
3.000000  -4.000000  58.500000  0
2.000000  -4.000000  58.500000  0
1.000000  -4.000000  58.500000  0
0.000000  -4.500000  58.000000  0
0.000000  -4.000000  58.500000  0
-0.500000  -4.000000  58.000000  0
5.000000  -4.500000  57.000000  0
5.000000  -4.000000  57.500000  0
4.500000  -4.000000  57.000000  0
0.000000  -4.500000  57.000000  0
-0.500000  -4.000000  57.000000  0
5.000000  -4.500000  56.000000  0
4.500000  -4.000000  56.000000  0
0.000000  -4.500000  56.000000  0
-0.500000  -4.000000  56.000000  0
4.500000  -4.000000  55.000000  0
-0.500000  -4.000000  55.000000  0
4.500000  -4.000000  54.000000  0
-0.500000  -4.000000  54.000000  0
4.500000  -4.000000  53.000000  0
-0.500000  -4.000000  53.000000  0
4.000000  -4.000000  52.500000  0
3.500000  -4.000000  52.000000  0
-0.500000  -4.000000  52.000000  0
3.000000  -4.000000  51.500000  0
2.500000  -4.000000  51.000000  0
0.500000  -4.000000  51.000000  0
0.000000  -4.000000  51.500000  0
2.000000  -4.500000  50.000000  0
2.000000  -4.000000  50.500000  0
1.000000  -4.000000  50.500000  0
2.000000  -4.500000  49.000000  0
2.000000  -4.500000  48.000000  0
2.500000  -4.000000  47.000000  0
2.000000  -4.000000  47.500000  0
1.500000  -4.000000  47.000000  0
2.500000  -4.000000  46.000000  0
1.500000  -4.000000  46.000000  0
2.500000  -4.000000  45.000000  0
1.500000  -4.000000  45.000000  0
2.500000  -4.000000  44.000000  0
1.500000  -4.000000  44.000000  0
2.000000  -4.500000  43.000000  0
2.000000  -4.000000  43.500000  0
5.000000  -3.500000  59.000000  0
5.000000  -3.500000  58.000000  0
4.500000  -3.000000  58.000000  0
4.000000  -3.000000  58.500000  0
3.000000  -3.000000  58.500000  0
2.000000  -3.000000  58.500000  0
1.000000  -3.000000  58.500000  0
0.000000  -3.000000  58.500000  0
-0.500000  -3.000000  58.000000  0
4.500000  -3.000000  57.000000  0
-0.500000  -3.000000  57.000000  0
4.500000  -3.000000  56.000000  0
-0.500000  -3.000000  56.000000  0
4.500000  -3.000000  55.000000  0
-0.500000  -3.000000  55.000000  0
4.500000  -3.000000  54.000000  0
-0.500000  -3.000000  54.000000  0
4.500000  -3.000000  53.000000  0
-0.500000  -3.000000  53.000000  0
4.000000  -3.000000  52.500000  0
3.500000  -3.000000  52.000000  0
-0.500000  -3.000000  52.000000  0
3.000000  -3.000000  51.500000  0
2.500000  -3.000000  51.000000  0
0.500000  -3.000000  51.000000  0
0.000000  -3.000000  51.500000  0
2.000000  -3.000000  50.500000  0
1.000000  -3.000000  50.500000  0
2.000000  -3.500000  47.000000  0
2.000000  -3.500000  46.000000  0
2.000000  -3.500000  45.000000  0
2.000000  -3.500000  44.000000  0
4.500000  -2.000000  58.000000  0
4.000000  -2.000000  58.500000  0
3.000000  -2.000000  58.500000  0
2.000000  -2.000000  58.500000  0
1.000000  -2.000000  58.500000  0
0.000000  -2.000000  58.500000  0
-0.500000  -2.000000  58.000000  0
4.500000  -2.000000  57.000000  0
-0.500000  -2.000000  57.000000  0
4.500000  -2.000000  56.000000  0
-0.500000  -2.000000  56.000000  0
4.500000  -2.000000  55.000000  0
-0.500000  -2.000000  55.000000  0
4.500000  -2.000000  54.000000  0
-0.500000  -2.000000  54.000000  0
4.500000  -2.000000  53.000000  0
-0.500000  -2.000000  53.000000  0
4.000000  -2.000000  52.500000  0
3.500000  -2.000000  52.000000  0
-0.500000  -2.000000  52.000000  0
3.000000  -2.000000  51.500000  0
2.500000  -2.000000  51.000000  0
0.500000  -2.000000  51.000000  0
0.000000  -2.000000  51.500000  0
2.000000  -2.000000  50.500000  0
1.000000  -2.500000  50.000000  0
1.500000  -2.000000  50.000000  0
0.500000  -2.000000  50.000000  0
1.000000  -2.000000  49.500000  0
4.000000  -1.500000  58.000000  0
3.000000  -1.500000  58.000000  0
2.000000  -1.500000  58.000000  0
1.000000  -1.500000  58.000000  0
0.000000  -1.500000  58.000000  0
4.000000  -1.500000  57.000000  0
3.000000  -1.500000  57.000000  0
2.000000  -1.500000  57.000000  0
1.000000  -1.500000  57.000000  0
0.000000  -1.500000  57.000000  0
4.000000  -1.500000  56.000000  0
3.000000  -1.500000  56.000000  0
2.000000  -1.500000  56.000000  0
1.000000  -1.500000  56.000000  0
0.000000  -1.500000  56.000000  0
4.000000  -1.500000  55.000000  0
3.000000  -1.500000  55.000000  0
2.000000  -1.500000  55.000000  0
1.000000  -1.500000  55.000000  0
0.000000  -1.500000  55.000000  0
4.000000  -1.500000  54.000000  0
3.000000  -1.500000  54.000000  0
2.000000  -1.500000  54.000000  0
1.000000  -1.500000  54.000000  0
0.000000  -1.500000  54.000000  0
4.000000  -1.500000  53.000000  0
3.000000  -1.500000  53.000000  0
2.000000  -1.500000  53.000000  0
1.000000  -1.500000  53.000000  0
0.000000  -1.500000  53.000000  0
3.000000  -1.500000  52.000000  0
2.000000  -1.500000  52.000000  0
1.000000  -1.500000  52.000000  0
0.000000  -1.500000  52.000000  0
2.000000  -1.500000  51.000000  0
1.000000  -1.500000  51.000000  0
1.000000  -1.500000  50.000000  0
2 0 1 0
3 0 2 0
1 0 4 0
0 3 4 0
7 5 6 0
7 8 5 0
9 8 7 0
9 10 8 0
11 10 9 0
11 12 10 0
13 12 11 0
13 14 2 0
12 13 2 0
1 12 2 0
15 2 14 0
3 2 15 0
5 17 6 0
16 17 5 0
18 5 8 0
16 5 18 0
19 8 10 0
18 8 19 0
20 10 12 0
19 10 20 0
21 20 12 0
21 12 1 0
21 1 4 0
3 15 22 0
4 3 22 0
21 4 22 0
16 24 17 0
23 24 16 0
25 16 18 0
23 16 25 0
26 18 19 0
25 18 26 0
27 19 20 0
26 19 27 0
28 20 21 0
27 20 28 0
22 28 21 0
29 28 22 0
23 31 24 0
30 31 23 0
32 23 25 0
30 23 32 0
33 25 26 0
32 25 33 0
34 26 27 0
33 26 34 0
35 27 28 0
34 27 35 0
29 35 28 0
36 35 29 0
30 38 31 0
37 38 30 0
39 30 32 0
37 30 39 0
40 32 33 0
39 32 40 0
41 33 34 0
40 33 41 0
42 34 35 0
41 34 42 0
36 42 35 0
43 42 36 0
37 45 38 0
44 45 37 0
46 37 39 0
44 37 46 0
47 39 40 0
46 39 47 0
48 40 41 0
47 40 48 0
49 41 42 0
48 41 49 0
43 49 42 0
50 49 43 0
44 52 45 0
51 52 44 0
53 44 46 0
51 44 53 0
54 46 47 0
53 46 54 0
55 47 48 0
54 47 55 0
56 48 49 0
55 48 56 0
50 56 49 0
57 56 50 0
51 59 52 0
58 59 51 0
60 51 53 0
58 51 60 0
61 53 54 0
60 53 61 0
62 54 55 0
61 54 62 0
63 55 56 0
62 55 63 0
57 63 56 0
64 63 57 0
58 66 59 0
65 66 58 0
67 58 60 0
65 58 67 0
68 60 61 0
67 60 68 0
69 61 62 0
68 61 69 0
70 62 63 0
69 62 70 0
64 70 63 0
71 70 64 0
65 73 66 0
72 73 65 0
74 65 67 0
72 65 74 0
75 67 68 0
74 67 75 0
76 68 69 0
75 68 76 0
77 69 70 0
76 69 77 0
71 77 70 0
78 77 71 0
73 72 79 0
72 80 79 0
74 80 72 0
74 81 80 0
75 81 74 0
75 82 81 0
76 82 75 0
76 77 83 0
82 76 83 0
84 82 83 0
78 83 77 0
85 83 78 0
83 87 84 0
86 87 83 0
85 86 83 0
88 86 85 0
87 86 89 0
86 88 89 0
91 6 90 0
7 6 91 0
92 7 91 0
9 7 92 0
93 9 92 0
11 9 93 0
94 11 93 0
13 11 94 0
95 13 94 0
14 13 95 0
96 14 95 0
15 14 96 0
6 97 90 0
17 97 6 0
22 96 98 0
15 96 22 0
17 99 97 0
24 99 17 0
29 98 100 0
22 98 29 0
24 101 99 0
31 101 24 0
36 100 102 0
29 100 36 0
31 103 101 0
38 103 31 0
43 102 104 0
36 102 43 0
38 105 103 0
45 105 38 0
50 104 106 0
43 104 50 0
45 107 105 0
52 107 45 0
57 106 108 0
50 106 57 0
52 109 107 0
59 109 52 0
64 108 110 0
57 108 64 0
109 59 66 0
112 109 66 0
111 112 66 0
112 111 113 0
71 110 114 0
64 110 71 0
115 66 73 0
111 66 115 0
111 115 113 0
113 115 116 0
78 114 117 0
71 114 78 0
115 73 79 0
116 118 119 0
116 80 118 0
115 80 116 0
79 80 115 0
120 118 81 0
81 118 80 0
121 120 82 0
82 120 81 0
84 121 82 0
85 117 122 0
78 117 85 0
119 118 123 0
118 124 123 0
120 124 118 0
120 125 124 0
121 125 120 0
84 87 126 0
84 126 125 0
84 125 121 0
88 122 127 0
85 122 88 0
126 89 128 0
87 89 126 0
88 128 89 0
127 128 88 0
131 129 130 0
131 132 129 0
133 132 131 0
133 134 132 0
135 134 133 0
135 136 134 0
137 136 135 0
137 138 136 0
139 138 137 0
140 138 139 0
90 141 130 0
91 90 130 0
129 91 130 0
129 132 91 0
91 132 92 0
132 134 92 0
92 134 93 0
134 136 93 0
93 136 94 0
136 138 94 0
94 138 95 0
140 142 96 0
138 140 96 0
95 138 96 0
90 143 141 0
97 143 90 0
98 142 144 0
96 142 98 0
97 145 143 0
99 145 97 0
100 144 146 0
98 144 100 0
99 147 145 0
101 147 99 0
102 146 148 0
100 146 102 0
101 149 147 0
103 149 101 0
104 148 150 0
102 148 104 0
103 151 149 0
105 151 103 0
106 150 152 0
104 150 106 0
151 105 107 0
154 151 107 0
153 154 107 0
154 153 155 0
108 152 156 0
106 152 108 0
157 107 109 0
153 107 157 0
153 157 155 0
155 157 158 0
110 156 159 0
108 156 110 0
157 109 112 0
113 160 158 0
113 158 157 0
113 157 112 0
114 159 161 0
110 159 114 0
113 162 160 0
116 162 113 0
117 161 163 0
114 161 117 0
116 164 162 0
119 164 116 0
122 163 165 0
117 163 122 0
164 123 166 0
119 123 164 0
166 124 167 0
123 124 166 0
167 125 168 0
124 125 167 0
170 168 125 0
170 125 126 0
170 126 169 0
127 122 165 0
169 127 165 0
170 169 165 0
169 126 128 0
128 127 169 0
172 130 171 0
131 130 172 0
173 131 172 0
133 131 173 0
174 133 173 0
135 133 174 0
175 135 174 0
137 135 175 0
176 137 175 0
139 137 176 0
177 139 176 0
140 139 177 0
130 178 171 0
141 178 130 0
142 177 179 0
140 177 142 0
141 180 178 0
143 180 141 0
144 179 181 0
142 179 144 0
143 182 180 0
145 182 143 0
146 181 183 0
144 181 146 0
145 184 182 0
147 184 145 0
148 183 185 0
146 183 148 0
147 186 184 0
149 186 147 0
150 185 187 0
148 185 150 0
149 188 186 0
151 188 149 0
152 187 189 0
150 187 152 0
188 154 190 0
151 154 188 0
190 154 191 0
191 154 155 0
156 189 192 0
152 189 156 0
155 193 191 0
158 193 155 0
159 192 194 0
156 192 159 0
158 195 193 0
160 195 158 0
161 194 196 0
159 194 161 0
160 197 195 0
162 197 160 0
163 196 198 0
161 196 163 0
197 162 164 0
200 197 164 0
199 200 164 0
200 199 201 0
165 198 202 0
163 198 165 0
199 164 166 0
166 167 203 0
199 166 203 0
201 199 203 0
203 168 204 0
167 168 203 0
204 170 205 0
168 170 204 0
165 205 170 0
202 205 165 0
207 171 206 0
172 171 207 0
208 172 207 0
173 172 208 0
209 173 208 0
174 173 209 0
210 174 209 0
175 174 210 0
211 175 210 0
176 175 211 0
212 176 211 0
177 176 212 0
171 213 206 0
178 213 171 0
179 212 214 0
177 212 179 0
178 215 213 0
180 215 178 0
181 214 216 0
179 214 181 0
180 217 215 0
182 217 180 0
183 216 218 0
181 216 183 0
182 219 217 0
184 219 182 0
185 218 220 0
183 218 185 0
184 221 219 0
186 221 184 0
187 220 222 0
185 220 187 0
186 223 221 0
188 223 186 0
189 222 224 0
187 222 189 0
223 190 225 0
188 190 223 0
225 190 226 0
226 190 191 0
192 224 227 0
189 224 192 0
191 228 226 0
193 228 191 0
194 227 229 0
192 227 194 0
193 230 228 0
195 230 193 0
196 229 231 0
194 229 196 0
195 232 230 0
197 232 195 0
198 231 233 0
196 231 198 0
232 200 234 0
197 200 232 0
234 200 235 0
235 200 201 0
202 233 236 0
198 233 202 0
235 203 237 0
201 203 235 0
237 204 238 0
203 204 237 0
238 205 239 0
204 205 238 0
202 239 205 0
236 239 202 0
241 206 240 0
207 206 241 0
242 207 241 0
208 207 242 0
243 208 242 0
209 208 243 0
244 209 243 0
210 209 244 0
245 210 244 0
211 210 245 0
246 211 245 0
212 211 246 0
206 247 240 0
213 247 206 0
214 246 248 0
212 246 214 0
213 249 247 0
215 249 213 0
216 248 250 0
214 248 216 0
215 251 249 0
217 251 215 0
218 250 252 0
216 250 218 0
217 253 251 0
219 253 217 0
220 252 254 0
218 252 220 0
219 255 253 0
221 255 219 0
222 254 256 0
220 254 222 0
221 257 255 0
223 257 221 0
224 256 258 0
222 256 224 0
257 225 259 0
223 225 257 0
259 225 260 0
260 225 226 0
227 258 261 0
224 258 227 0
226 262 260 0
228 262 226 0
229 261 263 0
227 261 229 0
228 264 262 0
230 264 228 0
231 263 265 0
229 263 231 0
230 266 264 0
232 266 230 0
233 265 267 0
231 265 233 0
266 234 268 0
232 234 266 0
268 234 269 0
269 234 235 0
271 270 272 0
236 233 267 0
270 236 267 0
272 270 267 0
274 269 235 0
273 274 235 0
237 273 235 0
275 273 238 0
238 273 237 0
271 276 270 0
276 239 270 0
276 275 239 0
275 238 239 0
239 236 270 0
274 273 277 0
273 278 277 0
275 278 273 0
275 276 278 0
280 240 279 0
241 240 280 0
281 241 280 0
242 241 281 0
282 242 281 0
243 242 282 0
283 243 282 0
244 243 283 0
284 244 283 0
245 244 284 0
285 245 284 0
246 245 285 0
240 286 279 0
247 286 240 0
248 285 287 0
246 285 248 0
247 288 286 0
249 288 247 0
250 287 289 0
248 287 250 0
249 290 288 0
251 290 249 0
252 289 291 0
250 289 252 0
251 292 290 0
253 292 251 0
254 291 293 0
252 291 254 0
253 294 292 0
255 294 253 0
256 293 295 0
254 293 256 0
294 255 257 0
297 294 257 0
296 297 257 0
297 296 298 0
258 295 299 0
256 295 258 0
296 257 259 0
260 300 298 0
260 298 296 0
260 296 259 0
261 299 301 0
258 299 261 0
260 302 300 0
262 302 260 0
304 303 305 0
263 261 301 0
303 263 301 0
305 303 301 0
262 306 302 0
264 306 262 0
304 308 303 0
303 308 307 0
303 265 263 0
307 265 303 0
306 264 266 0
310 306 266 0
309 310 266 0
310 309 311 0
308 313 307 0
307 313 312 0
307 267 265 0
312 267 307 0
309 266 268 0
269 314 311 0
269 311 309 0
269 309 268 0
313 315 271 0
313 271 272 0
313 272 312 0
272 267 312 0
269 316 314 0
274 316 269 0
276 315 317 0
271 315 276 0
316 277 318 0
274 277 316 0
318 277 278 0
318 278 319 0
318 319 320 0
276 317 321 0
278 276 321 0
319 278 321 0
320 319 322 0
319 321 322 0
325 323 324 0
325 326 323 0
327 326 325 0
328 326 327 0
279 329 324 0
280 279 324 0
323 280 324 0
323 326 280 0
280 326 281 0
330 282 281 0
330 281 326 0
330 326 328 0
331 282 330 0
283 282 331 0
332 283 331 0
284 283 332 0
333 284 332 0
285 284 333 0
279 334 329 0
286 334 279 0
287 333 335 0
285 333 287 0
286 336 334 0
288 336 286 0
289 335 337 0
287 335 289 0
288 338 336 0
290 338 288 0
291 337 339 0
289 337 291 0
290 340 338 0
292 340 290 0
293 339 341 0
291 339 293 0
292 342 340 0
294 342 292 0
295 341 343 0
293 341 295 0
342 297 344 0
294 297 342 0
344 297 345 0
345 297 298 0
299 343 346 0
295 343 299 0
345 298 300 0
348 345 300 0
347 348 300 0
348 347 349 0
301 346 350 0
299 346 301 0
351 300 302 0
347 300 351 0
347 351 349 0
349 351 352 0
353 304 354 0
354 304 305 0
301 354 305 0
350 354 301 0
355 302 306 0
351 302 355 0
351 355 352 0
352 355 356 0
308 353 357 0
304 353 308 0
355 306 310 0
311 358 356 0
311 356 355 0
311 355 310 0
313 357 359 0
308 357 313 0
358 311 314 0
361 358 314 0
360 361 314 0
361 360 362 0
315 313 359 0
315 359 364 0
315 364 363 0
365 363 364 0
366 314 316 0
360 314 366 0
360 366 362 0
362 366 367 0
317 315 368 0
368 315 363 0
365 368 363 0
369 368 365 0
366 316 318 0
320 370 367 0
320 367 366 0
320 366 318 0
321 317 371 0
371 317 368 0
369 371 368 0
372 371 369 0
370 322 373 0
320 322 370 0
374 373 322 0
371 374 322 0
321 371 322 0
371 372 374 0
376 324 375 0
325 324 376 0
377 325 376 0
327 325 377 0
378 327 377 0
328 327 378 0
324 379 375 0
329 379 324 0
380 330 378 0
378 330 328 0
381 330 380 0
331 330 381 0
382 331 381 0
332 331 382 0
383 332 382 0
333 332 383 0
329 384 379 0
334 384 329 0
335 383 385 0
333 383 335 0
334 386 384 0
336 386 334 0
337 385 387 0
335 385 337 0
336 388 386 0
338 388 336 0
339 387 389 0
337 387 339 0
338 390 388 0
340 390 338 0
341 389 391 0
339 389 341 0
340 392 390 0
342 392 340 0
343 391 393 0
341 391 343 0
392 344 394 0
342 344 392 0
394 344 395 0
395 344 345 0
346 393 396 0
343 393 346 0
395 348 397 0
345 348 395 0
397 348 398 0
398 348 349 0
350 396 399 0
346 396 350 0
349 400 398 0
352 400 349 0
401 353 354 0
350 399 402 0
354 350 402 0
401 354 402 0
400 352 356 0
404 400 356 0
403 404 356 0
404 403 405 0
357 353 406 0
406 353 401 0
402 406 401 0
407 406 402 0
408 356 358 0
403 356 408 0
403 408 405 0
405 408 409 0
359 357 410 0
410 357 406 0
407 410 406 0
411 410 407 0
408 358 361 0
362 412 409 0
362 409 408 0
362 408 361 0
364 359 410 0
411 413 365 0
410 411 365 0
364 410 365 0
362 414 412 0
367 414 362 0
369 413 415 0
365 413 369 0
367 416 414 0
370 416 367 0
418 417 419 0
372 369 415 0
417 372 415 0
419 417 415 0
421 416 370 0
420 421 370 0
373 420 370 0
418 422 417 0
422 374 417 0
422 420 374 0
420 373 374 0
374 372 417 0
421 420 423 0
420 422 423 0
425 375 424 0
376 375 425 0
426 376 425 0
377 376 426 0
377 426 428 0
378 377 428 0
427 378 428 0
428 429 427 0
430 429 428 0
431 429 430 0
375 432 424 0
379 432 375 0
380 378 427 0
427 429 380 0
380 429 381 0
433 382 381 0
433 381 429 0
433 429 431 0
434 382 433 0
383 382 434 0
379 435 432 0
384 435 379 0
385 434 436 0
383 434 385 0
384 437 435 0
386 437 384 0
387 436 438 0
385 436 387 0
386 439 437 0
388 439 386 0
389 438 440 0
387 438 389 0
388 441 439 0
390 441 388 0
391 440 442 0
389 440 391 0
390 443 441 0
392 443 390 0
393 442 444 0
391 442 393 0
443 394 445 0
392 394 443 0
447 445 394 0
447 394 395 0
447 395 446 0
447 446 448 0
396 393 444 0
396 444 450 0
396 450 449 0
451 449 450 0
446 395 397 0
446 453 448 0
446 397 453 0
397 452 453 0
398 452 397 0
453 452 454 0
455 399 396 0
455 396 449 0
455 449 456 0
449 451 456 0
457 398 400 0
452 398 457 0
452 457 454 0
454 457 458 0
402 455 459 0
399 455 402 0
457 400 404 0
405 460 458 0
405 458 457 0
405 457 404 0
407 459 461 0
402 459 407 0
405 462 460 0
409 462 405 0
411 461 463 0
407 461 411 0
409 464 462 0
412 464 409 0
413 463 465 0
411 463 413 0
412 466 464 0
414 466 412 0
468 467 469 0
415 413 465 0
467 415 465 0
469 467 465 0
414 470 466 0
416 470 414 0
468 471 418 0
468 418 419 0
468 419 467 0
419 415 467 0
416 472 470 0
421 472 416 0
422 471 473 0
418 471 422 0
475 472 421 0
474 475 421 0
423 474 421 0
422 473 476 0
423 422 476 0
474 423 476 0
474 478 475 0
477 478 474 0
476 477 474 0
479 477 476 0
478 477 480 0
477 479 480 0
482 424 481 0
425 424 482 0
483 425 482 0
426 425 483 0
484 426 483 0
428 426 484 0
430 428 484 0
485 430 484 0
486 485 484 0
430 485 431 0
424 487 481 0
432 487 424 0
488 485 486 0
488 489 433 0
488 433 431 0
488 431 485 0
490 433 489 0
434 433 490 0
432 491 487 0
435 491 432 0
436 490 492 0
434 490 436 0
435 493 491 0
437 493 435 0
438 492 494 0
436 492 438 0
493 437 439 0
496 493 439 0
495 496 439 0
496 495 497 0
440 438 494 0
440 494 499 0
440 499 498 0
500 498 499 0
501 439 441 0
495 439 501 0
495 501 497 0
497 501 502 0
442 440 503 0
503 440 498 0
500 503 498 0
504 503 500 0
505 441 443 0
501 441 505 0
501 505 502 0
502 505 506 0
444 442 507 0
507 442 503 0
504 507 503 0
508 507 504 0
505 443 445 0
445 447 509 0
505 445 509 0
506 505 509 0
509 447 510 0
510 447 448 0
450 444 507 0
508 511 451 0
507 508 451 0
450 507 451 0
510 453 512 0
448 453 510 0
512 453 513 0
513 453 454 0
514 455 515 0
515 455 456 0
451 515 456 0
511 515 451 0
454 516 513 0
458 516 454 0
518 517 519 0
459 455 514 0
517 459 514 0
519 517 514 0
458 520 516 0
460 520 458 0
518 522 517 0
517 522 521 0
517 461 459 0
521 461 517 0
460 523 520 0
462 523 460 0
522 525 521 0
521 525 524 0
521 463 461 0
524 463 521 0
462 526 523 0
464 526 462 0
525 528 524 0
524 528 527 0
524 465 463 0
527 465 524 0
464 529 526 0
466 529 464 0
528 530 468 0
528 468 469 0
528 469 527 0
469 465 527 0
466 531 529 0
470 531 466 0
471 530 532 0
468 530 471 0
470 533 531 0
472 533 470 0
473 532 534 0
471 532 473 0
472 535 533 0
475 535 472 0
476 534 536 0
473 534 476 0
535 475 478 0
538 535 478 0
537 538 478 0
479 476 536 0
537 479 536 0
538 537 536 0
537 478 480 0
480 479 537 0
540 481 539 0
482 481 540 0
483 482 540 0
541 483 540 0
542 541 540 0
484 541 543 0
483 541 484 0
484 543 486 0
481 544 539 0
487 544 481 0
545 541 542 0
545 546 541 0
541 546 543 0
546 547 488 0
546 488 486 0
546 486 543 0
548 488 547 0
489 488 548 0
489 548 550 0
490 489 550 0
549 490 550 0
551 549 550 0
544 487 491 0
553 544 491 0
552 553 491 0
553 552 554 0
492 490 555 0
555 490 549 0
551 555 549 0
556 555 551 0
557 491 493 0
552 491 557 0
552 557 554 0
554 557 558 0
494 492 559 0
559 492 555 0
556 559 555 0
560 559 556 0
557 493 496 0
497 561 558 0
497 558 557 0
497 557 496 0
499 494 559 0
560 562 500 0
559 560 500 0
499 559 500 0
497 563 561 0
502 563 497 0
504 562 564 0
500 562 504 0
502 565 563 0
506 565 502 0
508 564 566 0
504 564 508 0
565 509 567 0
506 509 565 0
567 509 568 0
568 509 510 0
511 566 569 0
508 566 511 0
568 512 570 0
510 512 568 0
570 512 571 0
571 512 513 0
572 514 573 0
573 514 515 0
511 573 515 0
569 573 511 0
571 513 516 0
575 571 516 0
574 575 516 0
519 576 575 0
519 575 574 0
519 574 518 0
514 576 519 0
572 576 514 0
577 516 520 0
574 516 577 0
574 522 518 0
577 522 574 0
578 520 523 0
577 520 578 0
577 525 522 0
578 525 577 0
523 526 579 0
578 523 579 0
580 578 579 0
581 528 525 0
580 581 525 0
578 580 525 0
526 582 579 0
529 582 526 0
530 581 583 0
528 581 530 0
529 584 582 0
531 584 529 0
532 583 585 0
530 583 532 0
531 586 584 0
533 586 531 0
534 585 587 0
532 585 534 0
586 533 535 0
589 586 535 0
588 589 535 0
536 534 587 0
588 536 587 0
589 588 587 0
588 535 538 0
538 536 588 0
540 539 590 0
540 590 542 0
591 539 544 0
590 539 591 0
591 542 590 0
591 545 542 0
592 545 591 0
593 545 592 0
594 545 593 0
546 545 594 0
595 546 594 0
547 546 595 0
596 547 595 0
548 547 596 0
597 548 596 0
550 548 597 0
598 550 597 0
551 550 598 0
591 544 553 0
554 599 592 0
554 592 591 0
554 591 553 0
556 598 600 0
551 598 556 0
554 601 599 0
558 601 554 0
560 600 602 0
556 600 560 0
558 603 601 0
561 603 558 0
562 602 604 0
560 602 562 0
561 605 603 0
563 605 561 0
564 604 606 0
562 604 564 0
563 607 605 0
565 607 563 0
566 606 608 0
564 606 566 0
607 567 609 0
565 567 607 0
609 567 610 0
610 567 568 0
569 608 611 0
566 608 569 0
610 570 612 0
568 570 610 0
612 570 613 0
613 570 571 0
614 572 615 0
615 572 573 0
569 615 573 0
611 615 569 0
613 575 616 0
571 575 613 0
616 576 617 0
575 576 616 0
572 617 576 0
614 617 572 0
580 579 618 0
580 618 581 0
619 579 582 0
618 579 619 0
618 583 581 0
619 583 618 0
620 582 584 0
619 582 620 0
619 585 583 0
620 585 619 0
621 584 586 0
620 584 621 0
620 587 585 0
621 587 620 0
621 586 589 0
589 587 621 0
623 592 622 0
593 592 623 0
624 593 623 0
594 593 624 0
625 594 624 0
595 594 625 0
626 595 625 0
596 595 626 0
627 596 626 0
597 596 627 0
628 597 627 0
598 597 628 0
592 629 622 0
599 629 592 0
600 628 630 0
598 628 600 0
599 631 629 0
601 631 599 0
602 630 632 0
600 630 602 0
601 633 631 0
603 633 601 0
604 632 634 0
602 632 604 0
603 635 633 0
605 635 603 0
606 634 636 0
604 634 606 0
605 637 635 0
607 637 605 0
608 636 638 0
606 636 608 0
637 609 639 0
607 609 637 0
639 609 640 0
640 609 610 0
611 638 641 0
608 638 611 0
640 612 642 0
610 612 640 0
642 612 643 0
643 612 613 0
644 614 645 0
645 614 615 0
611 645 615 0
641 645 611 0
643 616 646 0
613 616 643 0
646 616 617 0
646 617 647 0
646 647 648 0
614 644 649 0
617 614 649 0
647 617 649 0
648 647 650 0
647 649 650 0
623 622 651 0
624 651 652 0
623 651 624 0
625 652 653 0
624 652 625 0
626 653 654 0
625 653 626 0
627 654 655 0
626 654 627 0
627 655 628 0
656 622 629 0
651 622 656 0
656 652 651 0
657 652 656 0
657 653 652 0
658 653 657 0
658 654 653 0
659 654 658 0
659 655 654 0
660 655 659 0
655 630 628 0
660 630 655 0
661 629 631 0
656 629 661 0
661 657 656 0
662 657 661 0
662 658 657 0
663 658 662 0
663 659 658 0
664 659 663 0
664 660 659 0
665 660 664 0
660 632 630 0
665 632 660 0
666 631 633 0
661 631 666 0
666 662 661 0
667 662 666 0
667 663 662 0
668 663 667 0
668 664 663 0
669 664 668 0
669 665 664 0
670 665 669 0
665 634 632 0
670 634 665 0
671 633 635 0
666 633 671 0
671 667 666 0
672 667 671 0
672 668 667 0
673 668 672 0
673 669 668 0
674 669 673 0
674 670 669 0
675 670 674 0
670 636 634 0
675 636 670 0
676 635 637 0
671 635 676 0
676 672 671 0
677 672 676 0
677 673 672 0
678 673 677 0
678 674 673 0
679 674 678 0
679 675 674 0
680 675 679 0
675 638 636 0
680 638 675 0
676 637 639 0
681 677 676 0
640 681 676 0
639 640 676 0
681 678 677 0
682 678 681 0
682 679 678 0
683 679 682 0
683 680 679 0
684 680 683 0
680 641 638 0
684 641 680 0
681 640 642 0
685 682 681 0
643 685 681 0
642 643 681 0
685 683 682 0
686 683 685 0
684 683 686 0
645 684 686 0
644 645 686 0
645 641 684 0
685 643 646 0
687 686 685 0
648 687 685 0
646 648 685 0
686 649 644 0
687 649 686 0
687 648 650 0
650 649 687 0
