#!ascii version of
880 1756
0.000000  -1.500000  53.000000  0
-0.500000  -1.000000  53.000000  0
4.000000  -1.000000  52.500000  0
3.000000  -1.500000  52.000000  0
3.500000  -1.000000  52.000000  0
2.000000  -1.500000  52.000000  0
1.000000  -1.500000  52.000000  0
0.000000  -1.500000  52.000000  0
-0.500000  -1.000000  52.000000  0
3.000000  -1.000000  51.500000  0
2.000000  -1.500000  51.000000  0
2.500000  -1.000000  51.000000  0
1.000000  -1.500000  51.000000  0
0.500000  -1.000000  51.000000  0
0.000000  -1.000000  51.500000  0
2.000000  -1.000000  50.500000  0
1.000000  -1.500000  50.000000  0
1.500000  -1.000000  50.000000  0
0.500000  -1.000000  50.000000  0
1.000000  -1.000000  49.500000  0
4.000000  -0.500000  58.000000  0
3.000000  -0.500000  58.000000  0
2.000000  -0.500000  58.000000  0
1.500000  0.000000  58.000000  0
1.000000  0.000000  58.500000  0
0.000000  0.000000  58.500000  0
-0.500000  0.000000  58.000000  0
4.500000  0.000000  57.000000  0
4.000000  0.000000  57.500000  0
3.000000  0.000000  57.500000  0
2.000000  0.000000  57.500000  0
-0.500000  0.000000  57.000000  0
4.500000  0.000000  56.000000  0
-0.500000  0.000000  56.000000  0
4.500000  0.000000  55.000000  0
-0.500000  0.000000  55.000000  0
4.500000  0.000000  54.000000  0
-0.500000  0.000000  54.000000  0
4.500000  0.000000  53.000000  0
-0.500000  0.000000  53.000000  0
4.000000  -0.500000  52.000000  0
4.500000  0.000000  52.000000  0
-0.500000  0.000000  52.000000  0
4.000000  0.000000  51.500000  0
3.000000  0.000000  51.500000  0
2.500000  0.000000  51.000000  0
0.000000  -0.500000  51.000000  0
-0.500000  0.000000  51.000000  0
2.000000  0.000000  50.500000  0
1.500000  0.000000  50.000000  0
0.500000  0.000000  50.000000  0
0.000000  0.000000  50.500000  0
1.000000  0.000000  49.500000  0
1.500000  1.000000  58.000000  0
1.000000  1.000000  58.500000  0
0.000000  1.000000  58.500000  0
-0.500000  1.000000  58.000000  0
4.500000  1.000000  57.000000  0
4.000000  1.000000  57.500000  0
3.000000  1.000000  57.500000  0
2.000000  1.000000  57.500000  0
-0.500000  1.000000  57.000000  0
4.500000  1.000000  56.000000  0
-0.500000  1.000000  56.000000  0
4.500000  1.000000  55.000000  0
-0.500000  1.000000  55.000000  0
4.500000  1.000000  54.000000  0
-0.500000  1.000000  54.000000  0
4.500000  1.000000  53.000000  0
-0.500000  1.000000  53.000000  0
4.500000  1.000000  52.000000  0
-0.500000  1.000000  52.000000  0
4.000000  1.000000  51.500000  0
3.000000  1.000000  51.500000  0
2.500000  1.000000  51.000000  0
-0.500000  1.000000  51.000000  0
2.000000  1.000000  50.500000  0
1.500000  1.000000  50.000000  0
0.000000  0.500000  50.000000  0
-0.500000  1.000000  50.000000  0
1.000000  1.000000  49.500000  0
0.000000  1.000000  49.500000  0
1.500000  2.000000  58.000000  0
1.000000  2.000000  58.500000  0
0.000000  2.000000  58.500000  0
-0.500000  2.000000  58.000000  0
4.500000  2.000000  57.000000  0
4.000000  2.000000  57.500000  0
3.000000  2.000000  57.500000  0
2.000000  2.000000  57.500000  0
-0.500000  2.000000  57.000000  0
4.500000  2.000000  56.000000  0
-0.500000  2.000000  56.000000  0
4.500000  2.000000  55.000000  0
-0.500000  2.000000  55.000000  0
4.500000  2.000000  54.000000  0
-0.500000  2.000000  54.000000  0
4.500000  2.000000  53.000000  0
-0.500000  2.000000  53.000000  0
4.500000  2.000000  52.000000  0
-0.500000  2.000000  52.000000  0
4.000000  2.000000  51.500000  0
3.000000  1.500000  51.000000  0
3.500000  2.000000  51.000000  0
-0.500000  2.000000  51.000000  0
3.000000  2.000000  50.500000  0
2.000000  2.000000  50.500000  0
1.500000  2.000000  50.000000  0
-0.500000  2.000000  50.000000  0
1.000000  2.000000  49.500000  0
0.000000  2.000000  49.500000  0
4.000000  2.500000  58.000000  0
4.500000  3.000000  58.000000  0
4.000000  3.000000  58.500000  0
3.000000  2.500000  58.000000  0
3.000000  3.000000  58.500000  0
2.000000  2.500000  58.000000  0
2.000000  3.000000  58.500000  0
1.000000  3.000000  58.500000  0
0.000000  3.000000  58.500000  0
-0.500000  3.000000  58.000000  0
4.500000  3.000000  57.000000  0
-0.500000  3.000000  57.000000  0
4.500000  3.000000  56.000000  0
-0.500000  3.000000  56.000000  0
4.500000  3.000000  55.000000  0
-0.500000  3.000000  55.000000  0
4.500000  3.000000  54.000000  0
-0.500000  3.000000  54.000000  0
4.500000  3.000000  53.000000  0
-0.500000  3.000000  53.000000  0
4.500000  3.000000  52.000000  0
-0.500000  3.000000  52.000000  0
4.000000  3.000000  51.500000  0
3.500000  3.000000  51.000000  0
-0.500000  3.000000  51.000000  0
3.000000  3.000000  50.500000  0
2.000000  2.500000  50.000000  0
2.500000  3.000000  50.000000  0
-0.500000  3.000000  50.000000  0
2.000000  3.000000  49.500000  0
1.000000  2.500000  49.000000  0
1.500000  3.000000  49.000000  0
0.000000  2.500000  49.000000  0
-0.500000  3.000000  49.000000  0
1.000000  3.000000  48.500000  0
0.000000  3.000000  48.500000  0
4.500000  4.000000  58.000000  0
4.000000  4.000000  58.500000  0
3.000000  4.000000  58.500000  0
2.000000  4.000000  58.500000  0
1.000000  4.000000  58.500000  0
0.000000  4.000000  58.500000  0
-0.500000  4.000000  58.000000  0
4.500000  4.000000  57.000000  0
-0.500000  4.000000  57.000000  0
4.500000  4.000000  56.000000  0
-0.500000  4.000000  56.000000  0
4.500000  4.000000  55.000000  0
-0.500000  4.000000  55.000000  0
4.500000  4.000000  54.000000  0
-0.500000  4.000000  54.000000  0
4.500000  4.000000  53.000000  0
-0.500000  4.000000  53.000000  0
4.500000  4.000000  52.000000  0
-0.500000  4.000000  52.000000  0
4.000000  4.000000  51.500000  0
3.500000  4.000000  51.000000  0
-0.500000  4.000000  51.000000  0
3.000000  4.000000  50.500000  0
2.500000  4.000000  50.000000  0
-0.500000  4.000000  50.000000  0
2.000000  4.000000  49.500000  0
1.500000  4.000000  49.000000  0
-0.500000  4.000000  49.000000  0
1.000000  4.000000  48.500000  0
0.000000  4.000000  48.500000  0
4.000000  4.500000  58.000000  0
3.500000  5.000000  58.000000  0
3.000000  5.000000  58.500000  0
2.000000  5.000000  58.500000  0
1.000000  4.500000  58.000000  0
1.500000  5.000000  58.000000  0
0.000000  4.500000  58.000000  0
4.500000  5.000000  57.000000  0
4.000000  5.000000  57.500000  0
1.000000  5.000000  57.500000  0
0.000000  5.000000  57.500000  0
-0.500000  5.000000  57.000000  0
4.500000  5.000000  56.000000  0
-0.500000  5.000000  56.000000  0
4.500000  5.000000  55.000000  0
-0.500000  5.000000  55.000000  0
4.500000  5.000000  54.000000  0
-0.500000  5.000000  54.000000  0
4.500000  5.000000  53.000000  0
-0.500000  5.000000  53.000000  0
4.500000  5.000000  52.000000  0
-0.500000  5.000000  52.000000  0
4.000000  4.500000  51.000000  0
4.500000  5.000000  51.000000  0
-0.500000  5.000000  51.000000  0
4.000000  5.000000  50.500000  0
3.000000  5.000000  50.500000  0
2.500000  5.000000  50.000000  0
-0.500000  5.000000  50.000000  0
2.000000  5.000000  49.500000  0
1.500000  5.000000  49.000000  0
-0.500000  5.000000  49.000000  0
1.000000  5.000000  48.500000  0
0.000000  5.000000  48.500000  0
3.500000  6.000000  58.000000  0
3.000000  6.000000  58.500000  0
2.000000  5.500000  58.000000  0
2.500000  6.000000  58.000000  0
4.500000  6.000000  57.000000  0
4.000000  6.000000  57.500000  0
2.000000  6.000000  57.500000  0
1.000000  6.000000  57.500000  0
0.000000  6.000000  57.500000  0
-0.500000  6.000000  57.000000  0
4.500000  6.000000  56.000000  0
-0.500000  6.000000  56.000000  0
4.500000  6.000000  55.000000  0
-0.500000  6.000000  55.000000  0
4.500000  6.000000  54.000000  0
-0.500000  6.000000  54.000000  0
4.500000  6.000000  53.000000  0
-0.500000  6.000000  53.000000  0
4.500000  6.000000  52.000000  0
-0.500000  6.000000  52.000000  0
4.500000  6.000000  51.000000  0
-0.500000  6.000000  51.000000  0
4.000000  6.000000  50.500000  0
3.000000  6.000000  50.500000  0
2.500000  6.000000  50.000000  0
-0.500000  6.000000  50.000000  0
2.000000  6.000000  49.500000  0
1.500000  6.000000  49.000000  0
-0.500000  6.000000  49.000000  0
1.000000  5.500000  48.000000  0
1.500000  6.000000  48.000000  0
0.000000  5.500000  48.000000  0
-0.500000  6.000000  48.000000  0
1.000000  6.000000  47.500000  0
0.000000  6.000000  47.500000  0
3.500000  7.000000  58.000000  0
3.000000  7.000000  58.500000  0
2.500000  7.000000  58.000000  0
4.500000  7.000000  57.000000  0
4.000000  7.000000  57.500000  0
2.000000  7.000000  57.500000  0
1.000000  7.000000  57.500000  0
0.000000  7.000000  57.500000  0
-0.500000  7.000000  57.000000  0
4.500000  7.000000  56.000000  0
-0.500000  7.000000  56.000000  0
4.500000  7.000000  55.000000  0
-0.500000  7.000000  55.000000  0
4.500000  7.000000  54.000000  0
-0.500000  7.000000  54.000000  0
4.500000  7.000000  53.000000  0
-0.500000  7.000000  53.000000  0
4.500000  7.000000  52.000000  0
-0.500000  7.000000  52.000000  0
4.500000  7.000000  51.000000  0
-0.500000  7.000000  51.000000  0
4.000000  7.000000  50.500000  0
3.000000  6.500000  50.000000  0
3.500000  7.000000  50.000000  0
-0.500000  7.000000  50.000000  0
3.000000  7.000000  49.500000  0
2.000000  6.500000  49.000000  0
2.500000  7.000000  49.000000  0
-0.500000  7.000000  49.000000  0
2.000000  7.000000  48.500000  0
1.500000  7.000000  48.000000  0
-0.500000  7.000000  48.000000  0
1.000000  7.000000  47.500000  0
0.000000  7.000000  47.500000  0
4.000000  7.500000  58.000000  0
4.500000  8.000000  58.000000  0
4.000000  8.000000  58.500000  0
3.000000  8.000000  58.500000  0
2.500000  8.000000  58.000000  0
4.500000  8.000000  57.000000  0
2.000000  8.000000  57.500000  0
1.000000  8.000000  57.500000  0
0.000000  8.000000  57.500000  0
-0.500000  8.000000  57.000000  0
4.500000  8.000000  56.000000  0
-0.500000  8.000000  56.000000  0
4.500000  8.000000  55.000000  0
-0.500000  8.000000  55.000000  0
4.500000  8.000000  54.000000  0
-0.500000  8.000000  54.000000  0
4.500000  8.000000  53.000000  0
-0.500000  8.000000  53.000000  0
4.500000  8.000000  52.000000  0
-0.500000  8.000000  52.000000  0
4.500000  8.000000  51.000000  0
-0.500000  8.000000  51.000000  0
4.000000  8.000000  50.500000  0
3.500000  8.000000  50.000000  0
-0.500000  8.000000  50.000000  0
3.000000  8.000000  49.500000  0
2.500000  8.000000  49.000000  0
-0.500000  8.000000  49.000000  0
2.000000  8.000000  48.500000  0
1.500000  8.000000  48.000000  0
-0.500000  8.000000  48.000000  0
1.000000  7.500000  47.000000  0
1.500000  8.000000  47.000000  0
0.500000  8.000000  47.000000  0
0.000000  8.000000  47.500000  0
1.000000  7.500000  46.000000  0
1.500000  8.000000  46.000000  0
0.500000  8.000000  46.000000  0
1.000000  7.500000  45.000000  0
1.500000  8.000000  45.000000  0
0.500000  8.000000  45.000000  0
1.000000  7.500000  44.000000  0
1.500000  8.000000  44.000000  0
0.500000  8.000000  44.000000  0
1.000000  7.500000  43.000000  0
1.500000  8.000000  43.000000  0
0.000000  7.500000  43.000000  0
0.000000  8.000000  43.500000  0
-0.500000  8.000000  43.000000  0
1.000000  8.000000  42.500000  0
0.000000  8.000000  42.500000  0
4.000000  8.500000  58.000000  0
3.000000  8.500000  58.000000  0
4.500000  9.000000  57.000000  0
4.000000  9.000000  57.500000  0
3.000000  9.000000  57.500000  0
2.000000  9.000000  57.500000  0
1.000000  8.500000  57.000000  0
1.500000  9.000000  57.000000  0
0.000000  8.500000  57.000000  0
4.500000  9.000000  56.000000  0
1.000000  9.000000  56.500000  0
0.000000  9.000000  56.500000  0
-0.500000  9.000000  56.000000  0
4.500000  9.000000  55.000000  0
-0.500000  9.000000  55.000000  0
4.500000  9.000000  54.000000  0
-0.500000  9.000000  54.000000  0
4.500000  9.000000  53.000000  0
-0.500000  9.000000  53.000000  0
4.500000  9.000000  52.000000  0
-0.500000  9.000000  52.000000  0
4.500000  9.000000  51.000000  0
-0.500000  9.000000  51.000000  0
4.000000  8.500000  50.000000  0
4.500000  9.000000  50.000000  0
-0.500000  9.000000  50.000000  0
4.000000  9.000000  49.500000  0
3.000000  8.500000  49.000000  0
3.500000  9.000000  49.000000  0
-0.500000  9.000000  49.000000  0
3.000000  9.000000  48.500000  0
2.000000  9.000000  48.500000  0
1.500000  9.000000  48.000000  0
-0.500000  9.000000  48.000000  0
1.500000  9.000000  47.000000  0
0.500000  9.000000  47.000000  0
0.000000  9.000000  47.500000  0
1.500000  9.000000  46.000000  0
0.500000  9.000000  46.000000  0
1.500000  9.000000  45.000000  0
0.500000  9.000000  45.000000  0
1.500000  9.000000  44.000000  0
0.500000  9.000000  44.000000  0
1.500000  9.000000  43.000000  0
0.000000  8.500000  43.000000  0
0.500000  9.000000  43.000000  0
1.000000  9.000000  42.500000  0
0.000000  8.500000  36.000000  0
0.500000  9.000000  36.000000  0
0.000000  9.000000  36.500000  0
-1.000000  8.500000  36.000000  0
-1.000000  9.000000  36.500000  0
-1.500000  9.000000  36.000000  0
0.000000  8.500000  35.000000  0
0.500000  9.000000  35.000000  0
-1.000000  8.500000  35.000000  0
-1.500000  9.000000  35.000000  0
0.000000  9.000000  34.500000  0
-1.000000  8.500000  34.000000  0
-0.500000  9.000000  34.000000  0
-1.500000  9.000000  34.000000  0
-1.000000  9.000000  33.500000  0
4.500000  10.000000  57.000000  0
4.000000  10.000000  57.500000  0
3.000000  10.000000  57.500000  0
2.000000  10.000000  57.500000  0
1.500000  10.000000  57.000000  0
4.500000  10.000000  56.000000  0
1.000000  10.000000  56.500000  0
0.000000  10.000000  56.500000  0
-0.500000  10.000000  56.000000  0
4.500000  10.000000  55.000000  0
-0.500000  10.000000  55.000000  0
4.500000  10.000000  54.000000  0
-0.500000  10.000000  54.000000  0
4.500000  10.000000  53.000000  0
-0.500000  10.000000  53.000000  0
4.500000  10.000000  52.000000  0
-0.500000  10.000000  52.000000  0
4.500000  10.000000  51.000000  0
-0.500000  10.000000  51.000000  0
4.500000  10.000000  50.000000  0
-0.500000  10.000000  50.000000  0
4.000000  9.500000  49.000000  0
4.500000  10.000000  49.000000  0
-0.500000  10.000000  49.000000  0
4.000000  10.000000  48.500000  0
3.000000  10.000000  48.500000  0
2.000000  9.500000  48.000000  0
2.500000  10.000000  48.000000  0
-1.000000  9.500000  48.000000  0
-1.000000  10.000000  48.500000  0
-1.500000  10.000000  48.000000  0
2.000000  9.500000  47.000000  0
2.500000  10.000000  47.000000  0
0.000000  9.500000  47.000000  0
-0.500000  10.000000  47.000000  0
-1.000000  10.000000  47.500000  0
2.000000  10.000000  46.500000  0
1.500000  10.000000  46.000000  0
0.000000  9.500000  46.000000  0
-0.500000  10.000000  46.000000  0
1.500000  10.000000  45.000000  0
0.500000  10.000000  45.000000  0
0.000000  10.000000  45.500000  0
1.500000  10.000000  44.000000  0
0.500000  10.000000  44.000000  0
1.000000  9.500000  43.000000  0
1.000000  10.000000  43.500000  0
1.000000  9.500000  38.000000  0
1.500000  10.000000  38.000000  0
1.000000  10.000000  38.500000  0
0.000000  9.500000  38.000000  0
0.000000  10.000000  38.500000  0
-0.500000  10.000000  38.000000  0
2.000000  9.500000  37.000000  0
2.500000  10.000000  37.000000  0
2.000000  10.000000  37.500000  0
1.000000  9.500000  37.000000  0
0.000000  9.500000  37.000000  0
-1.000000  9.500000  37.000000  0
-1.000000  10.000000  37.500000  0
-1.500000  10.000000  37.000000  0
2.000000  9.500000  36.000000  0
2.500000  10.000000  36.000000  0
1.000000  9.500000  36.000000  0
-1.500000  10.000000  36.000000  0
3.000000  9.500000  35.000000  0
3.500000  10.000000  35.000000  0
3.000000  10.000000  35.500000  0
2.000000  9.500000  35.000000  0
1.000000  9.500000  35.000000  0
-1.500000  10.000000  35.000000  0
3.000000  9.500000  34.000000  0
3.500000  10.000000  34.000000  0
2.500000  10.000000  34.000000  0
2.000000  10.000000  34.500000  0
1.000000  10.000000  34.500000  0
0.000000  10.000000  34.500000  0
-0.500000  10.000000  34.000000  0
-1.500000  10.000000  34.000000  0
3.000000  10.000000  33.500000  0
-1.000000  10.000000  33.500000  0
4.000000  10.500000  57.000000  0
3.000000  10.500000  57.000000  0
2.000000  10.500000  57.000000  0
4.500000  11.000000  56.000000  0
4.000000  11.000000  56.500000  0
3.000000  11.000000  56.500000  0
2.000000  11.000000  56.500000  0
1.000000  11.000000  56.500000  0
0.000000  10.500000  56.000000  0
0.500000  11.000000  56.000000  0
4.500000  11.000000  55.000000  0
0.000000  11.000000  55.500000  0
-0.500000  11.000000  55.000000  0
4.500000  11.000000  54.000000  0
-0.500000  11.000000  54.000000  0
4.500000  11.000000  53.000000  0
-0.500000  11.000000  53.000000  0
4.500000  11.000000  52.000000  0
-0.500000  11.000000  52.000000  0
4.000000  10.500000  51.000000  0
4.000000  11.000000  51.500000  0
3.500000  11.000000  51.000000  0
-1.000000  10.500000  51.000000  0
-1.000000  11.000000  51.500000  0
-1.500000  11.000000  51.000000  0
4.000000  10.500000  50.000000  0
3.500000  11.000000  50.000000  0
-1.000000  10.500000  50.000000  0
-1.500000  11.000000  50.000000  0
4.000000  10.500000  49.000000  0
3.500000  11.000000  49.000000  0
-1.000000  10.500000  49.000000  0
-1.500000  11.000000  49.000000  0
3.000000  10.500000  48.000000  0
3.500000  11.000000  48.000000  0
-1.500000  11.000000  48.000000  0
3.000000  11.000000  47.500000  0
2.500000  11.000000  47.000000  0
-0.500000  11.000000  47.000000  0
-1.000000  11.000000  47.500000  0
2.000000  11.000000  46.500000  0
1.500000  11.000000  46.000000  0
-0.500000  11.000000  46.000000  0
1.500000  11.000000  45.000000  0
0.500000  11.000000  45.000000  0
0.000000  11.000000  45.500000  0
1.500000  11.000000  44.000000  0
0.500000  11.000000  44.000000  0
1.000000  11.000000  43.500000  0
1.000000  10.500000  40.000000  0
1.500000  11.000000  40.000000  0
1.000000  11.000000  40.500000  0
0.000000  10.500000  40.000000  0
0.000000  11.000000  40.500000  0
-0.500000  11.000000  40.000000  0
1.000000  10.500000  39.000000  0
1.500000  11.000000  39.000000  0
0.000000  10.500000  39.000000  0
-0.500000  11.000000  39.000000  0
1.500000  11.000000  38.000000  0
-0.500000  11.000000  38.000000  0
2.500000  11.000000  37.000000  0
2.000000  11.000000  37.500000  0
-1.000000  11.000000  37.500000  0
-1.500000  11.000000  37.000000  0
3.000000  10.500000  36.000000  0
3.500000  11.000000  36.000000  0
3.000000  11.000000  36.500000  0
-1.500000  11.000000  36.000000  0
3.500000  11.000000  35.000000  0
-1.500000  11.000000  35.000000  0
3.500000  11.000000  34.000000  0
2.500000  11.000000  34.000000  0
2.000000  11.000000  34.500000  0
1.000000  11.000000  34.500000  0
0.000000  11.000000  34.500000  0
-0.500000  11.000000  34.000000  0
-1.500000  11.000000  34.000000  0
3.000000  11.000000  33.500000  0
-1.000000  11.000000  33.500000  0
4.500000  12.000000  56.000000  0
4.000000  12.000000  56.500000  0
3.000000  12.000000  56.500000  0
2.000000  11.500000  56.000000  0
2.500000  12.000000  56.000000  0
1.000000  11.500000  56.000000  0
4.500000  12.000000  55.000000  0
2.000000  12.000000  55.500000  0
1.000000  12.000000  55.500000  0
0.000000  12.000000  55.500000  0
-0.500000  12.000000  55.000000  0
4.500000  12.000000  54.000000  0
-1.000000  11.500000  54.000000  0
-1.000000  12.000000  54.500000  0
-1.500000  12.000000  54.000000  0
4.000000  11.500000  53.000000  0
4.000000  12.000000  53.500000  0
3.500000  12.000000  53.000000  0
-1.000000  11.500000  53.000000  0
-1.500000  12.000000  53.000000  0
4.000000  11.500000  52.000000  0
3.500000  12.000000  52.000000  0
-1.000000  11.500000  52.000000  0
-1.500000  12.000000  52.000000  0
3.500000  12.000000  51.000000  0
-1.500000  12.000000  51.000000  0
3.500000  12.000000  50.000000  0
-1.500000  12.000000  50.000000  0
3.500000  12.000000  49.000000  0
-1.500000  12.000000  49.000000  0
3.500000  12.000000  48.000000  0
-1.500000  12.000000  48.000000  0
3.000000  11.500000  47.000000  0
3.500000  12.000000  47.000000  0
-1.000000  11.500000  47.000000  0
-1.500000  12.000000  47.000000  0
3.000000  12.000000  46.500000  0
2.000000  12.000000  46.500000  0
1.500000  12.000000  46.000000  0
-0.500000  12.000000  46.000000  0
-1.000000  12.000000  46.500000  0
1.500000  12.000000  45.000000  0
0.000000  11.500000  45.000000  0
-0.500000  12.000000  45.000000  0
1.500000  12.000000  44.000000  0
0.500000  12.000000  44.000000  0
0.000000  12.000000  44.500000  0
1.000000  12.000000  43.500000  0
1.500000  12.000000  40.000000  0
1.000000  12.000000  40.500000  0
0.000000  12.000000  40.500000  0
-0.500000  12.000000  40.000000  0
1.500000  12.000000  39.000000  0
-0.500000  12.000000  39.000000  0
2.000000  11.500000  38.000000  0
2.500000  12.000000  38.000000  0
2.000000  12.000000  38.500000  0
-1.000000  11.500000  38.000000  0
-1.000000  12.000000  38.500000  0
-1.500000  12.000000  38.000000  0
2.500000  12.000000  37.000000  0
-1.500000  12.000000  37.000000  0
3.500000  12.000000  36.000000  0
3.000000  12.000000  36.500000  0
-1.500000  12.000000  36.000000  0
3.500000  12.000000  35.000000  0
-1.500000  12.000000  35.000000  0
3.500000  12.000000  34.000000  0
2.500000  12.000000  34.000000  0
2.000000  12.000000  34.500000  0
1.000000  12.000000  34.500000  0
0.000000  12.000000  34.500000  0
-0.500000  12.000000  34.000000  0
-1.500000  12.000000  34.000000  0
3.000000  12.000000  33.500000  0
-1.000000  12.000000  33.500000  0
4.000000  12.500000  56.000000  0
3.000000  12.500000  56.000000  0
4.000000  12.500000  55.000000  0
3.000000  12.500000  55.000000  0
2.000000  12.500000  55.000000  0
1.000000  12.500000  55.000000  0
0.000000  12.500000  55.000000  0
4.000000  12.500000  54.000000  0
3.500000  13.000000  54.000000  0
3.000000  13.000000  54.500000  0
2.000000  13.000000  54.500000  0
1.000000  13.000000  54.500000  0
0.000000  13.000000  54.500000  0
-1.000000  13.000000  54.500000  0
-1.500000  13.000000  54.000000  0
3.500000  13.000000  53.000000  0
-1.500000  13.000000  53.000000  0
3.500000  13.000000  52.000000  0
-1.500000  13.000000  52.000000  0
3.500000  13.000000  51.000000  0
-1.500000  13.000000  51.000000  0
3.500000  13.000000  50.000000  0
-1.500000  13.000000  50.000000  0
3.500000  13.000000  49.000000  0
-1.500000  13.000000  49.000000  0
3.500000  13.000000  48.000000  0
-1.500000  13.000000  48.000000  0
3.500000  13.000000  47.000000  0
-1.500000  13.000000  47.000000  0
3.000000  12.500000  46.000000  0
3.500000  13.000000  46.000000  0
2.000000  12.500000  46.000000  0
-1.000000  12.500000  46.000000  0
-1.500000  13.000000  46.000000  0
3.000000  13.000000  45.500000  0
2.000000  12.500000  45.000000  0
2.500000  13.000000  45.000000  0
-0.500000  13.000000  45.000000  0
-1.000000  13.000000  45.500000  0
2.000000  13.000000  44.500000  0
1.500000  13.000000  44.000000  0
0.000000  12.500000  44.000000  0
-0.500000  13.000000  44.000000  0
1.000000  12.500000  43.000000  0
1.500000  13.000000  43.000000  0
0.000000  12.500000  43.000000  0
-0.500000  13.000000  43.000000  0
1.000000  12.500000  42.000000  0
1.500000  13.000000  42.000000  0
0.000000  12.500000  42.000000  0
-0.500000  13.000000  42.000000  0
1.000000  12.500000  41.000000  0
1.500000  13.000000  41.000000  0
0.000000  12.500000  41.000000  0
-0.500000  13.000000  41.000000  0
1.500000  13.000000  40.000000  0
-1.000000  12.500000  40.000000  0
-1.000000  13.000000  40.500000  0
-1.500000  13.000000  40.000000  0
2.000000  12.500000  39.000000  0
2.500000  13.000000  39.000000  0
2.000000  13.000000  39.500000  0
-1.000000  12.500000  39.000000  0
-1.500000  13.000000  39.000000  0
2.500000  13.000000  38.000000  0
-1.500000  13.000000  38.000000  0
3.000000  12.500000  37.000000  0
3.500000  13.000000  37.000000  0
3.000000  13.000000  37.500000  0
-1.500000  13.000000  37.000000  0
3.500000  13.000000  36.000000  0
-1.500000  13.000000  36.000000  0
3.500000  13.000000  35.000000  0
-1.500000  13.000000  35.000000  0
3.500000  13.000000  34.000000  0
2.000000  12.500000  34.000000  0
1.000000  12.500000  34.000000  0
0.000000  12.500000  34.000000  0
-1.500000  13.000000  34.000000  0
3.000000  13.000000  33.500000  0
2.000000  13.000000  33.500000  0
1.000000  13.000000  33.500000  0
0.000000  13.000000  33.500000  0
-1.000000  13.000000  33.500000  0
3.000000  13.500000  54.000000  0
2.000000  13.500000  54.000000  0
1.000000  13.500000  54.000000  0
0.000000  13.500000  54.000000  0
-1.000000  13.500000  54.000000  0
3.000000  13.500000  53.000000  0
2.000000  13.500000  53.000000  0
1.000000  13.500000  53.000000  0
0.000000  13.500000  53.000000  0
-1.000000  13.500000  53.000000  0
3.000000  13.500000  52.000000  0
2.000000  13.500000  52.000000  0
1.000000  13.500000  52.000000  0
0.000000  13.500000  52.000000  0
-1.000000  13.500000  52.000000  0
3.000000  13.500000  51.000000  0
2.000000  13.500000  51.000000  0
1.000000  13.500000  51.000000  0
0.000000  13.500000  51.000000  0
-1.000000  13.500000  51.000000  0
3.000000  13.500000  50.000000  0
2.000000  13.500000  50.000000  0
1.000000  13.500000  50.000000  0
0.000000  13.500000  50.000000  0
-1.000000  13.500000  50.000000  0
3.000000  13.500000  49.000000  0
2.000000  13.500000  49.000000  0
1.000000  13.500000  49.000000  0
0.000000  13.500000  49.000000  0
-1.000000  13.500000  49.000000  0
3.000000  13.500000  48.000000  0
2.000000  13.500000  48.000000  0
1.000000  13.500000  48.000000  0
0.000000  13.500000  48.000000  0
-1.000000  13.500000  48.000000  0
3.000000  13.500000  47.000000  0
2.000000  13.500000  47.000000  0
1.000000  13.500000  47.000000  0
0.000000  13.500000  47.000000  0
-1.000000  13.500000  47.000000  0
3.000000  13.500000  46.000000  0
2.000000  13.500000  46.000000  0
1.000000  13.500000  46.000000  0
0.000000  13.500000  46.000000  0
-1.000000  13.500000  46.000000  0
2.000000  13.500000  45.000000  0
1.000000  13.500000  45.000000  0
0.000000  13.500000  45.000000  0
1.000000  13.500000  44.000000  0
0.000000  13.500000  44.000000  0
1.000000  13.500000  43.000000  0
0.000000  13.500000  43.000000  0
1.000000  13.500000  42.000000  0
0.000000  13.500000  42.000000  0
2.000000  13.500000  41.000000  0
2.500000  14.000000  41.000000  0
2.000000  14.000000  41.500000  0
1.000000  14.000000  41.500000  0
0.000000  14.000000  41.500000  0
-1.000000  13.500000  41.000000  0
-1.000000  14.000000  41.500000  0
-1.500000  14.000000  41.000000  0
2.000000  13.500000  40.000000  0
2.500000  14.000000  40.000000  0
-1.500000  14.000000  40.000000  0
2.500000  14.000000  39.000000  0
-1.500000  14.000000  39.000000  0
3.000000  13.500000  38.000000  0
3.500000  14.000000  38.000000  0
3.000000  14.000000  38.500000  0
-1.500000  14.000000  38.000000  0
3.500000  14.000000  37.000000  0
-1.500000  14.000000  37.000000  0
3.500000  14.000000  36.000000  0
-1.500000  14.000000  36.000000  0
3.500000  14.000000  35.000000  0
-1.500000  14.000000  35.000000  0
3.500000  14.000000  34.000000  0
1.000000  13.500000  34.000000  0
1.500000  14.000000  34.000000  0
1.000000  14.000000  34.500000  0
0.000000  13.500000  34.000000  0
0.000000  14.000000  34.500000  0
-1.000000  13.500000  34.000000  0
-1.000000  14.000000  34.500000  0
3.000000  14.000000  33.500000  0
2.000000  14.000000  33.500000  0
2.000000  14.500000  41.000000  0
1.000000  14.500000  41.000000  0
0.000000  14.500000  41.000000  0
-1.000000  14.500000  41.000000  0
2.000000  14.500000  40.000000  0
1.000000  14.500000  40.000000  0
0.000000  14.500000  40.000000  0
-1.000000  14.500000  40.000000  0
2.000000  14.500000  39.000000  0
1.000000  14.500000  39.000000  0
0.000000  14.500000  39.000000  0
-1.000000  14.500000  39.000000  0
3.000000  14.500000  38.000000  0
2.000000  14.500000  38.000000  0
1.000000  14.500000  38.000000  0
0.000000  14.500000  38.000000  0
-1.000000  14.500000  38.000000  0
3.000000  14.500000  37.000000  0
2.000000  14.500000  37.000000  0
1.000000  14.500000  37.000000  0
0.000000  14.500000  37.000000  0
-1.000000  14.500000  37.000000  0
3.000000  14.500000  36.000000  0
2.000000  14.500000  36.000000  0
1.000000  14.500000  36.000000  0
0.000000  14.500000  36.000000  0
-1.000000  14.500000  36.000000  0
3.000000  14.500000  35.000000  0
2.000000  14.500000  35.000000  0
1.000000  14.500000  35.000000  0
0.000000  14.500000  35.000000  0
-1.000000  14.500000  35.000000  0
3.000000  14.500000  34.000000  0
2.000000  14.500000  34.000000  0
2 0 1 0
2 3 0 0
4 3 2 0
4 5 3 0
6 5 4 0
6 7 5 0
8 7 6 0
8 9 7 0
10 9 8 0
11 9 10 0
0 13 1 0
12 13 0 0
14 0 3 0
12 0 14 0
15 3 5 0
14 3 15 0
16 5 7 0
15 5 16 0
17 7 9 0
16 7 17 0
11 17 9 0
18 17 11 0
12 20 13 0
19 20 12 0
21 12 14 0
19 12 21 0
22 14 15 0
21 14 22 0
23 15 16 0
22 15 23 0
24 16 17 0
23 16 24 0
18 24 17 0
25 24 18 0
19 27 20 0
26 27 19 0
28 19 21 0
26 19 28 0
29 21 22 0
28 21 29 0
30 22 23 0
29 22 30 0
31 23 24 0
30 23 31 0
25 31 24 0
32 31 25 0
26 34 27 0
33 34 26 0
35 26 28 0
33 26 35 0
36 28 29 0
35 28 36 0
37 29 30 0
36 29 37 0
38 30 31 0
37 30 38 0
32 38 31 0
39 38 32 0
33 41 34 0
40 41 33 0
42 33 35 0
40 33 42 0
43 35 36 0
42 35 43 0
44 36 37 0
43 36 44 0
45 37 38 0
44 37 45 0
39 45 38 0
46 45 39 0
41 40 47 0
40 42 48 0
47 40 48 0
49 47 48 0
50 42 43 0
48 42 50 0
51 43 44 0
50 43 51 0
52 44 45 0
51 44 52 0
46 52 45 0
53 52 46 0
49 48 54 0
48 50 55 0
54 48 55 0
56 54 55 0
57 50 51 0
55 50 57 0
57 51 52 0
58 57 52 0
59 58 52 0
52 53 59 0
56 55 60 0
55 57 61 0
60 55 61 0
62 60 61 0
58 61 57 0
63 61 58 0
62 61 64 0
61 63 64 0
2 1 65 0
4 65 66 0
2 65 4 0
6 66 67 0
4 66 6 0
69 8 6 0
68 69 6 0
67 68 6 0
70 8 69 0
10 8 70 0
71 10 70 0
11 10 71 0
1 13 72 0
65 1 72 0
73 65 72 0
73 74 65 0
65 74 66 0
74 75 66 0
66 75 67 0
75 68 67 0
18 71 76 0
11 71 18 0
13 77 72 0
20 77 13 0
25 76 78 0
18 76 25 0
20 79 77 0
27 79 20 0
32 78 80 0
25 78 32 0
27 81 79 0
34 81 27 0
39 80 82 0
32 80 39 0
34 83 81 0
41 83 34 0
46 82 84 0
39 82 46 0
86 83 41 0
85 86 41 0
47 85 41 0
49 85 47 0
53 84 87 0
46 84 53 0
86 85 88 0
54 89 88 0
49 54 88 0
85 49 88 0
89 54 90 0
90 54 56 0
91 58 59 0
53 87 92 0
59 53 92 0
91 59 92 0
90 60 93 0
56 60 90 0
93 60 94 0
94 60 62 0
95 63 58 0
95 58 91 0
95 91 96 0
91 92 96 0
94 64 97 0
62 64 94 0
63 97 64 0
95 97 63 0
99 68 98 0
69 68 99 0
100 69 99 0
70 69 100 0
101 70 100 0
71 70 101 0
103 72 102 0
73 72 103 0
104 73 103 0
74 73 104 0
105 74 104 0
75 74 105 0
75 105 68 0
68 105 98 0
76 101 106 0
71 101 76 0
72 107 102 0
77 107 72 0
78 106 108 0
76 106 78 0
77 109 107 0
79 109 77 0
80 108 110 0
78 108 80 0
79 111 109 0
81 111 79 0
82 110 112 0
80 110 82 0
81 113 111 0
83 113 81 0
84 112 114 0
82 112 84 0
83 115 113 0
86 115 83 0
87 114 116 0
84 114 87 0
115 88 117 0
86 88 115 0
117 89 118 0
88 89 117 0
118 89 119 0
119 89 90 0
92 116 120 0
87 116 92 0
119 93 121 0
90 93 119 0
121 93 122 0
122 93 94 0
123 95 96 0
92 120 124 0
96 92 124 0
123 96 124 0
122 97 125 0
94 97 122 0
126 125 97 0
123 126 97 0
95 123 97 0
123 124 126 0
128 98 127 0
99 98 128 0
129 99 128 0
100 99 129 0
130 100 129 0
101 100 130 0
132 102 131 0
103 102 132 0
133 103 132 0
104 103 133 0
134 104 133 0
105 104 134 0
105 134 98 0
98 134 127 0
106 130 135 0
101 130 106 0
102 136 131 0
107 136 102 0
108 135 137 0
106 135 108 0
107 138 136 0
109 138 107 0
110 137 139 0
108 137 110 0
109 140 138 0
111 140 109 0
112 139 141 0
110 139 112 0
111 142 140 0
113 142 111 0
114 141 143 0
112 141 114 0
113 144 142 0
115 144 113 0
116 143 145 0
114 143 116 0
144 117 146 0
115 117 144 0
146 117 118 0
146 118 147 0
146 147 148 0
119 147 118 0
120 145 149 0
116 145 120 0
148 147 150 0
121 151 150 0
119 121 150 0
147 119 150 0
151 121 152 0
152 121 122 0
124 149 153 0
120 149 124 0
152 125 154 0
122 125 152 0
154 126 155 0
125 126 154 0
124 155 126 0
153 155 124 0
158 156 157 0
158 159 156 0
160 159 158 0
160 161 159 0
162 161 160 0
162 163 128 0
161 162 128 0
127 161 128 0
164 128 163 0
129 128 164 0
165 129 164 0
130 129 165 0
131 166 157 0
132 131 157 0
156 132 157 0
156 159 132 0
132 159 133 0
159 161 133 0
133 161 134 0
161 127 134 0
135 165 167 0
130 165 135 0
131 168 166 0
136 168 131 0
137 167 169 0
135 167 137 0
136 170 168 0
138 170 136 0
139 169 171 0
137 169 139 0
138 172 170 0
140 172 138 0
141 171 173 0
139 171 141 0
140 174 172 0
142 174 140 0
143 173 175 0
141 173 143 0
142 176 174 0
144 176 142 0
145 175 177 0
143 175 145 0
176 146 178 0
144 146 176 0
178 146 179 0
179 146 148 0
149 177 180 0
145 177 149 0
179 150 181 0
148 150 179 0
181 150 151 0
181 151 182 0
181 182 183 0
152 182 151 0
153 180 184 0
149 180 153 0
183 182 185 0
185 186 187 0
185 182 186 0
182 154 186 0
152 154 182 0
188 186 155 0
155 186 154 0
153 184 189 0
155 153 189 0
188 155 189 0
187 186 190 0
186 191 190 0
188 191 186 0
188 189 191 0
193 157 192 0
158 157 193 0
194 158 193 0
160 158 194 0
195 160 194 0
162 160 195 0
196 162 195 0
163 162 196 0
197 163 196 0
164 163 197 0
198 164 197 0
165 164 198 0
157 199 192 0
166 199 157 0
167 198 200 0
165 198 167 0
166 201 199 0
168 201 166 0
169 200 202 0
167 200 169 0
168 203 201 0
170 203 168 0
171 202 204 0
169 202 171 0
170 205 203 0
172 205 170 0
173 204 206 0
171 204 173 0
172 207 205 0
174 207 172 0
175 206 208 0
173 206 175 0
174 209 207 0
176 209 174 0
177 208 210 0
175 208 177 0
209 178 211 0
176 178 209 0
211 178 212 0
212 178 179 0
180 210 213 0
177 210 180 0
212 181 214 0
179 181 212 0
214 181 215 0
215 181 183 0
184 213 216 0
180 213 184 0
215 185 217 0
183 185 215 0
217 185 218 0
218 185 187 0
189 216 219 0
184 216 189 0
218 190 220 0
187 190 218 0
220 191 221 0
190 191 220 0
189 221 191 0
219 221 189 0
193 192 222 0
224 194 193 0
223 224 193 0
222 223 193 0
225 194 224 0
195 194 225 0
196 195 225 0
226 196 225 0
227 226 225 0
197 226 228 0
196 226 197 0
197 228 198 0
192 199 229 0
222 192 229 0
230 222 229 0
230 223 222 0
231 226 227 0
231 232 226 0
226 232 228 0
233 200 198 0
232 233 198 0
228 232 198 0
199 234 229 0
201 234 199 0
202 233 235 0
200 233 202 0
201 236 234 0
203 236 201 0
204 235 237 0
202 235 204 0
203 238 236 0
205 238 203 0
206 237 239 0
204 237 206 0
205 240 238 0
207 240 205 0
208 239 241 0
206 239 208 0
207 242 240 0
209 242 207 0
210 241 243 0
208 241 210 0
245 242 209 0
244 245 209 0
211 244 209 0
212 244 211 0
213 243 246 0
210 243 213 0
245 244 247 0
214 248 247 0
212 214 247 0
244 212 247 0
248 214 249 0
249 214 215 0
216 246 250 0
213 246 216 0
249 217 251 0
215 217 249 0
251 217 252 0
252 217 218 0
219 250 253 0
216 250 219 0
252 220 254 0
218 220 252 0
254 221 255 0
220 221 254 0
219 255 221 0
253 255 219 0
257 223 256 0
224 223 257 0
225 224 257 0
258 225 257 0
259 258 257 0
225 258 227 0
261 229 260 0
230 229 261 0
230 261 223 0
223 261 256 0
262 258 259 0
262 263 231 0
262 231 227 0
262 227 258 0
264 231 263 0
232 231 264 0
265 232 264 0
233 232 265 0
229 266 260 0
234 266 229 0
235 265 267 0
233 265 235 0
234 268 266 0
236 268 234 0
237 267 269 0
235 267 237 0
236 270 268 0
238 270 236 0
239 269 271 0
237 269 239 0
238 272 270 0
240 272 238 0
241 271 273 0
239 271 241 0
240 274 272 0
242 274 240 0
243 273 275 0
241 273 243 0
242 276 274 0
245 276 242 0
246 275 277 0
243 275 246 0
276 247 278 0
245 247 276 0
278 248 279 0
247 248 278 0
279 248 280 0
280 248 249 0
250 277 281 0
246 277 250 0
280 251 282 0
249 251 280 0
282 251 283 0
283 251 252 0
253 281 284 0
250 281 253 0
286 283 252 0
285 286 252 0
254 285 252 0
287 285 255 0
255 285 254 0
253 284 288 0
255 253 288 0
287 255 288 0
286 285 289 0
285 290 289 0
287 290 285 0
287 288 290 0
292 256 291 0
257 256 292 0
293 257 292 0
259 257 293 0
295 260 294 0
261 260 295 0
261 295 256 0
256 295 291 0
296 262 293 0
293 262 259 0
297 262 296 0
263 262 297 0
298 263 297 0
264 263 298 0
299 264 298 0
265 264 299 0
260 300 294 0
266 300 260 0
267 299 301 0
265 299 267 0
266 302 300 0
268 302 266 0
269 301 303 0
267 301 269 0
268 304 302 0
270 304 268 0
271 303 305 0
269 303 271 0
270 306 304 0
272 306 270 0
273 305 307 0
271 305 273 0
272 308 306 0
274 308 272 0
275 307 309 0
273 307 275 0
274 310 308 0
276 310 274 0
277 309 311 0
275 309 277 0
310 278 312 0
276 278 310 0
312 278 279 0
312 279 313 0
312 313 314 0
280 313 279 0
281 311 315 0
277 311 281 0
314 313 316 0
316 317 318 0
316 313 317 0
313 282 317 0
280 282 313 0
283 317 282 0
284 315 319 0
281 315 284 0
318 317 320 0
283 286 321 0
283 321 320 0
283 320 317 0
288 319 322 0
284 319 288 0
321 289 323 0
286 289 321 0
323 290 324 0
289 290 323 0
288 324 290 0
322 324 288 0
327 325 326 0
327 328 292 0
325 327 292 0
291 325 292 0
329 292 328 0
293 292 329 0
294 330 326 0
295 294 326 0
325 295 326 0
325 291 295 0
331 296 329 0
329 296 293 0
332 296 331 0
297 296 332 0
333 297 332 0
298 297 333 0
334 298 333 0
299 298 334 0
294 335 330 0
300 335 294 0
301 334 336 0
299 334 301 0
300 337 335 0
302 337 300 0
303 336 338 0
301 336 303 0
302 339 337 0
304 339 302 0
305 338 340 0
303 338 305 0
304 341 339 0
306 341 304 0
307 340 342 0
305 340 307 0
306 343 341 0
308 343 306 0
309 342 344 0
307 342 309 0
308 345 343 0
310 345 308 0
311 344 346 0
309 344 311 0
345 312 347 0
310 312 345 0
347 312 348 0
348 312 314 0
315 346 349 0
311 346 315 0
348 316 350 0
314 316 348 0
350 316 351 0
351 316 318 0
319 349 352 0
315 349 319 0
351 320 353 0
318 320 351 0
353 320 354 0
354 320 321 0
322 352 355 0
319 352 322 0
357 354 321 0
356 357 321 0
323 356 321 0
323 324 359 0
323 359 358 0
323 358 356 0
322 359 324 0
355 359 322 0
356 361 357 0
360 361 356 0
358 360 356 0
362 360 358 0
360 364 361 0
363 364 360 0
362 363 360 0
365 363 362 0
363 367 364 0
366 367 363 0
365 366 363 0
368 366 365 0
366 370 367 0
369 370 366 0
371 369 366 0
372 371 366 0
368 372 366 0
373 371 372 0
370 369 374 0
369 375 374 0
371 375 369 0
371 373 375 0
327 326 376 0
328 376 377 0
327 376 328 0
328 377 329 0
326 330 378 0
376 326 378 0
379 376 378 0
379 380 376 0
376 380 377 0
380 381 331 0
380 331 329 0
380 329 377 0
332 331 381 0
382 332 381 0
383 382 381 0
333 382 384 0
332 382 333 0
333 384 334 0
330 385 378 0
335 385 330 0
386 382 383 0
386 387 382 0
382 387 384 0
388 336 334 0
387 388 334 0
384 387 334 0
335 389 385 0
337 389 335 0
338 388 390 0
336 388 338 0
337 391 389 0
339 391 337 0
340 390 392 0
338 390 340 0
339 393 391 0
341 393 339 0
342 392 394 0
340 392 342 0
341 395 393 0
343 395 341 0
344 394 396 0
342 394 344 0
343 397 395 0
345 397 343 0
346 396 398 0
344 396 346 0
400 397 345 0
399 400 345 0
347 399 345 0
348 399 347 0
349 398 401 0
346 398 349 0
400 399 402 0
402 403 404 0
402 399 403 0
399 350 403 0
348 350 399 0
351 403 350 0
352 401 405 0
349 401 352 0
404 403 406 0
353 407 406 0
351 353 406 0
403 351 406 0
407 353 408 0
408 353 354 0
355 405 409 0
352 405 355 0
354 410 408 0
357 410 354 0
411 358 412 0
412 358 359 0
355 412 359 0
409 412 355 0
357 413 410 0
361 413 357 0
362 411 414 0
358 411 362 0
361 415 413 0
364 415 361 0
365 414 416 0
362 414 365 0
364 417 415 0
367 417 364 0
368 416 418 0
365 416 368 0
367 419 417 0
370 419 367 0
368 418 421 0
368 421 420 0
368 420 372 0
372 420 373 0
419 374 422 0
370 374 419 0
422 374 375 0
421 422 375 0
420 421 375 0
375 373 420 0
425 423 424 0
425 426 423 0
427 426 425 0
428 426 427 0
423 430 424 0
429 430 423 0
431 423 426 0
429 423 431 0
428 431 426 0
432 431 428 0
430 429 433 0
429 431 434 0
433 429 434 0
435 433 434 0
432 434 431 0
436 434 432 0
435 434 437 0
434 436 437 0
439 378 438 0
379 378 439 0
440 379 439 0
380 379 440 0
441 380 440 0
381 380 441 0
442 381 441 0
383 381 442 0
378 443 438 0
385 443 378 0
444 386 442 0
442 386 383 0
445 386 444 0
387 386 445 0
446 387 445 0
388 387 446 0
385 447 443 0
389 447 385 0
390 446 448 0
388 446 390 0
389 449 447 0
391 449 389 0
392 448 450 0
390 448 392 0
391 451 449 0
393 451 391 0
394 450 452 0
392 450 394 0
393 453 451 0
395 453 393 0
396 452 454 0
394 452 396 0
395 455 453 0
397 455 395 0
398 454 456 0
396 454 398 0
397 457 455 0
400 457 397 0
401 456 458 0
398 456 401 0
460 457 400 0
459 460 400 0
402 459 400 0
404 459 402 0
405 458 461 0
401 458 405 0
460 459 462 0
406 463 462 0
404 406 462 0
459 404 462 0
463 406 407 0
463 407 464 0
463 464 465 0
408 464 407 0
409 405 461 0
409 461 467 0
409 467 466 0
468 466 467 0
464 470 465 0
469 470 464 0
408 410 464 0
464 410 469 0
471 411 412 0
472 466 473 0
472 471 466 0
471 409 466 0
412 409 471 0
466 468 473 0
470 469 474 0
410 413 475 0
410 475 474 0
410 474 469 0
414 411 476 0
476 411 471 0
472 476 471 0
477 476 472 0
413 478 475 0
415 478 413 0
479 416 414 0
479 414 476 0
479 476 480 0
476 477 480 0
415 481 478 0
417 481 415 0
418 479 482 0
416 479 418 0
481 417 419 0
484 481 419 0
483 484 419 0
421 418 482 0
483 421 482 0
484 483 482 0
483 419 422 0
422 421 483 0
487 485 486 0
487 488 485 0
489 488 487 0
490 488 489 0
493 491 492 0
485 494 491 0
486 485 491 0
493 486 491 0
495 485 488 0
494 485 495 0
496 495 488 0
497 496 488 0
490 497 488 0
498 496 497 0
491 500 492 0
499 500 491 0
501 491 494 0
499 491 501 0
501 494 495 0
501 495 425 0
501 425 424 0
495 496 425 0
425 496 427 0
498 502 428 0
496 498 428 0
427 496 428 0
505 503 504 0
499 506 503 0
500 499 503 0
505 500 503 0
507 499 501 0
506 499 507 0
424 430 501 0
501 430 507 0
432 502 508 0
428 502 432 0
503 510 504 0
509 510 503 0
509 503 506 0
511 509 506 0
512 511 506 0
506 513 512 0
507 513 506 0
433 514 513 0
430 433 513 0
507 430 513 0
514 433 515 0
515 433 435 0
436 508 516 0
432 508 436 0
510 509 517 0
509 511 517 0
515 437 518 0
435 437 515 0
436 518 437 0
516 518 436 0
439 438 519 0
440 519 520 0
439 519 440 0
441 520 521 0
440 520 441 0
441 521 442 0
438 443 522 0
519 438 522 0
523 519 522 0
523 524 519 0
519 524 520 0
524 525 520 0
520 525 521 0
525 526 444 0
525 444 442 0
525 442 521 0
445 444 526 0
527 445 526 0
528 527 526 0
445 527 446 0
443 529 522 0
447 529 443 0
530 527 528 0
531 448 446 0
530 531 446 0
527 530 446 0
447 532 529 0
449 532 447 0
450 531 533 0
448 531 450 0
449 534 532 0
451 534 449 0
452 533 535 0
450 533 452 0
451 536 534 0
453 536 451 0
454 535 537 0
452 535 454 0
536 453 455 0
539 536 455 0
538 539 455 0
539 538 540 0
456 454 537 0
456 537 542 0
456 542 541 0
543 541 542 0
544 455 457 0
538 455 544 0
538 544 540 0
540 544 545 0
458 456 546 0
546 456 541 0
543 546 541 0
547 546 543 0
548 457 460 0
544 457 548 0
544 548 545 0
545 548 549 0
461 458 550 0
550 458 546 0
547 550 546 0
551 550 547 0
548 460 462 0
549 552 553 0
549 463 552 0
548 463 549 0
462 463 548 0
465 552 463 0
467 461 550 0
551 554 468 0
550 551 468 0
467 550 468 0
553 552 555 0
465 470 556 0
465 556 555 0
465 555 552 0
557 472 558 0
558 472 473 0
468 558 473 0
554 558 468 0
556 474 559 0
470 474 556 0
559 474 560 0
560 474 475 0
477 557 561 0
472 557 477 0
475 562 560 0
478 562 475 0
563 479 564 0
564 479 480 0
477 564 480 0
561 564 477 0
478 565 562 0
481 565 478 0
482 563 566 0
479 563 482 0
565 484 567 0
481 484 565 0
482 567 484 0
566 567 482 0
570 568 569 0
570 571 568 0
572 571 570 0
573 571 572 0
568 575 569 0
574 575 568 0
576 568 571 0
574 568 576 0
573 576 571 0
577 576 573 0
486 578 575 0
487 486 575 0
574 487 575 0
574 576 487 0
487 576 489 0
577 579 490 0
576 577 490 0
489 576 490 0
581 492 580 0
493 492 581 0
493 581 486 0
486 581 578 0
582 497 579 0
579 497 490 0
583 497 582 0
498 497 583 0
586 584 585 0
580 492 500 0
580 500 584 0
580 584 586 0
502 583 587 0
498 583 502 0
504 588 585 0
505 504 585 0
584 505 585 0
584 500 505 0
508 587 589 0
502 587 508 0
504 590 588 0
510 590 504 0
591 511 592 0
592 511 512 0
592 513 593 0
512 513 592 0
593 514 594 0
513 514 593 0
594 514 595 0
595 514 515 0
516 589 596 0
508 589 516 0
590 517 597 0
510 517 590 0
511 597 517 0
591 597 511 0
595 518 598 0
515 518 595 0
516 598 518 0
596 598 516 0
600 522 599 0
523 522 600 0
601 523 600 0
524 523 601 0
525 524 601 0
602 525 601 0
603 602 601 0
526 602 604 0
525 602 526 0
526 604 528 0
522 605 599 0
529 605 522 0
606 602 603 0
606 607 602 0
602 607 604 0
607 608 530 0
607 530 528 0
607 528 604 0
609 530 608 0
531 530 609 0
529 610 605 0
532 610 529 0
533 531 609 0
533 609 612 0
533 612 611 0
613 611 612 0
610 532 534 0
615 610 534 0
614 615 534 0
615 614 616 0
535 533 617 0
617 533 611 0
613 617 611 0
618 617 613 0
619 534 536 0
614 534 619 0
614 619 616 0
616 619 620 0
537 535 621 0
621 535 617 0
618 621 617 0
622 621 618 0
619 536 539 0
540 623 620 0
540 620 619 0
540 619 539 0
542 537 621 0
622 624 543 0
621 622 543 0
542 621 543 0
540 625 623 0
545 625 540 0
547 624 626 0
543 624 547 0
545 627 625 0
549 627 545 0
551 626 628 0
547 626 551 0
549 629 627 0
553 629 549 0
554 628 630 0
551 628 554 0
632 629 553 0
631 632 553 0
555 631 553 0
556 631 555 0
633 557 558 0
554 630 634 0
558 554 634 0
633 558 634 0
632 631 635 0
559 636 635 0
556 559 635 0
631 556 635 0
636 559 637 0
637 559 560 0
638 561 557 0
638 557 633 0
638 633 639 0
633 634 639 0
560 640 637 0
562 640 560 0
641 563 564 0
561 638 642 0
564 561 642 0
641 564 642 0
562 643 640 0
565 643 562 0
644 566 563 0
644 563 641 0
644 641 645 0
641 642 645 0
643 567 646 0
565 567 643 0
566 646 567 0
644 646 566 0
648 569 647 0
570 569 648 0
649 570 648 0
572 570 649 0
650 572 649 0
573 572 650 0
569 651 647 0
575 651 569 0
577 650 652 0
573 650 577 0
655 653 654 0
651 575 578 0
651 578 653 0
651 653 655 0
579 577 652 0
579 652 657 0
579 657 656 0
658 656 657 0
580 659 654 0
581 580 654 0
653 581 654 0
653 578 581 0
582 579 656 0
658 660 583 0
656 658 583 0
582 656 583 0
662 585 661 0
586 585 662 0
586 662 580 0
580 662 659 0
587 660 663 0
583 660 587 0
585 664 661 0
588 664 585 0
589 663 665 0
587 663 589 0
588 666 664 0
590 666 588 0
667 591 668 0
668 591 592 0
668 593 669 0
592 593 668 0
669 594 670 0
593 594 669 0
670 594 671 0
671 594 595 0
596 665 672 0
589 665 596 0
666 597 673 0
590 597 666 0
591 673 597 0
667 673 591 0
671 598 674 0
595 598 671 0
596 674 598 0
672 674 596 0
600 599 675 0
601 675 676 0
600 675 601 0
601 676 603 0
677 599 605 0
675 599 677 0
677 676 675 0
678 676 677 0
676 678 679 0
603 676 679 0
606 603 679 0
607 679 680 0
606 679 607 0
608 680 681 0
607 680 608 0
608 681 609 0
682 605 610 0
677 605 682 0
678 677 682 0
678 682 683 0
678 683 684 0
684 685 678 0
678 685 679 0
685 686 679 0
679 686 680 0
686 687 680 0
680 687 681 0
687 688 612 0
687 612 609 0
687 609 681 0
689 612 688 0
613 612 689 0
682 610 615 0
616 690 683 0
616 683 682 0
616 682 615 0
618 689 691 0
613 689 618 0
616 692 690 0
620 692 616 0
622 691 693 0
618 691 622 0
620 694 692 0
623 694 620 0
624 693 695 0
622 693 624 0
623 696 694 0
625 696 623 0
626 695 697 0
624 695 626 0
625 698 696 0
627 698 625 0
628 697 699 0
626 697 628 0
627 700 698 0
629 700 627 0
630 699 701 0
628 699 630 0
629 702 700 0
632 702 629 0
634 701 703 0
630 701 634 0
705 702 632 0
704 705 632 0
635 704 632 0
706 704 636 0
636 704 635 0
637 706 636 0
707 638 639 0
634 703 708 0
639 634 708 0
707 639 708 0
705 704 709 0
704 706 710 0
709 704 710 0
711 709 710 0
637 640 706 0
706 640 710 0
712 642 638 0
712 638 707 0
712 707 713 0
707 708 713 0
711 710 714 0
640 643 715 0
640 715 714 0
640 714 710 0
716 644 645 0
642 712 717 0
645 642 717 0
716 645 717 0
719 715 643 0
718 719 643 0
646 718 643 0
716 720 718 0
716 718 646 0
716 646 644 0
717 720 716 0
721 720 717 0
718 723 719 0
722 723 718 0
724 718 720 0
722 718 724 0
721 724 720 0
725 724 721 0
722 727 723 0
726 727 722 0
728 722 724 0
726 722 728 0
725 728 724 0
729 728 725 0
647 730 727 0
648 647 727 0
726 648 727 0
726 728 648 0
648 728 649 0
732 728 729 0
732 731 728 0
731 649 728 0
650 649 731 0
733 731 732 0
736 734 735 0
730 647 651 0
730 651 734 0
730 734 736 0
652 650 737 0
737 650 731 0
733 737 731 0
738 737 733 0
654 739 735 0
655 654 735 0
734 655 735 0
734 651 655 0
657 652 737 0
738 740 658 0
737 738 658 0
657 737 658 0
743 741 742 0
739 654 659 0
739 659 741 0
739 741 743 0
660 740 744 0
658 740 660 0
661 745 742 0
662 661 742 0
741 662 742 0
741 659 662 0
663 744 746 0
660 744 663 0
661 747 745 0
664 747 661 0
665 746 748 0
663 746 665 0
664 749 747 0
666 749 664 0
750 667 668 0
751 750 669 0
669 750 668 0
752 751 670 0
670 751 669 0
671 752 670 0
672 748 753 0
665 748 672 0
749 673 754 0
666 673 749 0
755 754 673 0
750 755 673 0
667 750 673 0
750 756 755 0
751 756 750 0
751 757 756 0
752 757 751 0
674 758 757 0
671 674 757 0
752 671 757 0
