#!ascii version of
556 1108
6.000000  -29.500000  51.000000  0
6.500000  -29.000000  51.000000  0
6.000000  -29.000000  51.500000  0
5.000000  -29.500000  51.000000  0
5.000000  -29.000000  51.500000  0
4.000000  -29.500000  51.000000  0
4.000000  -29.000000  51.500000  0
3.000000  -29.500000  51.000000  0
3.000000  -29.000000  51.500000  0
2.000000  -29.500000  51.000000  0
2.000000  -29.000000  51.500000  0
1.500000  -29.000000  51.000000  0
6.000000  -29.500000  50.000000  0
6.500000  -29.000000  50.000000  0
5.000000  -29.500000  50.000000  0
4.000000  -29.500000  50.000000  0
3.000000  -29.500000  50.000000  0
2.000000  -29.500000  50.000000  0
1.500000  -29.000000  50.000000  0
6.000000  -29.500000  49.000000  0
6.500000  -29.000000  49.000000  0
5.000000  -29.500000  49.000000  0
4.000000  -29.500000  49.000000  0
3.000000  -29.500000  49.000000  0
2.000000  -29.500000  49.000000  0
1.500000  -29.000000  49.000000  0
6.000000  -29.500000  48.000000  0
6.500000  -29.000000  48.000000  0
5.000000  -29.500000  48.000000  0
4.000000  -29.500000  48.000000  0
3.000000  -29.500000  48.000000  0
2.000000  -29.500000  48.000000  0
1.500000  -29.000000  48.000000  0
6.000000  -29.500000  47.000000  0
6.500000  -29.000000  47.000000  0
5.000000  -29.500000  47.000000  0
4.000000  -29.500000  47.000000  0
3.000000  -29.500000  47.000000  0
2.000000  -29.500000  47.000000  0
1.500000  -29.000000  47.000000  0
6.000000  -29.500000  46.000000  0
6.500000  -29.000000  46.000000  0
5.000000  -29.500000  46.000000  0
4.000000  -29.500000  46.000000  0
3.000000  -29.500000  46.000000  0
2.000000  -29.500000  46.000000  0
1.500000  -29.000000  46.000000  0
6.000000  -29.500000  45.000000  0
6.500000  -29.000000  45.000000  0
5.000000  -29.500000  45.000000  0
4.000000  -29.500000  45.000000  0
3.000000  -29.500000  45.000000  0
2.000000  -29.500000  45.000000  0
1.500000  -29.000000  45.000000  0
6.000000  -29.500000  44.000000  0
6.500000  -29.000000  44.000000  0
5.000000  -29.500000  44.000000  0
4.000000  -29.500000  44.000000  0
3.000000  -29.500000  44.000000  0
2.000000  -29.500000  44.000000  0
1.500000  -29.000000  44.000000  0
6.000000  -29.500000  43.000000  0
6.500000  -29.000000  43.000000  0
5.000000  -29.500000  43.000000  0
4.000000  -29.500000  43.000000  0
3.000000  -29.500000  43.000000  0
2.000000  -29.500000  43.000000  0
1.500000  -29.000000  43.000000  0
6.000000  -29.500000  42.000000  0
6.500000  -29.000000  42.000000  0
5.000000  -29.500000  42.000000  0
4.000000  -29.500000  42.000000  0
3.000000  -29.500000  42.000000  0
2.000000  -29.500000  42.000000  0
1.500000  -29.000000  42.000000  0
6.000000  -29.000000  41.500000  0
5.000000  -29.000000  41.500000  0
4.000000  -29.000000  41.500000  0
3.000000  -29.000000  41.500000  0
2.000000  -29.000000  41.500000  0
6.500000  -28.000000  51.000000  0
6.000000  -28.000000  51.500000  0
5.000000  -28.000000  51.500000  0
4.000000  -28.000000  51.500000  0
3.000000  -28.000000  51.500000  0
2.000000  -28.000000  51.500000  0
1.500000  -28.000000  51.000000  0
6.500000  -28.000000  50.000000  0
1.500000  -28.000000  50.000000  0
6.500000  -28.000000  49.000000  0
1.500000  -28.000000  49.000000  0
6.500000  -28.000000  48.000000  0
1.500000  -28.000000  48.000000  0
6.500000  -28.000000  47.000000  0
1.500000  -28.000000  47.000000  0
6.500000  -28.000000  46.000000  0
1.500000  -28.000000  46.000000  0
6.500000  -28.000000  45.000000  0
1.500000  -28.000000  45.000000  0
6.500000  -28.000000  44.000000  0
1.500000  -28.000000  44.000000  0
6.500000  -28.000000  43.000000  0
1.500000  -28.000000  43.000000  0
6.000000  -28.500000  42.000000  0
6.000000  -28.000000  42.500000  0
5.000000  -28.500000  42.000000  0
5.000000  -28.000000  42.500000  0
4.000000  -28.500000  42.000000  0
4.000000  -28.000000  42.500000  0
3.000000  -28.500000  42.000000  0
3.000000  -28.000000  42.500000  0
2.000000  -28.500000  42.000000  0
2.000000  -28.000000  42.500000  0
6.500000  -27.000000  51.000000  0
6.000000  -27.000000  51.500000  0
5.000000  -27.000000  51.500000  0
4.000000  -27.000000  51.500000  0
3.000000  -27.000000  51.500000  0
2.000000  -27.000000  51.500000  0
1.500000  -27.000000  51.000000  0
6.500000  -27.000000  50.000000  0
1.500000  -27.000000  50.000000  0
6.500000  -27.000000  49.000000  0
1.500000  -27.000000  49.000000  0
6.500000  -27.000000  48.000000  0
1.500000  -27.000000  48.000000  0
6.500000  -27.000000  47.000000  0
1.500000  -27.000000  47.000000  0
6.500000  -27.000000  46.000000  0
1.500000  -27.000000  46.000000  0
6.500000  -27.000000  45.000000  0
1.500000  -27.000000  45.000000  0
6.500000  -27.000000  44.000000  0
2.000000  -27.500000  44.000000  0
2.500000  -27.000000  44.000000  0
2.000000  -27.000000  44.500000  0
6.000000  -27.500000  43.000000  0
6.000000  -27.000000  43.500000  0
5.000000  -27.500000  43.000000  0
5.000000  -27.000000  43.500000  0
4.000000  -27.500000  43.000000  0
4.000000  -27.000000  43.500000  0
3.000000  -27.500000  43.000000  0
3.000000  -27.000000  43.500000  0
2.000000  -27.500000  43.000000  0
2.000000  -26.500000  52.000000  0
2.500000  -26.000000  52.000000  0
2.000000  -26.000000  52.500000  0
1.500000  -26.000000  52.000000  0
6.500000  -26.000000  51.000000  0
6.000000  -26.000000  51.500000  0
5.000000  -26.000000  51.500000  0
4.000000  -26.000000  51.500000  0
3.000000  -26.000000  51.500000  0
1.500000  -26.000000  51.000000  0
6.500000  -26.000000  50.000000  0
1.500000  -26.000000  50.000000  0
6.500000  -26.000000  49.000000  0
1.500000  -26.000000  49.000000  0
6.500000  -26.000000  48.000000  0
1.500000  -26.000000  48.000000  0
6.500000  -26.000000  47.000000  0
1.500000  -26.000000  47.000000  0
6.500000  -26.000000  46.000000  0
1.500000  -26.000000  46.000000  0
6.000000  -26.500000  45.000000  0
6.000000  -26.000000  45.500000  0
5.500000  -26.000000  45.000000  0
1.000000  -26.500000  45.000000  0
1.000000  -26.000000  45.500000  0
0.500000  -26.000000  45.000000  0
6.000000  -26.500000  44.000000  0
5.000000  -26.500000  44.000000  0
5.000000  -26.000000  44.500000  0
4.000000  -26.500000  44.000000  0
4.000000  -26.000000  44.500000  0
3.000000  -26.500000  44.000000  0
3.000000  -26.000000  44.500000  0
2.000000  -26.000000  44.500000  0
1.000000  -26.000000  44.500000  0
2.500000  -25.000000  52.000000  0
2.000000  -25.000000  52.500000  0
1.500000  -25.000000  52.000000  0
6.500000  -25.000000  51.000000  0
6.000000  -25.000000  51.500000  0
5.000000  -25.000000  51.500000  0
4.000000  -25.000000  51.500000  0
3.000000  -25.000000  51.500000  0
1.500000  -25.000000  51.000000  0
6.500000  -25.000000  50.000000  0
1.500000  -25.000000  50.000000  0
6.500000  -25.000000  49.000000  0
1.500000  -25.000000  49.000000  0
6.000000  -25.500000  48.000000  0
6.000000  -25.000000  48.500000  0
5.500000  -25.000000  48.000000  0
1.000000  -25.500000  48.000000  0
1.000000  -25.000000  48.500000  0
0.500000  -25.000000  48.000000  0
6.000000  -25.500000  47.000000  0
5.500000  -25.000000  47.000000  0
1.000000  -25.500000  47.000000  0
0.500000  -25.000000  47.000000  0
6.000000  -25.500000  46.000000  0
5.500000  -25.000000  46.000000  0
1.000000  -25.500000  46.000000  0
0.500000  -25.000000  46.000000  0
5.500000  -25.000000  45.000000  0
0.500000  -25.000000  45.000000  0
5.000000  -25.000000  44.500000  0
4.000000  -25.000000  44.500000  0
3.000000  -25.000000  44.500000  0
2.000000  -25.000000  44.500000  0
1.000000  -25.000000  44.500000  0
3.000000  -24.500000  52.000000  0
3.500000  -24.000000  52.000000  0
3.000000  -24.000000  52.500000  0
2.000000  -24.000000  52.500000  0
1.500000  -24.000000  52.000000  0
6.000000  -24.500000  51.000000  0
5.500000  -24.000000  51.000000  0
5.000000  -24.000000  51.500000  0
4.000000  -24.000000  51.500000  0
1.000000  -24.500000  51.000000  0
1.000000  -24.000000  51.500000  0
0.500000  -24.000000  51.000000  0
6.000000  -24.500000  50.000000  0
5.500000  -24.000000  50.000000  0
1.000000  -24.500000  50.000000  0
0.500000  -24.000000  50.000000  0
6.000000  -24.500000  49.000000  0
5.500000  -24.000000  49.000000  0
1.000000  -24.500000  49.000000  0
0.500000  -24.000000  49.000000  0
5.500000  -24.000000  48.000000  0
0.500000  -24.000000  48.000000  0
5.500000  -24.000000  47.000000  0
0.500000  -24.000000  47.000000  0
5.000000  -24.500000  46.000000  0
5.000000  -24.000000  46.500000  0
4.000000  -24.500000  46.000000  0
4.000000  -24.000000  46.500000  0
3.000000  -24.500000  46.000000  0
3.000000  -24.000000  46.500000  0
2.000000  -24.500000  46.000000  0
2.000000  -24.000000  46.500000  0
1.500000  -24.000000  46.000000  0
0.500000  -24.000000  46.000000  0
5.000000  -24.500000  45.000000  0
4.000000  -24.500000  45.000000  0
3.000000  -24.500000  45.000000  0
2.000000  -24.500000  45.000000  0
1.000000  -24.500000  45.000000  0
1.000000  -24.000000  45.500000  0
1.000000  -23.500000  53.000000  0
1.500000  -23.000000  53.000000  0
1.000000  -23.000000  53.500000  0
0.500000  -23.000000  53.000000  0
5.000000  -23.500000  52.000000  0
5.500000  -23.000000  52.000000  0
5.000000  -23.000000  52.500000  0
4.000000  -23.500000  52.000000  0
4.000000  -23.000000  52.500000  0
3.000000  -23.000000  52.500000  0
2.000000  -23.000000  52.500000  0
1.000000  -23.500000  52.000000  0
0.500000  -23.000000  52.000000  0
5.500000  -23.000000  51.000000  0
0.500000  -23.000000  51.000000  0
5.500000  -23.000000  50.000000  0
0.500000  -23.000000  50.000000  0
5.500000  -23.000000  49.000000  0
0.500000  -23.000000  49.000000  0
5.500000  -23.000000  48.000000  0
0.500000  -23.000000  48.000000  0
5.500000  -23.000000  47.000000  0
4.000000  -23.500000  47.000000  0
4.500000  -23.000000  47.000000  0
4.000000  -23.000000  47.500000  0
3.000000  -23.500000  47.000000  0
3.000000  -23.000000  47.500000  0
2.000000  -23.500000  47.000000  0
2.000000  -23.000000  47.500000  0
1.500000  -23.000000  47.000000  0
0.500000  -23.000000  47.000000  0
5.000000  -23.000000  46.500000  0
1.000000  -23.500000  46.000000  0
1.000000  -23.000000  46.500000  0
5.000000  -22.500000  53.000000  0
5.500000  -22.000000  53.000000  0
5.000000  -22.000000  53.500000  0
4.000000  -22.500000  53.000000  0
4.000000  -22.000000  53.500000  0
3.000000  -22.500000  53.000000  0
3.000000  -22.000000  53.500000  0
2.000000  -22.500000  53.000000  0
2.000000  -22.000000  53.500000  0
1.000000  -22.000000  53.500000  0
0.500000  -22.000000  53.000000  0
5.500000  -22.000000  52.000000  0
0.500000  -22.000000  52.000000  0
5.500000  -22.000000  51.000000  0
0.500000  -22.000000  51.000000  0
5.500000  -22.000000  50.000000  0
0.500000  -22.000000  50.000000  0
5.500000  -22.000000  49.000000  0
0.500000  -22.000000  49.000000  0
5.500000  -22.000000  48.000000  0
0.500000  -22.000000  48.000000  0
5.500000  -22.000000  47.000000  0
4.500000  -22.000000  47.000000  0
4.000000  -22.000000  47.500000  0
3.000000  -22.000000  47.500000  0
2.000000  -22.000000  47.500000  0
1.500000  -22.000000  47.000000  0
0.500000  -22.000000  47.000000  0
5.000000  -22.000000  46.500000  0
1.000000  -22.000000  46.500000  0
3.000000  -21.500000  54.000000  0
3.500000  -21.000000  54.000000  0
3.000000  -21.000000  54.500000  0
2.000000  -21.500000  54.000000  0
2.000000  -21.000000  54.500000  0
1.000000  -21.500000  54.000000  0
1.000000  -21.000000  54.500000  0
0.500000  -21.000000  54.000000  0
5.500000  -21.000000  53.000000  0
5.000000  -21.000000  53.500000  0
4.000000  -21.000000  53.500000  0
0.500000  -21.000000  53.000000  0
5.500000  -21.000000  52.000000  0
0.500000  -21.000000  52.000000  0
5.500000  -21.000000  51.000000  0
0.500000  -21.000000  51.000000  0
5.500000  -21.000000  50.000000  0
0.500000  -21.000000  50.000000  0
5.500000  -21.000000  49.000000  0
0.500000  -21.000000  49.000000  0
5.500000  -21.000000  48.000000  0
0.500000  -21.000000  48.000000  0
5.500000  -21.000000  47.000000  0
4.500000  -21.000000  47.000000  0
4.000000  -21.000000  47.500000  0
3.000000  -21.000000  47.500000  0
2.000000  -21.000000  47.500000  0
1.500000  -21.000000  47.000000  0
0.500000  -21.000000  47.000000  0
5.000000  -21.000000  46.500000  0
1.000000  -21.000000  46.500000  0
5.000000  -20.500000  54.000000  0
5.500000  -20.000000  54.000000  0
5.000000  -20.000000  54.500000  0
4.000000  -20.500000  54.000000  0
4.000000  -20.000000  54.500000  0
3.000000  -20.000000  54.500000  0
2.000000  -20.000000  54.500000  0
1.000000  -20.000000  54.500000  0
0.500000  -20.000000  54.000000  0
5.500000  -20.000000  53.000000  0
0.500000  -20.000000  53.000000  0
5.500000  -20.000000  52.000000  0
0.500000  -20.000000  52.000000  0
5.500000  -20.000000  51.000000  0
0.500000  -20.000000  51.000000  0
5.500000  -20.000000  50.000000  0
0.500000  -20.000000  50.000000  0
5.500000  -20.000000  49.000000  0
0.500000  -20.000000  49.000000  0
5.500000  -20.000000  48.000000  0
0.500000  -20.000000  48.000000  0
5.500000  -20.000000  47.000000  0
4.500000  -20.000000  47.000000  0
4.000000  -20.000000  47.500000  0
3.000000  -20.000000  47.500000  0
2.000000  -20.000000  47.500000  0
1.500000  -20.000000  47.000000  0
0.500000  -20.000000  47.000000  0
5.000000  -20.000000  46.500000  0
1.000000  -20.000000  46.500000  0
2.000000  -19.500000  55.000000  0
2.500000  -19.000000  55.000000  0
2.000000  -19.000000  55.500000  0
1.000000  -19.500000  55.000000  0
1.000000  -19.000000  55.500000  0
0.500000  -19.000000  55.000000  0
5.500000  -19.000000  54.000000  0
5.000000  -19.000000  54.500000  0
4.000000  -19.000000  54.500000  0
3.000000  -19.000000  54.500000  0
0.500000  -19.000000  54.000000  0
5.500000  -19.000000  53.000000  0
0.500000  -19.000000  53.000000  0
5.500000  -19.000000  52.000000  0
0.500000  -19.000000  52.000000  0
5.500000  -19.000000  51.000000  0
0.500000  -19.000000  51.000000  0
5.500000  -19.000000  50.000000  0
0.500000  -19.000000  50.000000  0
5.500000  -19.000000  49.000000  0
0.500000  -19.000000  49.000000  0
5.500000  -19.000000  48.000000  0
0.500000  -19.000000  48.000000  0
5.500000  -19.000000  47.000000  0
4.500000  -19.000000  47.000000  0
4.000000  -19.000000  47.500000  0
3.000000  -19.000000  47.500000  0
2.000000  -19.000000  47.500000  0
1.500000  -19.000000  47.000000  0
0.500000  -19.000000  47.000000  0
5.000000  -19.000000  46.500000  0
1.000000  -19.000000  46.500000  0
5.000000  -18.500000  55.000000  0
5.500000  -18.000000  55.000000  0
5.000000  -18.000000  55.500000  0
4.000000  -18.500000  55.000000  0
4.000000  -18.000000  55.500000  0
3.000000  -18.500000  55.000000  0
3.000000  -18.000000  55.500000  0
2.000000  -18.000000  55.500000  0
1.000000  -18.000000  55.500000  0
0.500000  -18.000000  55.000000  0
5.500000  -18.000000  54.000000  0
0.500000  -18.000000  54.000000  0
5.500000  -18.000000  53.000000  0
0.500000  -18.000000  53.000000  0
5.500000  -18.000000  52.000000  0
0.500000  -18.000000  52.000000  0
5.500000  -18.000000  51.000000  0
0.500000  -18.000000  51.000000  0
5.500000  -18.000000  50.000000  0
0.500000  -18.000000  50.000000  0
5.500000  -18.000000  49.000000  0
0.500000  -18.000000  49.000000  0
5.500000  -18.000000  48.000000  0
0.500000  -18.000000  48.000000  0
5.500000  -18.000000  47.000000  0
4.500000  -18.000000  47.000000  0
4.000000  -18.000000  47.500000  0
3.000000  -18.000000  47.500000  0
2.000000  -18.000000  47.500000  0
1.500000  -18.000000  47.000000  0
0.500000  -18.000000  47.000000  0
5.000000  -18.000000  46.500000  0
1.000000  -18.000000  46.500000  0
2.000000  -17.500000  56.000000  0
2.500000  -17.000000  56.000000  0
2.000000  -17.000000  56.500000  0
1.000000  -17.500000  56.000000  0
1.000000  -17.000000  56.500000  0
0.500000  -17.000000  56.000000  0
5.500000  -17.000000  55.000000  0
5.000000  -17.000000  55.500000  0
4.000000  -17.000000  55.500000  0
3.000000  -17.000000  55.500000  0
0.500000  -17.000000  55.000000  0
5.500000  -17.000000  54.000000  0
0.500000  -17.000000  54.000000  0
5.500000  -17.000000  53.000000  0
0.500000  -17.000000  53.000000  0
5.500000  -17.000000  52.000000  0
0.500000  -17.000000  52.000000  0
5.500000  -17.000000  51.000000  0
0.500000  -17.000000  51.000000  0
5.500000  -17.000000  50.000000  0
0.500000  -17.000000  50.000000  0
5.500000  -17.000000  49.000000  0
0.500000  -17.000000  49.000000  0
5.500000  -17.000000  48.000000  0
0.500000  -17.000000  48.000000  0
5.000000  -17.500000  47.000000  0
5.000000  -17.000000  47.500000  0
4.000000  -17.000000  47.500000  0
3.000000  -17.000000  47.500000  0
2.000000  -17.000000  47.500000  0
1.500000  -17.000000  47.000000  0
0.500000  -17.000000  47.000000  0
1.000000  -17.000000  46.500000  0
5.000000  -16.500000  56.000000  0
5.500000  -16.000000  56.000000  0
5.000000  -16.000000  56.500000  0
4.000000  -16.500000  56.000000  0
4.000000  -16.000000  56.500000  0
3.000000  -16.500000  56.000000  0
3.000000  -16.000000  56.500000  0
2.000000  -16.000000  56.500000  0
1.000000  -16.000000  56.500000  0
0.500000  -16.000000  56.000000  0
5.500000  -16.000000  55.000000  0
0.500000  -16.000000  55.000000  0
5.500000  -16.000000  54.000000  0
0.500000  -16.000000  54.000000  0
5.500000  -16.000000  53.000000  0
0.500000  -16.000000  53.000000  0
5.500000  -16.000000  52.000000  0
0.500000  -16.000000  52.000000  0
5.500000  -16.000000  51.000000  0
0.500000  -16.000000  51.000000  0
5.500000  -16.000000  50.000000  0
0.500000  -16.000000  50.000000  0
5.500000  -16.000000  49.000000  0
0.500000  -16.000000  49.000000  0
5.500000  -16.000000  48.000000  0
0.500000  -16.000000  48.000000  0
5.000000  -16.000000  47.500000  0
4.000000  -16.000000  47.500000  0
3.000000  -16.000000  47.500000  0
2.000000  -16.000000  47.500000  0
1.500000  -16.000000  47.000000  0
0.500000  -16.000000  47.000000  0
1.000000  -16.000000  46.500000  0
5.000000  -15.500000  56.000000  0
4.000000  -15.500000  56.000000  0
3.000000  -15.500000  56.000000  0
2.000000  -15.500000  56.000000  0
1.000000  -15.500000  56.000000  0
5.000000  -15.500000  55.000000  0
4.000000  -15.500000  55.000000  0
3.000000  -15.500000  55.000000  0
2.000000  -15.500000  55.000000  0
1.000000  -15.500000  55.000000  0
5.000000  -15.500000  54.000000  0
4.000000  -15.500000  54.000000  0
3.000000  -15.500000  54.000000  0
2.000000  -15.500000  54.000000  0
1.000000  -15.500000  54.000000  0
5.000000  -15.500000  53.000000  0
4.000000  -15.500000  53.000000  0
3.000000  -15.500000  53.000000  0
2.000000  -15.500000  53.000000  0
1.000000  -15.500000  53.000000  0
5.000000  -15.500000  52.000000  0
4.000000  -15.500000  52.000000  0
3.000000  -15.500000  52.000000  0
2.000000  -15.500000  52.000000  0
1.000000  -15.500000  52.000000  0
5.000000  -15.500000  51.000000  0
4.000000  -15.500000  51.000000  0
3.000000  -15.500000  51.000000  0
2.000000  -15.500000  51.000000  0
1.000000  -15.500000  51.000000  0
5.000000  -15.500000  50.000000  0
4.000000  -15.500000  50.000000  0
3.000000  -15.500000  50.000000  0
2.000000  -15.500000  50.000000  0
1.000000  -15.500000  50.000000  0
5.000000  -15.500000  49.000000  0
4.000000  -15.500000  49.000000  0
3.000000  -15.500000  49.000000  0
2.000000  -15.500000  49.000000  0
1.000000  -15.500000  49.000000  0
5.000000  -15.500000  48.000000  0
4.000000  -15.500000  48.000000  0
3.000000  -15.500000  48.000000  0
2.000000  -15.500000  48.000000  0
1.000000  -15.500000  48.000000  0
1.000000  -15.500000  47.000000  0
1 2 0 0
3 2 4 0
0 2 3 0
4 5 3 0
6 5 4 0
6 7 5 0
8 7 6 0
8 9 7 0
10 9 8 0
11 9 10 0
0 13 1 0
12 13 0 0
14 0 3 0
12 0 14 0
15 3 5 0
14 3 15 0
16 5 7 0
15 5 16 0
17 7 9 0
16 7 17 0
11 17 9 0
18 17 11 0
12 20 13 0
19 20 12 0
21 12 14 0
19 12 21 0
22 14 15 0
21 14 22 0
23 15 16 0
22 15 23 0
24 16 17 0
23 16 24 0
18 24 17 0
25 24 18 0
19 27 20 0
26 27 19 0
28 19 21 0
26 19 28 0
29 21 22 0
28 21 29 0
30 22 23 0
29 22 30 0
31 23 24 0
30 23 31 0
25 31 24 0
32 31 25 0
26 34 27 0
33 34 26 0
35 26 28 0
33 26 35 0
36 28 29 0
35 28 36 0
37 29 30 0
36 29 37 0
38 30 31 0
37 30 38 0
32 38 31 0
39 38 32 0
33 41 34 0
40 41 33 0
42 33 35 0
40 33 42 0
43 35 36 0
42 35 43 0
44 36 37 0
43 36 44 0
45 37 38 0
44 37 45 0
39 45 38 0
46 45 39 0
40 48 41 0
47 48 40 0
49 40 42 0
47 40 49 0
50 42 43 0
49 42 50 0
51 43 44 0
50 43 51 0
52 44 45 0
51 44 52 0
46 52 45 0
53 52 46 0
47 55 48 0
54 55 47 0
56 47 49 0
54 47 56 0
57 49 50 0
56 49 57 0
58 50 51 0
57 50 58 0
59 51 52 0
58 51 59 0
53 59 52 0
60 59 53 0
54 62 55 0
61 62 54 0
63 54 56 0
61 54 63 0
64 56 57 0
63 56 64 0
65 57 58 0
64 57 65 0
66 58 59 0
65 58 66 0
60 66 59 0
67 66 60 0
61 69 62 0
68 69 61 0
70 61 63 0
68 61 70 0
71 63 64 0
70 63 71 0
72 64 65 0
71 64 72 0
73 65 66 0
72 65 73 0
67 73 66 0
74 73 67 0
69 68 75 0
68 76 75 0
70 76 68 0
70 77 76 0
71 77 70 0
71 78 77 0
72 78 71 0
72 79 78 0
73 79 72 0
73 74 79 0
81 1 80 0
2 1 81 0
82 2 81 0
4 2 82 0
83 4 82 0
6 4 83 0
84 6 83 0
8 6 84 0
85 8 84 0
10 8 85 0
86 10 85 0
11 10 86 0
1 87 80 0
13 87 1 0
18 86 88 0
11 86 18 0
13 89 87 0
20 89 13 0
25 88 90 0
18 88 25 0
20 91 89 0
27 91 20 0
32 90 92 0
25 90 32 0
27 93 91 0
34 93 27 0
39 92 94 0
32 92 39 0
34 95 93 0
41 95 34 0
46 94 96 0
39 94 46 0
41 97 95 0
48 97 41 0
53 96 98 0
46 96 53 0
48 99 97 0
55 99 48 0
60 98 100 0
53 98 60 0
55 101 99 0
62 101 55 0
67 100 102 0
60 100 67 0
101 62 69 0
104 101 69 0
103 104 69 0
103 105 104 0
104 105 106 0
105 107 106 0
106 107 108 0
107 109 108 0
108 109 110 0
109 111 110 0
110 111 112 0
74 67 102 0
111 74 102 0
112 111 102 0
103 69 75 0
75 105 103 0
76 105 75 0
76 107 105 0
77 107 76 0
77 109 107 0
78 109 77 0
78 111 109 0
79 111 78 0
79 74 111 0
114 80 113 0
81 80 114 0
115 81 114 0
82 81 115 0
116 82 115 0
83 82 116 0
117 83 116 0
84 83 117 0
118 84 117 0
85 84 118 0
119 85 118 0
86 85 119 0
80 120 113 0
87 120 80 0
88 119 121 0
86 119 88 0
87 122 120 0
89 122 87 0
90 121 123 0
88 121 90 0
89 124 122 0
91 124 89 0
92 123 125 0
90 123 92 0
91 126 124 0
93 126 91 0
94 125 127 0
92 125 94 0
93 128 126 0
95 128 93 0
96 127 129 0
94 127 96 0
95 130 128 0
97 130 95 0
98 129 131 0
96 129 98 0
97 132 130 0
99 132 97 0
134 133 135 0
100 98 131 0
133 100 131 0
135 133 131 0
132 99 101 0
137 132 101 0
136 137 101 0
136 138 137 0
137 138 139 0
138 140 139 0
139 140 141 0
140 142 141 0
141 142 143 0
142 144 133 0
142 133 134 0
142 134 143 0
133 102 100 0
144 102 133 0
136 101 104 0
104 138 136 0
106 138 104 0
106 140 138 0
108 140 106 0
108 142 140 0
110 142 108 0
110 144 142 0
112 144 110 0
112 102 144 0
147 145 146 0
148 145 147 0
150 113 149 0
114 113 150 0
151 114 150 0
115 114 151 0
152 115 151 0
116 115 152 0
153 116 152 0
117 116 153 0
118 117 153 0
118 153 146 0
118 146 145 0
148 154 119 0
145 148 119 0
118 145 119 0
113 155 149 0
120 155 113 0
121 154 156 0
119 154 121 0
120 157 155 0
122 157 120 0
123 156 158 0
121 156 123 0
122 159 157 0
124 159 122 0
125 158 160 0
123 158 125 0
124 161 159 0
126 161 124 0
127 160 162 0
125 160 127 0
126 163 161 0
128 163 126 0
129 162 164 0
127 162 129 0
163 128 130 0
166 163 130 0
165 166 130 0
166 165 167 0
131 129 164 0
131 164 169 0
131 169 168 0
170 168 169 0
171 130 132 0
165 130 171 0
165 171 172 0
165 172 173 0
165 173 167 0
172 174 173 0
173 174 175 0
174 176 175 0
175 176 177 0
135 178 177 0
135 177 176 0
135 176 134 0
179 178 135 0
168 179 135 0
131 168 135 0
168 170 179 0
171 132 137 0
137 172 171 0
139 172 137 0
139 174 172 0
141 174 139 0
141 176 174 0
143 176 141 0
143 134 176 0
181 146 180 0
147 146 181 0
182 147 181 0
148 147 182 0
184 149 183 0
150 149 184 0
185 150 184 0
151 150 185 0
186 151 185 0
152 151 186 0
187 152 186 0
153 152 187 0
153 187 146 0
146 187 180 0
154 182 188 0
148 182 154 0
149 189 183 0
155 189 149 0
156 188 190 0
154 188 156 0
155 191 189 0
157 191 155 0
158 190 192 0
156 190 158 0
191 157 159 0
194 191 159 0
193 194 159 0
194 193 195 0
160 158 192 0
160 192 197 0
160 197 196 0
198 196 197 0
199 159 161 0
193 159 199 0
193 199 195 0
195 199 200 0
162 160 201 0
201 160 196 0
198 201 196 0
202 201 198 0
203 161 163 0
199 161 203 0
199 203 200 0
200 203 204 0
164 162 205 0
205 162 201 0
202 205 201 0
206 205 202 0
203 163 166 0
167 207 204 0
167 204 203 0
167 203 166 0
169 164 205 0
206 208 170 0
205 206 170 0
169 205 170 0
207 173 209 0
167 173 207 0
209 175 210 0
173 175 209 0
210 177 211 0
175 177 210 0
211 178 212 0
177 178 211 0
212 179 213 0
178 179 212 0
170 213 179 0
208 213 170 0
216 214 215 0
216 217 181 0
214 216 181 0
180 214 181 0
218 181 217 0
182 181 218 0
184 183 219 0
221 185 184 0
220 221 184 0
219 220 184 0
222 185 221 0
186 185 222 0
187 186 222 0
187 222 215 0
187 215 214 0
214 180 187 0
188 182 218 0
188 218 224 0
188 224 223 0
225 223 224 0
226 183 189 0
219 183 226 0
219 226 220 0
220 226 227 0
190 188 228 0
228 188 223 0
225 228 223 0
229 228 225 0
230 189 191 0
226 189 230 0
226 230 227 0
227 230 231 0
192 190 232 0
232 190 228 0
229 232 228 0
233 232 229 0
230 191 194 0
195 234 231 0
195 231 230 0
195 230 194 0
197 192 232 0
233 235 198 0
232 233 198 0
197 232 198 0
195 236 234 0
200 236 195 0
202 235 237 0
198 235 202 0
236 200 204 0
239 236 204 0
238 239 204 0
238 240 239 0
239 240 241 0
240 242 241 0
241 242 243 0
242 244 243 0
243 244 245 0
245 244 246 0
206 237 247 0
202 237 206 0
248 204 207 0
238 204 248 0
248 240 238 0
249 240 248 0
249 242 240 0
250 242 249 0
250 244 242 0
251 244 250 0
244 251 252 0
244 252 253 0
244 253 246 0
208 206 247 0
252 208 247 0
253 252 247 0
248 207 209 0
209 249 248 0
210 249 209 0
210 250 249 0
211 250 210 0
211 251 250 0
212 251 211 0
212 252 251 0
213 252 212 0
213 208 252 0
256 254 255 0
257 254 256 0
260 258 259 0
260 261 258 0
262 261 260 0
262 263 216 0
261 262 216 0
215 261 216 0
264 216 263 0
217 216 264 0
265 255 254 0
265 264 255 0
218 264 265 0
217 264 218 0
257 265 254 0
266 265 257 0
220 267 259 0
221 220 259 0
258 221 259 0
258 261 221 0
221 261 222 0
261 215 222 0
224 218 265 0
266 268 225 0
265 266 225 0
224 265 225 0
220 269 267 0
227 269 220 0
229 268 270 0
225 268 229 0
227 271 269 0
231 271 227 0
233 270 272 0
229 270 233 0
231 273 271 0
234 273 231 0
235 272 274 0
233 272 235 0
234 275 273 0
236 275 234 0
277 276 278 0
276 279 278 0
278 279 280 0
279 281 280 0
280 281 282 0
282 281 283 0
237 274 284 0
235 274 237 0
275 239 285 0
236 239 275 0
285 239 241 0
277 285 241 0
276 277 241 0
241 279 276 0
243 279 241 0
243 281 279 0
245 281 243 0
281 287 283 0
281 245 287 0
245 286 287 0
246 286 245 0
247 237 284 0
286 247 284 0
287 286 284 0
286 246 253 0
253 247 286 0
290 288 289 0
290 291 288 0
292 291 290 0
292 293 291 0
294 293 292 0
294 295 293 0
296 295 294 0
296 297 256 0
295 296 256 0
255 295 256 0
298 256 297 0
257 256 298 0
259 299 289 0
260 259 289 0
288 260 289 0
288 291 260 0
260 291 262 0
291 293 262 0
262 293 263 0
293 295 263 0
263 295 264 0
295 255 264 0
266 298 300 0
257 298 266 0
259 301 299 0
267 301 259 0
268 300 302 0
266 300 268 0
267 303 301 0
269 303 267 0
270 302 304 0
268 302 270 0
269 305 303 0
271 305 269 0
272 304 306 0
270 304 272 0
271 307 305 0
273 307 271 0
274 306 308 0
272 306 274 0
273 309 307 0
275 309 273 0
310 277 311 0
311 277 278 0
311 280 312 0
278 280 311 0
312 282 313 0
280 282 312 0
313 282 314 0
314 282 283 0
284 308 315 0
274 308 284 0
309 285 316 0
275 285 309 0
277 316 285 0
310 316 277 0
314 287 317 0
283 287 314 0
284 317 287 0
315 317 284 0
320 318 319 0
320 321 318 0
322 321 320 0
322 323 321 0
324 323 322 0
325 323 324 0
327 289 326 0
290 289 327 0
328 290 327 0
292 290 328 0
294 292 328 0
294 328 319 0
294 319 318 0
318 321 294 0
294 321 296 0
321 323 296 0
296 323 297 0
325 329 298 0
323 325 298 0
297 323 298 0
289 330 326 0
299 330 289 0
300 329 331 0
298 329 300 0
299 332 330 0
301 332 299 0
302 331 333 0
300 331 302 0
301 334 332 0
303 334 301 0
304 333 335 0
302 333 304 0
303 336 334 0
305 336 303 0
306 335 337 0
304 335 306 0
305 338 336 0
307 338 305 0
308 337 339 0
306 337 308 0
307 340 338 0
309 340 307 0
341 310 342 0
342 310 311 0
342 312 343 0
311 312 342 0
343 313 344 0
312 313 343 0
344 313 345 0
345 313 314 0
315 339 346 0
308 339 315 0
340 316 347 0
309 316 340 0
310 347 316 0
341 347 310 0
345 317 348 0
314 317 345 0
315 348 317 0
346 348 315 0
351 349 350 0
351 352 349 0
353 352 351 0
353 354 320 0
352 353 320 0
319 352 320 0
355 320 354 0
322 320 355 0
356 322 355 0
324 322 356 0
357 324 356 0
325 324 357 0
326 358 350 0
327 326 350 0
349 327 350 0
349 352 327 0
327 352 328 0
352 319 328 0
329 357 359 0
325 357 329 0
326 360 358 0
330 360 326 0
331 359 361 0
329 359 331 0
330 362 360 0
332 362 330 0
333 361 363 0
331 361 333 0
332 364 362 0
334 364 332 0
335 363 365 0
333 363 335 0
334 366 364 0
336 366 334 0
337 365 367 0
335 365 337 0
336 368 366 0
338 368 336 0
339 367 369 0
337 367 339 0
338 370 368 0
340 370 338 0
371 341 372 0
372 341 342 0
372 343 373 0
342 343 372 0
373 344 374 0
343 344 373 0
374 344 375 0
375 344 345 0
346 369 376 0
339 369 346 0
370 347 377 0
340 347 370 0
341 377 347 0
371 377 341 0
375 348 378 0
345 348 375 0
346 378 348 0
376 378 346 0
381 379 380 0
381 382 379 0
383 382 381 0
384 382 383 0
386 350 385 0
351 350 386 0
387 351 386 0
353 351 387 0
388 353 387 0
354 353 388 0
355 354 388 0
355 388 380 0
355 380 379 0
379 382 355 0
355 382 356 0
384 389 357 0
382 384 357 0
356 382 357 0
350 390 385 0
358 390 350 0
359 389 391 0
357 389 359 0
358 392 390 0
360 392 358 0
361 391 393 0
359 391 361 0
360 394 392 0
362 394 360 0
363 393 395 0
361 393 363 0
362 396 394 0
364 396 362 0
365 395 397 0
363 395 365 0
364 398 396 0
366 398 364 0
367 397 399 0
365 397 367 0
366 400 398 0
368 400 366 0
369 399 401 0
367 399 369 0
368 402 400 0
370 402 368 0
403 371 404 0
404 371 372 0
404 373 405 0
372 373 404 0
405 374 406 0
373 374 405 0
406 374 407 0
407 374 375 0
376 401 408 0
369 401 376 0
402 377 409 0
370 377 402 0
371 409 377 0
403 409 371 0
407 378 410 0
375 378 407 0
376 410 378 0
408 410 376 0
413 411 412 0
413 414 411 0
415 414 413 0
415 416 414 0
417 416 415 0
417 418 381 0
416 417 381 0
380 416 381 0
419 381 418 0
383 381 419 0
420 383 419 0
384 383 420 0
385 421 412 0
386 385 412 0
411 386 412 0
411 414 386 0
386 414 387 0
414 416 387 0
387 416 388 0
416 380 388 0
389 420 422 0
384 420 389 0
385 423 421 0
390 423 385 0
391 422 424 0
389 422 391 0
390 425 423 0
392 425 390 0
393 424 426 0
391 424 393 0
392 427 425 0
394 427 392 0
395 426 428 0
393 426 395 0
394 429 427 0
396 429 394 0
397 428 430 0
395 428 397 0
396 431 429 0
398 431 396 0
399 430 432 0
397 430 399 0
398 433 431 0
400 433 398 0
401 432 434 0
399 432 401 0
400 435 433 0
402 435 400 0
436 403 437 0
437 403 404 0
437 405 438 0
404 405 437 0
438 406 439 0
405 406 438 0
439 406 440 0
440 406 407 0
408 434 441 0
401 434 408 0
435 409 442 0
402 409 435 0
403 442 409 0
436 442 403 0
440 410 443 0
407 410 440 0
408 443 410 0
441 443 408 0
446 444 445 0
446 447 444 0
448 447 446 0
449 447 448 0
451 412 450 0
413 412 451 0
452 413 451 0
415 413 452 0
453 415 452 0
417 415 453 0
418 417 453 0
418 453 445 0
418 445 444 0
444 447 418 0
418 447 419 0
449 454 420 0
447 449 420 0
419 447 420 0
412 455 450 0
421 455 412 0
422 454 456 0
420 454 422 0
421 457 455 0
423 457 421 0
424 456 458 0
422 456 424 0
423 459 457 0
425 459 423 0
426 458 460 0
424 458 426 0
425 461 459 0
427 461 425 0
428 460 462 0
426 460 428 0
427 463 461 0
429 463 427 0
430 462 464 0
428 462 430 0
429 465 463 0
431 465 429 0
432 464 466 0
430 464 432 0
431 467 465 0
433 467 431 0
434 466 468 0
432 466 434 0
467 433 435 0
470 467 435 0
469 470 435 0
437 471 470 0
437 470 469 0
437 469 436 0
471 438 472 0
437 438 471 0
472 439 473 0
438 439 472 0
473 439 474 0
474 439 440 0
441 468 475 0
434 468 441 0
469 435 442 0
442 436 469 0
474 443 476 0
440 443 474 0
441 476 443 0
475 476 441 0
479 477 478 0
479 480 477 0
481 480 479 0
481 482 480 0
483 482 481 0
483 484 446 0
482 483 446 0
445 482 446 0
485 446 484 0
448 446 485 0
486 448 485 0
449 448 486 0
450 487 478 0
451 450 478 0
477 451 478 0
477 480 451 0
451 480 452 0
480 482 452 0
452 482 453 0
482 445 453 0
454 486 488 0
449 486 454 0
450 489 487 0
455 489 450 0
456 488 490 0
454 488 456 0
455 491 489 0
457 491 455 0
458 490 492 0
456 490 458 0
457 493 491 0
459 493 457 0
460 492 494 0
458 492 460 0
459 495 493 0
461 495 459 0
462 494 496 0
460 494 462 0
461 497 495 0
463 497 461 0
464 496 498 0
462 496 464 0
463 499 497 0
465 499 463 0
466 498 500 0
464 498 466 0
465 501 499 0
467 501 465 0
468 500 502 0
466 500 468 0
501 470 503 0
467 470 501 0
503 471 504 0
470 471 503 0
504 472 505 0
471 472 504 0
505 473 506 0
472 473 505 0
506 473 507 0
507 473 474 0
475 502 508 0
468 502 475 0
507 476 509 0
474 476 507 0
475 509 476 0
508 509 475 0
479 478 510 0
481 510 511 0
479 510 481 0
483 511 512 0
481 511 483 0
484 512 513 0
483 512 484 0
485 513 514 0
484 513 485 0
485 514 486 0
515 478 487 0
510 478 515 0
515 511 510 0
516 511 515 0
516 512 511 0
517 512 516 0
517 513 512 0
518 513 517 0
518 514 513 0
519 514 518 0
514 488 486 0
519 488 514 0
520 487 489 0
515 487 520 0
520 516 515 0
521 516 520 0
521 517 516 0
522 517 521 0
522 518 517 0
523 518 522 0
523 519 518 0
524 519 523 0
519 490 488 0
524 490 519 0
525 489 491 0
520 489 525 0
525 521 520 0
526 521 525 0
526 522 521 0
527 522 526 0
527 523 522 0
528 523 527 0
528 524 523 0
529 524 528 0
524 492 490 0
529 492 524 0
530 491 493 0
525 491 530 0
530 526 525 0
531 526 530 0
531 527 526 0
532 527 531 0
532 528 527 0
533 528 532 0
533 529 528 0
534 529 533 0
529 494 492 0
534 494 529 0
535 493 495 0
530 493 535 0
535 531 530 0
536 531 535 0
536 532 531 0
537 532 536 0
537 533 532 0
538 533 537 0
538 534 533 0
539 534 538 0
534 496 494 0
539 496 534 0
540 495 497 0
535 495 540 0
540 536 535 0
541 536 540 0
541 537 536 0
542 537 541 0
542 538 537 0
543 538 542 0
543 539 538 0
544 539 543 0
539 498 496 0
544 498 539 0
545 497 499 0
540 497 545 0
545 541 540 0
546 541 545 0
546 542 541 0
547 542 546 0
547 543 542 0
548 543 547 0
548 544 543 0
549 544 548 0
544 500 498 0
549 500 544 0
550 499 501 0
545 499 550 0
550 546 545 0
551 546 550 0
551 547 546 0
552 547 551 0
552 548 547 0
553 548 552 0
553 549 548 0
554 549 553 0
549 502 500 0
554 502 549 0
550 501 503 0
503 551 550 0
504 551 503 0
504 552 551 0
505 552 504 0
505 553 552 0
506 553 505 0
555 554 553 0
507 555 553 0
506 507 553 0
554 508 502 0
555 508 554 0
555 507 509 0
509 508 555 0
