#!ascii version of
842 1680
2.500000  -42.000000  42.000000  0
1.500000  -42.000000  42.000000  0
2.000000  -42.500000  41.000000  0
2.500000  -42.000000  41.000000  0
1.500000  -42.000000  41.000000  0
2.500000  -42.000000  40.000000  0
1.500000  -42.000000  40.000000  0
6.000000  -42.500000  39.000000  0
6.500000  -42.000000  39.000000  0
6.000000  -42.000000  39.500000  0
5.000000  -42.500000  39.000000  0
5.000000  -42.000000  39.500000  0
4.000000  -42.500000  39.000000  0
4.000000  -42.000000  39.500000  0
3.000000  -42.500000  39.000000  0
3.000000  -42.000000  39.500000  0
1.500000  -42.000000  39.000000  0
6.000000  -42.500000  38.000000  0
6.500000  -42.000000  38.000000  0
5.000000  -42.500000  38.000000  0
4.000000  -42.500000  38.000000  0
3.000000  -42.500000  38.000000  0
1.500000  -42.000000  38.000000  0
6.000000  -42.500000  37.000000  0
6.500000  -42.000000  37.000000  0
5.000000  -42.500000  37.000000  0
2.000000  -42.500000  37.000000  0
1.500000  -42.000000  37.000000  0
6.000000  -42.500000  36.000000  0
6.500000  -42.000000  36.000000  0
5.000000  -42.500000  36.000000  0
2.000000  -42.500000  36.000000  0
1.500000  -42.000000  36.000000  0
6.000000  -42.500000  35.000000  0
6.500000  -42.000000  35.000000  0
5.000000  -42.500000  35.000000  0
2.000000  -42.500000  35.000000  0
1.500000  -42.000000  35.000000  0
6.000000  -42.500000  34.000000  0
6.500000  -42.000000  34.000000  0
5.000000  -42.500000  34.000000  0
3.000000  -42.500000  34.000000  0
2.000000  -42.500000  34.000000  0
1.500000  -42.000000  34.000000  0
6.000000  -42.500000  33.000000  0
6.500000  -42.000000  33.000000  0
5.000000  -42.500000  33.000000  0
4.000000  -42.500000  33.000000  0
3.000000  -42.500000  33.000000  0
2.000000  -42.500000  33.000000  0
1.500000  -42.000000  33.000000  0
6.000000  -42.500000  32.000000  0
6.500000  -42.000000  32.000000  0
5.500000  -42.000000  32.000000  0
5.000000  -42.000000  32.500000  0
4.000000  -42.000000  32.500000  0
3.000000  -42.000000  32.500000  0
2.000000  -42.500000  32.000000  0
2.500000  -42.000000  32.000000  0
1.500000  -42.000000  32.000000  0
6.000000  -42.000000  31.500000  0
2.000000  -42.000000  31.500000  0
6.000000  -41.500000  45.000000  0
6.500000  -41.000000  45.000000  0
6.000000  -41.000000  45.500000  0
5.500000  -41.000000  45.000000  0
6.000000  -41.500000  44.000000  0
6.500000  -41.000000  44.000000  0
5.500000  -41.000000  44.000000  0
2.000000  -41.500000  44.000000  0
2.500000  -41.000000  44.000000  0
2.000000  -41.000000  44.500000  0
1.500000  -41.000000  44.000000  0
6.000000  -41.500000  43.000000  0
6.500000  -41.000000  43.000000  0
5.000000  -41.500000  43.000000  0
5.000000  -41.000000  43.500000  0
4.000000  -41.500000  43.000000  0
4.000000  -41.000000  43.500000  0
3.000000  -41.500000  43.000000  0
3.000000  -41.000000  43.500000  0
1.500000  -41.000000  43.000000  0
6.000000  -41.500000  42.000000  0
6.500000  -41.000000  42.000000  0
5.000000  -41.500000  42.000000  0
4.000000  -41.500000  42.000000  0
3.000000  -41.500000  42.000000  0
1.500000  -41.000000  42.000000  0
6.000000  -41.500000  41.000000  0
6.500000  -41.000000  41.000000  0
5.000000  -41.500000  41.000000  0
4.000000  -41.500000  41.000000  0
3.000000  -41.500000  41.000000  0
1.500000  -41.000000  41.000000  0
6.000000  -41.500000  40.000000  0
6.500000  -41.000000  40.000000  0
5.000000  -41.500000  40.000000  0
4.000000  -41.500000  40.000000  0
3.000000  -41.500000  40.000000  0
1.500000  -41.000000  40.000000  0
6.500000  -41.000000  39.000000  0
1.500000  -41.000000  39.000000  0
6.500000  -41.000000  38.000000  0
1.500000  -41.000000  38.000000  0
6.500000  -41.000000  37.000000  0
1.500000  -41.000000  37.000000  0
6.500000  -41.000000  36.000000  0
1.500000  -41.000000  36.000000  0
6.500000  -41.000000  35.000000  0
1.500000  -41.000000  35.000000  0
6.500000  -41.000000  34.000000  0
1.500000  -41.000000  34.000000  0
6.500000  -41.000000  33.000000  0
1.500000  -41.000000  33.000000  0
6.500000  -41.000000  32.000000  0
5.500000  -41.000000  32.000000  0
5.000000  -41.000000  32.500000  0
4.000000  -41.000000  32.500000  0
3.000000  -41.000000  32.500000  0
2.500000  -41.000000  32.000000  0
1.500000  -41.000000  32.000000  0
6.000000  -41.500000  31.000000  0
6.500000  -41.000000  31.000000  0
5.500000  -41.000000  31.000000  0
2.000000  -41.000000  31.500000  0
6.000000  -41.000000  30.500000  0
2.000000  -40.500000  46.000000  0
2.500000  -40.000000  46.000000  0
2.000000  -40.000000  46.500000  0
1.500000  -40.000000  46.000000  0
6.500000  -40.000000  45.000000  0
6.000000  -40.000000  45.500000  0
5.500000  -40.000000  45.000000  0
2.000000  -40.500000  45.000000  0
2.500000  -40.000000  45.000000  0
1.500000  -40.000000  45.000000  0
6.500000  -40.000000  44.000000  0
5.000000  -40.500000  44.000000  0
5.000000  -40.000000  44.500000  0
4.000000  -40.500000  44.000000  0
4.000000  -40.000000  44.500000  0
3.000000  -40.500000  44.000000  0
3.000000  -40.000000  44.500000  0
1.500000  -40.000000  44.000000  0
6.500000  -40.000000  43.000000  0
1.500000  -40.000000  43.000000  0
6.500000  -40.000000  42.000000  0
1.500000  -40.000000  42.000000  0
6.500000  -40.000000  41.000000  0
1.500000  -40.000000  41.000000  0
6.500000  -40.000000  40.000000  0
1.500000  -40.000000  40.000000  0
6.500000  -40.000000  39.000000  0
1.500000  -40.000000  39.000000  0
6.500000  -40.000000  38.000000  0
1.500000  -40.000000  38.000000  0
6.500000  -40.000000  37.000000  0
1.500000  -40.000000  37.000000  0
6.500000  -40.000000  36.000000  0
1.500000  -40.000000  36.000000  0
6.500000  -40.000000  35.000000  0
1.500000  -40.000000  35.000000  0
6.500000  -40.000000  34.000000  0
1.500000  -40.000000  34.000000  0
6.500000  -40.000000  33.000000  0
1.500000  -40.000000  33.000000  0
6.500000  -40.000000  32.000000  0
5.000000  -40.500000  32.000000  0
4.000000  -40.500000  32.000000  0
3.000000  -40.500000  32.000000  0
1.500000  -40.000000  32.000000  0
6.500000  -40.000000  31.000000  0
5.500000  -40.000000  31.000000  0
5.000000  -40.000000  31.500000  0
4.000000  -40.000000  31.500000  0
3.000000  -40.000000  31.500000  0
2.000000  -40.000000  31.500000  0
6.000000  -40.000000  30.500000  0
6.000000  -39.500000  46.000000  0
6.500000  -39.000000  46.000000  0
6.000000  -39.000000  46.500000  0
5.000000  -39.500000  46.000000  0
5.000000  -39.000000  46.500000  0
4.000000  -39.500000  46.000000  0
4.000000  -39.000000  46.500000  0
3.000000  -39.500000  46.000000  0
3.000000  -39.000000  46.500000  0
2.000000  -39.000000  46.500000  0
1.500000  -39.000000  46.000000  0
6.500000  -39.000000  45.000000  0
5.000000  -39.500000  45.000000  0
4.000000  -39.500000  45.000000  0
3.000000  -39.500000  45.000000  0
1.500000  -39.000000  45.000000  0
6.500000  -39.000000  44.000000  0
1.500000  -39.000000  44.000000  0
6.500000  -39.000000  43.000000  0
1.500000  -39.000000  43.000000  0
6.500000  -39.000000  42.000000  0
1.500000  -39.000000  42.000000  0
6.500000  -39.000000  41.000000  0
1.500000  -39.000000  41.000000  0
6.500000  -39.000000  40.000000  0
1.500000  -39.000000  40.000000  0
6.500000  -39.000000  39.000000  0
1.500000  -39.000000  39.000000  0
6.500000  -39.000000  38.000000  0
1.500000  -39.000000  38.000000  0
6.500000  -39.000000  37.000000  0
1.500000  -39.000000  37.000000  0
6.500000  -39.000000  36.000000  0
1.500000  -39.000000  36.000000  0
6.500000  -39.000000  35.000000  0
1.500000  -39.000000  35.000000  0
6.500000  -39.000000  34.000000  0
1.500000  -39.000000  34.000000  0
6.500000  -39.000000  33.000000  0
1.500000  -39.000000  33.000000  0
6.500000  -39.000000  32.000000  0
1.500000  -39.000000  32.000000  0
6.500000  -39.000000  31.000000  0
5.000000  -39.500000  31.000000  0
4.000000  -39.500000  31.000000  0
3.000000  -39.500000  31.000000  0
2.000000  -39.500000  31.000000  0
1.500000  -39.000000  31.000000  0
6.000000  -39.500000  30.000000  0
6.500000  -39.000000  30.000000  0
5.000000  -39.500000  30.000000  0
4.000000  -39.500000  30.000000  0
3.000000  -39.500000  30.000000  0
2.000000  -39.500000  30.000000  0
1.500000  -39.000000  30.000000  0
6.000000  -39.500000  29.000000  0
6.500000  -39.000000  29.000000  0
5.000000  -39.500000  29.000000  0
4.000000  -39.500000  29.000000  0
3.000000  -39.500000  29.000000  0
2.000000  -39.500000  29.000000  0
1.500000  -39.000000  29.000000  0
6.000000  -39.000000  28.500000  0
5.000000  -39.500000  28.000000  0
5.500000  -39.000000  28.000000  0
4.000000  -39.500000  28.000000  0
3.000000  -39.500000  28.000000  0
2.000000  -39.500000  28.000000  0
1.500000  -39.000000  28.000000  0
5.000000  -39.000000  27.500000  0
4.000000  -39.000000  27.500000  0
3.000000  -39.000000  27.500000  0
2.000000  -39.000000  27.500000  0
6.500000  -38.000000  46.000000  0
6.000000  -38.000000  46.500000  0
5.000000  -38.000000  46.500000  0
4.000000  -38.000000  46.500000  0
3.000000  -38.000000  46.500000  0
2.000000  -38.000000  46.500000  0
1.500000  -38.000000  46.000000  0
6.500000  -38.000000  45.000000  0
1.500000  -38.000000  45.000000  0
6.500000  -38.000000  44.000000  0
1.500000  -38.000000  44.000000  0
6.500000  -38.000000  43.000000  0
1.500000  -38.000000  43.000000  0
6.500000  -38.000000  42.000000  0
1.500000  -38.000000  42.000000  0
6.500000  -38.000000  41.000000  0
1.500000  -38.000000  41.000000  0
6.500000  -38.000000  40.000000  0
1.500000  -38.000000  40.000000  0
6.500000  -38.000000  39.000000  0
1.500000  -38.000000  39.000000  0
6.500000  -38.000000  38.000000  0
1.500000  -38.000000  38.000000  0
6.500000  -38.000000  37.000000  0
1.500000  -38.000000  37.000000  0
6.500000  -38.000000  36.000000  0
1.500000  -38.000000  36.000000  0
6.500000  -38.000000  35.000000  0
1.500000  -38.000000  35.000000  0
6.500000  -38.000000  34.000000  0
1.500000  -38.000000  34.000000  0
6.500000  -38.000000  33.000000  0
1.500000  -38.000000  33.000000  0
6.500000  -38.000000  32.000000  0
1.500000  -38.000000  32.000000  0
6.500000  -38.000000  31.000000  0
1.500000  -38.000000  31.000000  0
6.500000  -38.000000  30.000000  0
1.500000  -38.000000  30.000000  0
6.500000  -38.000000  29.000000  0
2.000000  -38.500000  29.000000  0
2.500000  -38.000000  29.000000  0
2.000000  -38.000000  29.500000  0
6.000000  -38.000000  28.500000  0
5.000000  -38.500000  28.000000  0
5.000000  -38.000000  28.500000  0
4.000000  -38.500000  28.000000  0
4.000000  -38.000000  28.500000  0
3.000000  -38.500000  28.000000  0
3.000000  -38.000000  28.500000  0
2.000000  -38.500000  28.000000  0
6.000000  -37.500000  47.000000  0
6.500000  -37.000000  47.000000  0
6.000000  -37.000000  47.500000  0
5.000000  -37.500000  47.000000  0
5.000000  -37.000000  47.500000  0
4.000000  -37.500000  47.000000  0
4.000000  -37.000000  47.500000  0
3.000000  -37.500000  47.000000  0
3.000000  -37.000000  47.500000  0
2.000000  -37.500000  47.000000  0
2.000000  -37.000000  47.500000  0
1.500000  -37.000000  47.000000  0
6.500000  -37.000000  46.000000  0
1.500000  -37.000000  46.000000  0
6.500000  -37.000000  45.000000  0
1.500000  -37.000000  45.000000  0
6.500000  -37.000000  44.000000  0
1.500000  -37.000000  44.000000  0
6.500000  -37.000000  43.000000  0
1.500000  -37.000000  43.000000  0
6.500000  -37.000000  42.000000  0
1.500000  -37.000000  42.000000  0
6.500000  -37.000000  41.000000  0
1.500000  -37.000000  41.000000  0
6.500000  -37.000000  40.000000  0
1.500000  -37.000000  40.000000  0
6.500000  -37.000000  39.000000  0
1.500000  -37.000000  39.000000  0
6.500000  -37.000000  38.000000  0
1.500000  -37.000000  38.000000  0
6.500000  -37.000000  37.000000  0
1.500000  -37.000000  37.000000  0
6.500000  -37.000000  36.000000  0
1.500000  -37.000000  36.000000  0
6.500000  -37.000000  35.000000  0
1.500000  -37.000000  35.000000  0
6.500000  -37.000000  34.000000  0
1.500000  -37.000000  34.000000  0
6.500000  -37.000000  33.000000  0
1.500000  -37.000000  33.000000  0
6.500000  -37.000000  32.000000  0
1.500000  -37.000000  32.000000  0
6.500000  -37.000000  31.000000  0
1.500000  -37.000000  31.000000  0
6.500000  -37.000000  30.000000  0
2.000000  -37.500000  30.000000  0
2.500000  -37.000000  30.000000  0
2.000000  -37.000000  30.500000  0
6.000000  -37.500000  29.000000  0
6.000000  -37.000000  29.500000  0
5.000000  -37.500000  29.000000  0
5.000000  -37.000000  29.500000  0
4.000000  -37.500000  29.000000  0
4.000000  -37.000000  29.500000  0
3.000000  -37.500000  29.000000  0
3.000000  -37.000000  29.500000  0
6.000000  -36.500000  48.000000  0
6.500000  -36.000000  48.000000  0
6.000000  -36.000000  48.500000  0
5.000000  -36.500000  48.000000  0
5.000000  -36.000000  48.500000  0
4.000000  -36.500000  48.000000  0
4.000000  -36.000000  48.500000  0
3.000000  -36.500000  48.000000  0
3.000000  -36.000000  48.500000  0
2.000000  -36.500000  48.000000  0
2.000000  -36.000000  48.500000  0
1.500000  -36.000000  48.000000  0
6.500000  -36.000000  47.000000  0
1.500000  -36.000000  47.000000  0
6.500000  -36.000000  46.000000  0
1.500000  -36.000000  46.000000  0
6.500000  -36.000000  45.000000  0
1.500000  -36.000000  45.000000  0
6.500000  -36.000000  44.000000  0
1.500000  -36.000000  44.000000  0
6.500000  -36.000000  43.000000  0
1.500000  -36.000000  43.000000  0
6.500000  -36.000000  42.000000  0
1.500000  -36.000000  42.000000  0
6.500000  -36.000000  41.000000  0
1.500000  -36.000000  41.000000  0
6.500000  -36.000000  40.000000  0
1.500000  -36.000000  40.000000  0
6.500000  -36.000000  39.000000  0
1.500000  -36.000000  39.000000  0
6.500000  -36.000000  38.000000  0
1.500000  -36.000000  38.000000  0
6.500000  -36.000000  37.000000  0
1.500000  -36.000000  37.000000  0
6.500000  -36.000000  36.000000  0
1.500000  -36.000000  36.000000  0
6.500000  -36.000000  35.000000  0
1.500000  -36.000000  35.000000  0
6.500000  -36.000000  34.000000  0
1.500000  -36.000000  34.000000  0
6.500000  -36.000000  33.000000  0
1.500000  -36.000000  33.000000  0
6.500000  -36.000000  32.000000  0
1.500000  -36.000000  32.000000  0
6.500000  -36.000000  31.000000  0
1.500000  -36.000000  31.000000  0
6.000000  -36.500000  30.000000  0
6.000000  -36.000000  30.500000  0
5.000000  -36.500000  30.000000  0
5.000000  -36.000000  30.500000  0
4.000000  -36.500000  30.000000  0
4.000000  -36.000000  30.500000  0
3.000000  -36.500000  30.000000  0
3.000000  -36.000000  30.500000  0
2.000000  -36.000000  30.500000  0
6.000000  -35.500000  50.000000  0
6.500000  -35.000000  50.000000  0
6.000000  -35.000000  50.500000  0
5.500000  -35.000000  50.000000  0
2.000000  -35.500000  50.000000  0
2.500000  -35.000000  50.000000  0
2.000000  -35.000000  50.500000  0
1.500000  -35.000000  50.000000  0
6.000000  -35.500000  49.000000  0
6.500000  -35.000000  49.000000  0
5.000000  -35.500000  49.000000  0
5.000000  -35.000000  49.500000  0
4.000000  -35.500000  49.000000  0
4.000000  -35.000000  49.500000  0
3.000000  -35.500000  49.000000  0
3.000000  -35.000000  49.500000  0
2.000000  -35.500000  49.000000  0
1.500000  -35.000000  49.000000  0
6.500000  -35.000000  48.000000  0
1.500000  -35.000000  48.000000  0
6.500000  -35.000000  47.000000  0
1.500000  -35.000000  47.000000  0
6.500000  -35.000000  46.000000  0
1.500000  -35.000000  46.000000  0
6.500000  -35.000000  45.000000  0
1.500000  -35.000000  45.000000  0
6.500000  -35.000000  44.000000  0
1.500000  -35.000000  44.000000  0
6.500000  -35.000000  43.000000  0
1.500000  -35.000000  43.000000  0
6.500000  -35.000000  42.000000  0
1.500000  -35.000000  42.000000  0
6.500000  -35.000000  41.000000  0
1.500000  -35.000000  41.000000  0
6.500000  -35.000000  40.000000  0
1.500000  -35.000000  40.000000  0
6.500000  -35.000000  39.000000  0
1.500000  -35.000000  39.000000  0
6.500000  -35.000000  38.000000  0
1.500000  -35.000000  38.000000  0
6.500000  -35.000000  37.000000  0
1.500000  -35.000000  37.000000  0
6.500000  -35.000000  36.000000  0
1.500000  -35.000000  36.000000  0
6.500000  -35.000000  35.000000  0
1.500000  -35.000000  35.000000  0
6.500000  -35.000000  34.000000  0
1.500000  -35.000000  34.000000  0
6.500000  -35.000000  33.000000  0
1.500000  -35.000000  33.000000  0
6.500000  -35.000000  32.000000  0
1.500000  -35.000000  32.000000  0
6.500000  -35.000000  31.000000  0
3.000000  -35.500000  31.000000  0
3.500000  -35.000000  31.000000  0
3.000000  -35.000000  31.500000  0
2.000000  -35.500000  31.000000  0
2.000000  -35.000000  31.500000  0
6.000000  -35.000000  30.500000  0
5.000000  -35.000000  30.500000  0
4.000000  -35.000000  30.500000  0
6.500000  -34.000000  50.000000  0
6.000000  -34.000000  50.500000  0
5.500000  -34.000000  50.000000  0
2.500000  -34.000000  50.000000  0
2.000000  -34.000000  50.500000  0
1.500000  -34.000000  50.000000  0
6.500000  -34.000000  49.000000  0
5.000000  -34.000000  49.500000  0
4.000000  -34.000000  49.500000  0
3.000000  -34.000000  49.500000  0
1.500000  -34.000000  49.000000  0
6.500000  -34.000000  48.000000  0
1.500000  -34.000000  48.000000  0
6.500000  -34.000000  47.000000  0
1.500000  -34.000000  47.000000  0
6.500000  -34.000000  46.000000  0
1.500000  -34.000000  46.000000  0
6.500000  -34.000000  45.000000  0
1.500000  -34.000000  45.000000  0
6.500000  -34.000000  44.000000  0
1.500000  -34.000000  44.000000  0
6.500000  -34.000000  43.000000  0
1.500000  -34.000000  43.000000  0
6.500000  -34.000000  42.000000  0
1.500000  -34.000000  42.000000  0
6.500000  -34.000000  41.000000  0
1.500000  -34.000000  41.000000  0
6.500000  -34.000000  40.000000  0
1.500000  -34.000000  40.000000  0
6.500000  -34.000000  39.000000  0
1.500000  -34.000000  39.000000  0
6.500000  -34.000000  38.000000  0
1.500000  -34.000000  38.000000  0
6.500000  -34.000000  37.000000  0
1.500000  -34.000000  37.000000  0
6.500000  -34.000000  36.000000  0
1.500000  -34.000000  36.000000  0
6.500000  -34.000000  35.000000  0
1.500000  -34.000000  35.000000  0
6.500000  -34.000000  34.000000  0
1.500000  -34.000000  34.000000  0
6.500000  -34.000000  33.000000  0
1.500000  -34.000000  33.000000  0
6.500000  -34.000000  32.000000  0
1.500000  -34.000000  32.000000  0
6.000000  -34.500000  31.000000  0
6.000000  -34.000000  31.500000  0
5.000000  -34.500000  31.000000  0
5.000000  -34.000000  31.500000  0
4.000000  -34.500000  31.000000  0
4.000000  -34.000000  31.500000  0
3.000000  -34.000000  31.500000  0
2.000000  -34.000000  31.500000  0
2.000000  -33.500000  51.000000  0
2.500000  -33.000000  51.000000  0
2.000000  -33.000000  51.500000  0
1.500000  -33.000000  51.000000  0
6.500000  -33.000000  50.000000  0
6.000000  -33.000000  50.500000  0
5.500000  -33.000000  50.000000  0
2.500000  -33.000000  50.000000  0
1.500000  -33.000000  50.000000  0
6.500000  -33.000000  49.000000  0
5.000000  -33.000000  49.500000  0
4.000000  -33.000000  49.500000  0
3.000000  -33.000000  49.500000  0
1.500000  -33.000000  49.000000  0
6.500000  -33.000000  48.000000  0
1.500000  -33.000000  48.000000  0
6.500000  -33.000000  47.000000  0
1.500000  -33.000000  47.000000  0
6.500000  -33.000000  46.000000  0
1.500000  -33.000000  46.000000  0
6.500000  -33.000000  45.000000  0
1.500000  -33.000000  45.000000  0
6.500000  -33.000000  44.000000  0
1.500000  -33.000000  44.000000  0
6.500000  -33.000000  43.000000  0
1.500000  -33.000000  43.000000  0
6.500000  -33.000000  42.000000  0
1.500000  -33.000000  42.000000  0
6.500000  -33.000000  41.000000  0
1.500000  -33.000000  41.000000  0
6.500000  -33.000000  40.000000  0
1.500000  -33.000000  40.000000  0
6.500000  -33.000000  39.000000  0
1.500000  -33.000000  39.000000  0
6.500000  -33.000000  38.000000  0
1.500000  -33.000000  38.000000  0
6.500000  -33.000000  37.000000  0
1.500000  -33.000000  37.000000  0
6.500000  -33.000000  36.000000  0
1.500000  -33.000000  36.000000  0
6.500000  -33.000000  35.000000  0
1.500000  -33.000000  35.000000  0
6.500000  -33.000000  34.000000  0
1.500000  -33.000000  34.000000  0
6.500000  -33.000000  33.000000  0
1.500000  -33.000000  33.000000  0
6.500000  -33.000000  32.000000  0
2.000000  -33.500000  32.000000  0
2.500000  -33.000000  32.000000  0
2.000000  -33.000000  32.500000  0
6.000000  -33.000000  31.500000  0
5.000000  -33.000000  31.500000  0
4.000000  -33.000000  31.500000  0
3.000000  -33.000000  31.500000  0
4.000000  -32.500000  51.000000  0
4.500000  -32.000000  51.000000  0
4.000000  -32.000000  51.500000  0
3.000000  -32.500000  51.000000  0
3.000000  -32.000000  51.500000  0
2.000000  -32.000000  51.500000  0
1.500000  -32.000000  51.000000  0
6.500000  -32.000000  50.000000  0
6.000000  -32.000000  50.500000  0
5.000000  -32.500000  50.000000  0
5.000000  -32.000000  50.500000  0
4.000000  -32.500000  50.000000  0
3.000000  -32.500000  50.000000  0
1.500000  -32.000000  50.000000  0
6.500000  -32.000000  49.000000  0
1.500000  -32.000000  49.000000  0
6.500000  -32.000000  48.000000  0
1.500000  -32.000000  48.000000  0
6.500000  -32.000000  47.000000  0
1.500000  -32.000000  47.000000  0
6.500000  -32.000000  46.000000  0
1.500000  -32.000000  46.000000  0
6.500000  -32.000000  45.000000  0
1.500000  -32.000000  45.000000  0
6.500000  -32.000000  44.000000  0
1.500000  -32.000000  44.000000  0
6.500000  -32.000000  43.000000  0
1.500000  -32.000000  43.000000  0
6.500000  -32.000000  42.000000  0
1.500000  -32.000000  42.000000  0
6.500000  -32.000000  41.000000  0
1.500000  -32.000000  41.000000  0
6.500000  -32.000000  40.000000  0
1.500000  -32.000000  40.000000  0
6.500000  -32.000000  39.000000  0
1.500000  -32.000000  39.000000  0
6.500000  -32.000000  38.000000  0
1.500000  -32.000000  38.000000  0
6.500000  -32.000000  37.000000  0
1.500000  -32.000000  37.000000  0
6.500000  -32.000000  36.000000  0
1.500000  -32.000000  36.000000  0
6.500000  -32.000000  35.000000  0
1.500000  -32.000000  35.000000  0
6.000000  -32.500000  34.000000  0
6.000000  -32.000000  34.500000  0
5.000000  -32.500000  34.000000  0
5.000000  -32.000000  34.500000  0
4.000000  -32.500000  34.000000  0
4.000000  -32.000000  34.500000  0
3.000000  -32.500000  34.000000  0
3.000000  -32.000000  34.500000  0
2.000000  -32.500000  34.000000  0
2.000000  -32.000000  34.500000  0
6.000000  -32.500000  33.000000  0
5.000000  -32.500000  33.000000  0
4.000000  -32.500000  33.000000  0
3.000000  -32.500000  33.000000  0
2.000000  -32.500000  33.000000  0
6.000000  -32.500000  32.000000  0
5.000000  -32.500000  32.000000  0
4.000000  -32.500000  32.000000  0
3.000000  -32.500000  32.000000  0
5.000000  -31.500000  51.000000  0
5.500000  -31.000000  51.000000  0
5.000000  -31.000000  51.500000  0
4.000000  -31.000000  51.500000  0
3.000000  -31.000000  51.500000  0
2.000000  -31.000000  51.500000  0
1.500000  -31.000000  51.000000  0
6.500000  -31.000000  50.000000  0
6.000000  -31.000000  50.500000  0
1.500000  -31.000000  50.000000  0
6.500000  -31.000000  49.000000  0
1.500000  -31.000000  49.000000  0
6.500000  -31.000000  48.000000  0
1.500000  -31.000000  48.000000  0
6.500000  -31.000000  47.000000  0
1.500000  -31.000000  47.000000  0
6.500000  -31.000000  46.000000  0
1.500000  -31.000000  46.000000  0
6.500000  -31.000000  45.000000  0
1.500000  -31.000000  45.000000  0
6.500000  -31.000000  44.000000  0
1.500000  -31.000000  44.000000  0
6.500000  -31.000000  43.000000  0
1.500000  -31.000000  43.000000  0
6.500000  -31.000000  42.000000  0
1.500000  -31.000000  42.000000  0
6.500000  -31.000000  41.000000  0
1.500000  -31.000000  41.000000  0
6.500000  -31.000000  40.000000  0
1.500000  -31.000000  40.000000  0
6.500000  -31.000000  39.000000  0
1.500000  -31.000000  39.000000  0
6.500000  -31.000000  38.000000  0
1.500000  -31.000000  38.000000  0
6.500000  -31.000000  37.000000  0
1.500000  -31.000000  37.000000  0
6.500000  -31.000000  36.000000  0
1.500000  -31.000000  36.000000  0
6.500000  -31.000000  35.000000  0
1.500000  -31.000000  35.000000  0
6.000000  -31.000000  34.500000  0
5.000000  -31.000000  34.500000  0
4.000000  -31.000000  34.500000  0
3.000000  -31.000000  34.500000  0
2.000000  -31.000000  34.500000  0
6.000000  -30.500000  51.000000  0
6.500000  -30.000000  51.000000  0
6.000000  -30.000000  51.500000  0
5.000000  -30.000000  51.500000  0
4.000000  -30.000000  51.500000  0
3.000000  -30.000000  51.500000  0
2.000000  -30.000000  51.500000  0
1.500000  -30.000000  51.000000  0
6.500000  -30.000000  50.000000  0
1.500000  -30.000000  50.000000  0
6.500000  -30.000000  49.000000  0
1.500000  -30.000000  49.000000  0
6.500000  -30.000000  48.000000  0
1.500000  -30.000000  48.000000  0
6.500000  -30.000000  47.000000  0
1.500000  -30.000000  47.000000  0
6.500000  -30.000000  46.000000  0
1.500000  -30.000000  46.000000  0
6.500000  -30.000000  45.000000  0
1.500000  -30.000000  45.000000  0
6.500000  -30.000000  44.000000  0
1.500000  -30.000000  44.000000  0
6.500000  -30.000000  43.000000  0
1.500000  -30.000000  43.000000  0
6.500000  -30.000000  42.000000  0
1.500000  -30.000000  42.000000  0
6.500000  -30.000000  41.000000  0
1.500000  -30.000000  41.000000  0
6.000000  -30.500000  40.000000  0
6.000000  -30.000000  40.500000  0
5.000000  -30.500000  40.000000  0
5.000000  -30.000000  40.500000  0
4.000000  -30.500000  40.000000  0
4.000000  -30.000000  40.500000  0
3.000000  -30.500000  40.000000  0
3.000000  -30.000000  40.500000  0
2.000000  -30.500000  40.000000  0
2.000000  -30.000000  40.500000  0
6.000000  -30.500000  39.000000  0
5.000000  -30.500000  39.000000  0
4.000000  -30.500000  39.000000  0
3.000000  -30.500000  39.000000  0
2.000000  -30.500000  39.000000  0
6.000000  -30.500000  38.000000  0
5.000000  -30.500000  38.000000  0
4.000000  -30.500000  38.000000  0
3.000000  -30.500000  38.000000  0
2.000000  -30.500000  38.000000  0
6.000000  -30.500000  37.000000  0
5.000000  -30.500000  37.000000  0
4.000000  -30.500000  37.000000  0
3.000000  -30.500000  37.000000  0
2.000000  -30.500000  37.000000  0
6.000000  -30.500000  36.000000  0
5.000000  -30.500000  36.000000  0
4.000000  -30.500000  36.000000  0
3.000000  -30.500000  36.000000  0
2.000000  -30.500000  36.000000  0
6.000000  -30.500000  35.000000  0
5.000000  -30.500000  35.000000  0
4.000000  -30.500000  35.000000  0
3.000000  -30.500000  35.000000  0
2.000000  -30.500000  35.000000  0
6.000000  -29.500000  51.000000  0
5.000000  -29.500000  51.000000  0
4.000000  -29.500000  51.000000  0
3.000000  -29.500000  51.000000  0
2.000000  -29.500000  51.000000  0
6.000000  -29.500000  50.000000  0
5.000000  -29.500000  50.000000  0
4.000000  -29.500000  50.000000  0
3.000000  -29.500000  50.000000  0
2.000000  -29.500000  50.000000  0
6.000000  -29.500000  49.000000  0
5.000000  -29.500000  49.000000  0
4.000000  -29.500000  49.000000  0
3.000000  -29.500000  49.000000  0
2.000000  -29.500000  49.000000  0
6.000000  -29.500000  48.000000  0
5.000000  -29.500000  48.000000  0
4.000000  -29.500000  48.000000  0
3.000000  -29.500000  48.000000  0
2.000000  -29.500000  48.000000  0
6.000000  -29.500000  47.000000  0
5.000000  -29.500000  47.000000  0
4.000000  -29.500000  47.000000  0
3.000000  -29.500000  47.000000  0
2.000000  -29.500000  47.000000  0
6.000000  -29.500000  46.000000  0
5.000000  -29.500000  46.000000  0
4.000000  -29.500000  46.000000  0
3.000000  -29.500000  46.000000  0
2.000000  -29.500000  46.000000  0
6.000000  -29.500000  45.000000  0
5.000000  -29.500000  45.000000  0
4.000000  -29.500000  45.000000  0
3.000000  -29.500000  45.000000  0
2.000000  -29.500000  45.000000  0
6.000000  -29.500000  44.000000  0
5.000000  -29.500000  44.000000  0
4.000000  -29.500000  44.000000  0
3.000000  -29.500000  44.000000  0
2.000000  -29.500000  44.000000  0
6.000000  -29.500000  43.000000  0
5.000000  -29.500000  43.000000  0
4.000000  -29.500000  43.000000  0
3.000000  -29.500000  43.000000  0
2.000000  -29.500000  43.000000  0
6.000000  -29.500000  42.000000  0
5.000000  -29.500000  42.000000  0
4.000000  -29.500000  42.000000  0
3.000000  -29.500000  42.000000  0
2.000000  -29.500000  42.000000  0
6.000000  -29.500000  41.000000  0
5.000000  -29.500000  41.000000  0
4.000000  -29.500000  41.000000  0
3.000000  -29.500000  41.000000  0
2.000000  -29.500000  41.000000  0
2 0 1 0
3 0 2 0
0 5 1 0
4 5 0 0
3 4 0 0
6 4 3 0
4 8 5 0
7 8 4 0
6 7 4 0
9 7 6 0
12 10 11 0
12 13 10 0
14 13 12 0
7 16 8 0
13 14 15 0
7 9 16 0
10 18 11 0
17 18 10 0
19 10 13 0
17 10 19 0
15 19 13 0
20 19 15 0
17 22 18 0
21 22 17 0
23 17 19 0
21 17 23 0
20 23 19 0
24 23 20 0
21 26 22 0
25 26 21 0
25 21 23 0
27 25 23 0
28 27 23 0
23 24 28 0
26 25 29 0
25 27 29 0
32 30 31 0
33 30 32 0
30 35 31 0
34 35 30 0
33 34 30 0
36 34 33 0
34 38 35 0
37 38 34 0
36 37 34 0
39 37 36 0
1 40 38 0
2 1 38 0
37 2 38 0
39 41 3 0
37 39 3 0
2 37 3 0
44 42 43 0
44 45 42 0
46 45 44 0
46 47 45 0
48 47 46 0
48 49 47 0
50 49 48 0
40 1 5 0
40 5 49 0
40 49 50 0
6 41 51 0
3 41 6 0
42 53 43 0
52 53 42 0
54 42 45 0
52 42 54 0
55 45 47 0
54 45 55 0
56 47 49 0
55 47 56 0
5 8 49 0
49 8 56 0
9 51 57 0
6 51 9 0
52 59 53 0
58 59 52 0
60 52 54 0
58 52 60 0
60 54 55 0
60 55 12 0
60 12 11 0
55 56 12 0
12 56 14 0
56 8 16 0
56 16 61 0
14 56 61 0
15 14 61 0
9 57 62 0
16 9 62 0
61 16 62 0
58 64 59 0
63 64 58 0
65 58 60 0
63 58 65 0
11 18 60 0
60 18 65 0
20 15 66 0
66 15 61 0
62 66 61 0
67 66 62 0
63 69 64 0
68 69 63 0
70 63 65 0
68 63 70 0
18 22 65 0
65 22 70 0
24 20 71 0
71 20 66 0
67 71 66 0
72 71 67 0
68 74 69 0
73 74 68 0
75 68 70 0
73 68 75 0
22 26 70 0
70 26 75 0
76 27 28 0
71 77 76 0
71 76 28 0
71 28 24 0
72 77 71 0
78 77 72 0
73 80 74 0
79 80 73 0
81 73 75 0
79 73 81 0
82 81 75 0
82 75 26 0
82 26 29 0
76 83 82 0
76 82 29 0
76 29 27 0
84 76 77 0
83 76 84 0
78 84 77 0
85 84 78 0
79 87 80 0
86 87 79 0
86 79 81 0
88 86 81 0
89 88 81 0
81 90 89 0
82 90 81 0
82 91 90 0
83 91 82 0
83 84 92 0
91 83 92 0
93 91 92 0
85 92 84 0
94 92 85 0
87 86 95 0
86 88 95 0
93 92 96 0
92 94 96 0
99 97 98 0
100 97 99 0
97 102 98 0
101 102 97 0
100 101 97 0
103 101 100 0
106 104 105 0
107 104 106 0
101 109 102 0
108 109 101 0
110 108 101 0
111 110 101 0
103 111 101 0
111 112 110 0
113 112 111 0
113 114 112 0
115 114 113 0
105 114 115 0
105 104 114 0
104 31 114 0
32 31 104 0
107 116 33 0
104 107 33 0
32 104 33 0
108 118 109 0
117 118 108 0
119 108 110 0
117 108 119 0
120 110 112 0
119 110 120 0
121 112 114 0
120 112 121 0
31 35 114 0
114 35 121 0
36 116 122 0
33 116 36 0
117 124 118 0
123 124 117 0
125 117 119 0
123 117 125 0
126 119 120 0
125 119 126 0
127 120 121 0
126 120 127 0
35 38 121 0
121 38 127 0
39 122 128 0
36 122 39 0
123 130 124 0
129 130 123 0
131 123 125 0
129 123 131 0
132 125 126 0
131 125 132 0
133 126 127 0
132 126 133 0
38 40 127 0
127 40 133 0
41 128 134 0
39 128 41 0
43 135 130 0
44 43 130 0
129 44 130 0
129 131 44 0
44 131 46 0
131 132 46 0
46 132 48 0
132 133 48 0
48 133 50 0
133 40 50 0
51 134 136 0
41 134 51 0
43 137 135 0
53 137 43 0
57 136 138 0
51 136 57 0
53 139 137 0
59 139 53 0
62 138 140 0
57 138 62 0
59 141 139 0
64 141 59 0
67 140 142 0
62 140 67 0
64 143 141 0
69 143 64 0
72 142 144 0
67 142 72 0
69 145 143 0
74 145 69 0
78 144 146 0
72 144 78 0
74 147 145 0
80 147 74 0
85 146 148 0
78 146 85 0
80 149 147 0
87 149 80 0
150 88 151 0
151 88 89 0
151 90 152 0
89 90 151 0
152 91 153 0
90 91 152 0
153 91 154 0
154 91 93 0
94 148 155 0
85 148 94 0
157 149 87 0
156 157 87 0
95 156 87 0
88 150 158 0
95 88 158 0
156 95 158 0
154 96 159 0
93 96 154 0
94 159 96 0
155 159 94 0
157 156 160 0
156 158 160 0
163 161 162 0
164 161 163 0
166 98 165 0
99 98 166 0
167 99 166 0
100 99 167 0
161 169 162 0
168 169 161 0
164 168 161 0
170 168 164 0
98 171 165 0
102 171 98 0
103 100 167 0
103 167 173 0
103 173 172 0
173 174 172 0
175 174 173 0
175 176 174 0
177 176 175 0
169 176 177 0
169 168 176 0
168 105 176 0
106 105 168 0
170 178 107 0
168 170 107 0
106 168 107 0
102 179 171 0
109 179 102 0
111 103 172 0
172 174 111 0
111 174 113 0
174 176 113 0
113 176 115 0
176 105 115 0
116 178 180 0
107 178 116 0
109 181 179 0
118 181 109 0
122 180 182 0
116 180 122 0
118 183 181 0
124 183 118 0
128 182 184 0
122 182 128 0
124 185 183 0
130 185 124 0
134 184 186 0
128 184 134 0
130 187 185 0
135 187 130 0
136 186 188 0
134 186 136 0
135 189 187 0
137 189 135 0
138 188 190 0
136 188 138 0
137 191 189 0
139 191 137 0
140 190 192 0
138 190 140 0
139 193 191 0
141 193 139 0
142 192 194 0
140 192 142 0
141 195 193 0
143 195 141 0
144 194 196 0
142 194 144 0
143 197 195 0
145 197 143 0
146 196 198 0
144 196 146 0
145 199 197 0
147 199 145 0
148 198 200 0
146 198 148 0
147 201 199 0
149 201 147 0
202 150 151 0
203 202 152 0
152 202 151 0
204 203 153 0
153 203 152 0
154 204 153 0
155 200 205 0
148 200 155 0
149 206 201 0
157 206 149 0
207 158 150 0
207 150 202 0
207 202 208 0
202 209 208 0
203 209 202 0
203 210 209 0
204 210 203 0
159 211 210 0
154 159 210 0
204 154 210 0
155 211 159 0
205 211 155 0
206 160 212 0
157 160 206 0
158 212 160 0
207 212 158 0
215 213 214 0
215 216 213 0
217 216 215 0
217 218 216 0
219 218 217 0
219 220 218 0
221 220 219 0
221 222 163 0
220 221 163 0
162 220 163 0
223 163 222 0
164 163 223 0
165 224 214 0
166 165 214 0
213 166 214 0
213 216 225 0
213 225 167 0
213 167 166 0
226 216 218 0
225 216 226 0
227 218 220 0
226 218 227 0
162 169 220 0
220 169 227 0
170 223 228 0
164 223 170 0
165 229 224 0
171 229 165 0
173 167 225 0
225 226 173 0
173 226 175 0
226 227 175 0
175 227 177 0
227 169 177 0
178 228 230 0
170 228 178 0
171 231 229 0
179 231 171 0
180 230 232 0
178 230 180 0
179 233 231 0
181 233 179 0
182 232 234 0
180 232 182 0
181 235 233 0
183 235 181 0
184 234 236 0
182 234 184 0
183 237 235 0
185 237 183 0
186 236 238 0
184 236 186 0
185 239 237 0
187 239 185 0
188 238 240 0
186 238 188 0
187 241 239 0
189 241 187 0
190 240 242 0
188 240 190 0
189 243 241 0
191 243 189 0
192 242 244 0
190 242 192 0
191 245 243 0
193 245 191 0
194 244 246 0
192 244 194 0
193 247 245 0
195 247 193 0
196 246 248 0
194 246 196 0
195 249 247 0
197 249 195 0
198 248 250 0
196 248 198 0
197 251 249 0
199 251 197 0
200 250 252 0
198 250 200 0
199 253 251 0
201 253 199 0
205 252 254 0
200 252 205 0
201 255 253 0
206 255 201 0
256 207 208 0
257 256 209 0
209 256 208 0
258 257 210 0
210 257 209 0
259 258 211 0
211 258 210 0
205 254 260 0
211 205 260 0
259 211 260 0
262 255 206 0
261 262 206 0
212 261 206 0
256 263 261 0
256 261 212 0
256 212 207 0
264 256 257 0
263 256 264 0
265 257 258 0
264 257 265 0
266 258 259 0
265 258 266 0
260 266 259 0
267 266 260 0
261 269 262 0
268 269 261 0
270 261 263 0
268 261 270 0
271 263 264 0
270 263 271 0
272 264 265 0
271 264 272 0
273 265 266 0
272 265 273 0
267 273 266 0
274 273 267 0
269 268 275 0
268 270 276 0
275 268 276 0
277 275 276 0
278 270 271 0
276 270 278 0
279 271 272 0
278 271 279 0
280 272 273 0
279 272 280 0
274 280 273 0
281 280 274 0
277 276 282 0
276 283 282 0
278 283 276 0
278 284 283 0
279 284 278 0
279 285 284 0
280 285 279 0
280 281 285 0
287 214 286 0
215 214 287 0
288 215 287 0
217 215 288 0
289 217 288 0
219 217 289 0
290 219 289 0
221 219 290 0
291 221 290 0
222 221 291 0
292 222 291 0
223 222 292 0
214 293 286 0
224 293 214 0
228 292 294 0
223 292 228 0
224 295 293 0
229 295 224 0
230 294 296 0
228 294 230 0
229 297 295 0
231 297 229 0
232 296 298 0
230 296 232 0
231 299 297 0
233 299 231 0
234 298 300 0
232 298 234 0
233 301 299 0
235 301 233 0
236 300 302 0
234 300 236 0
235 303 301 0
237 303 235 0
238 302 304 0
236 302 238 0
237 305 303 0
239 305 237 0
240 304 306 0
238 304 240 0
239 307 305 0
241 307 239 0
242 306 308 0
240 306 242 0
241 309 307 0
243 309 241 0
244 308 310 0
242 308 244 0
243 311 309 0
245 311 243 0
246 310 312 0
244 310 246 0
245 313 311 0
247 313 245 0
248 312 314 0
246 312 248 0
247 315 313 0
249 315 247 0
250 314 316 0
248 314 250 0
249 317 315 0
251 317 249 0
252 316 318 0
250 316 252 0
251 319 317 0
253 319 251 0
254 318 320 0
252 318 254 0
253 321 319 0
255 321 253 0
260 320 322 0
254 320 260 0
255 323 321 0
262 323 255 0
267 322 324 0
260 322 267 0
262 325 323 0
269 325 262 0
327 326 328 0
274 267 324 0
326 274 324 0
328 326 324 0
325 275 329 0
269 275 325 0
331 329 275 0
331 275 277 0
331 277 330 0
330 332 331 0
331 332 333 0
332 334 333 0
333 334 335 0
334 336 326 0
334 326 327 0
334 327 335 0
326 281 274 0
336 281 326 0
330 277 282 0
282 332 330 0
283 332 282 0
283 334 332 0
284 334 283 0
284 336 334 0
285 336 284 0
285 281 336 0
339 337 338 0
339 340 337 0
341 340 339 0
341 342 340 0
343 342 341 0
343 344 342 0
345 344 343 0
345 346 344 0
347 346 345 0
348 346 347 0
286 349 338 0
287 286 338 0
337 287 338 0
337 340 287 0
287 340 288 0
340 342 288 0
288 342 289 0
342 344 289 0
289 344 290 0
344 346 290 0
290 346 291 0
348 350 292 0
346 348 292 0
291 346 292 0
286 351 349 0
293 351 286 0
294 350 352 0
292 350 294 0
293 353 351 0
295 353 293 0
296 352 354 0
294 352 296 0
295 355 353 0
297 355 295 0
298 354 356 0
296 354 298 0
297 357 355 0
299 357 297 0
300 356 358 0
298 356 300 0
299 359 357 0
301 359 299 0
302 358 360 0
300 358 302 0
301 361 359 0
303 361 301 0
304 360 362 0
302 360 304 0
303 363 361 0
305 363 303 0
306 362 364 0
304 362 306 0
305 365 363 0
307 365 305 0
308 364 366 0
306 364 308 0
307 367 365 0
309 367 307 0
310 366 368 0
308 366 310 0
309 369 367 0
311 369 309 0
312 368 370 0
310 368 312 0
311 371 369 0
313 371 311 0
314 370 372 0
312 370 314 0
313 373 371 0
315 373 313 0
316 372 374 0
314 372 316 0
315 375 373 0
317 375 315 0
318 374 376 0
316 374 318 0
317 377 375 0
319 377 317 0
320 376 378 0
318 376 320 0
319 379 377 0
321 379 319 0
322 378 380 0
320 378 322 0
321 381 379 0
323 381 321 0
383 382 384 0
324 322 380 0
382 324 380 0
384 382 380 0
381 323 325 0
386 381 325 0
385 386 325 0
385 387 386 0
386 387 388 0
387 389 388 0
388 389 390 0
389 391 390 0
390 391 392 0
391 383 392 0
391 327 383 0
327 382 383 0
328 382 327 0
328 324 382 0
385 325 329 0
329 387 385 0
331 387 329 0
331 389 387 0
333 389 331 0
333 391 389 0
335 391 333 0
335 327 391 0
395 393 394 0
395 396 393 0
397 396 395 0
397 398 396 0
399 398 397 0
399 400 398 0
401 400 399 0
401 402 400 0
403 402 401 0
404 402 403 0
338 405 394 0
339 338 394 0
393 339 394 0
393 396 339 0
339 396 341 0
396 398 341 0
341 398 343 0
398 400 343 0
343 400 345 0
400 402 345 0
345 402 347 0
404 406 348 0
402 404 348 0
347 402 348 0
338 407 405 0
349 407 338 0
350 406 408 0
348 406 350 0
349 409 407 0
351 409 349 0
352 408 410 0
350 408 352 0
351 411 409 0
353 411 351 0
354 410 412 0
352 410 354 0
353 413 411 0
355 413 353 0
356 412 414 0
354 412 356 0
355 415 413 0
357 415 355 0
358 414 416 0
356 414 358 0
357 417 415 0
359 417 357 0
360 416 418 0
358 416 360 0
359 419 417 0
361 419 359 0
362 418 420 0
360 418 362 0
361 421 419 0
363 421 361 0
364 420 422 0
362 420 364 0
363 423 421 0
365 423 363 0
366 422 424 0
364 422 366 0
365 425 423 0
367 425 365 0
368 424 426 0
366 424 368 0
367 427 425 0
369 427 367 0
370 426 428 0
368 426 370 0
369 429 427 0
371 429 369 0
372 428 430 0
370 428 372 0
371 431 429 0
373 431 371 0
374 430 432 0
372 430 374 0
373 433 431 0
375 433 373 0
376 432 434 0
374 432 376 0
375 435 433 0
377 435 375 0
378 434 436 0
376 434 378 0
377 437 435 0
379 437 377 0
380 436 438 0
378 436 380 0
437 379 381 0
440 437 381 0
439 440 381 0
439 441 440 0
440 441 442 0
441 443 442 0
442 443 444 0
443 445 444 0
444 445 446 0
384 447 446 0
384 446 445 0
384 445 383 0
380 447 384 0
438 447 380 0
439 381 386 0
386 441 439 0
388 441 386 0
388 443 441 0
390 443 388 0
390 445 443 0
392 445 390 0
392 383 445 0
450 448 449 0
451 448 450 0
454 452 453 0
455 452 454 0
448 457 449 0
456 457 448 0
458 456 448 0
459 458 448 0
451 459 448 0
459 460 458 0
461 460 459 0
461 462 460 0
463 462 461 0
452 464 462 0
453 452 462 0
463 453 462 0
455 464 452 0
465 464 455 0
394 466 457 0
395 394 457 0
456 395 457 0
456 458 395 0
395 458 397 0
458 460 397 0
397 460 399 0
460 462 399 0
399 462 401 0
462 464 401 0
401 464 403 0
465 467 404 0
464 465 404 0
403 464 404 0
394 468 466 0
405 468 394 0
406 467 469 0
404 467 406 0
405 470 468 0
407 470 405 0
408 469 471 0
406 469 408 0
407 472 470 0
409 472 407 0
410 471 473 0
408 471 410 0
409 474 472 0
411 474 409 0
412 473 475 0
410 473 412 0
411 476 474 0
413 476 411 0
414 475 477 0
412 475 414 0
413 478 476 0
415 478 413 0
416 477 479 0
414 477 416 0
415 480 478 0
417 480 415 0
418 479 481 0
416 479 418 0
417 482 480 0
419 482 417 0
420 481 483 0
418 481 420 0
419 484 482 0
421 484 419 0
422 483 485 0
420 483 422 0
421 486 484 0
423 486 421 0
424 485 487 0
422 485 424 0
423 488 486 0
425 488 423 0
426 487 489 0
424 487 426 0
425 490 488 0
427 490 425 0
428 489 491 0
426 489 428 0
427 492 490 0
429 492 427 0
430 491 493 0
428 491 430 0
429 494 492 0
431 494 429 0
432 493 495 0
430 493 432 0
431 496 494 0
433 496 431 0
434 495 497 0
432 495 434 0
433 498 496 0
435 498 433 0
436 497 499 0
434 497 436 0
435 500 498 0
437 500 435 0
502 501 503 0
501 504 503 0
503 504 505 0
438 436 499 0
504 438 499 0
505 504 499 0
500 440 506 0
437 440 500 0
506 442 507 0
440 442 506 0
507 444 508 0
442 444 507 0
508 444 446 0
502 508 446 0
501 502 446 0
446 504 501 0
447 504 446 0
447 438 504 0
510 449 509 0
450 449 510 0
511 450 510 0
451 450 511 0
513 453 512 0
454 453 513 0
514 454 513 0
455 454 514 0
449 515 509 0
457 515 449 0
516 459 511 0
511 459 451 0
517 459 516 0
461 459 517 0
518 461 517 0
463 461 518 0
463 518 453 0
453 518 512 0
465 514 519 0
455 514 465 0
457 520 515 0
466 520 457 0
467 519 521 0
465 519 467 0
466 522 520 0
468 522 466 0
469 521 523 0
467 521 469 0
468 524 522 0
470 524 468 0
471 523 525 0
469 523 471 0
470 526 524 0
472 526 470 0
473 525 527 0
471 525 473 0
472 528 526 0
474 528 472 0
475 527 529 0
473 527 475 0
474 530 528 0
476 530 474 0
477 529 531 0
475 529 477 0
476 532 530 0
478 532 476 0
479 531 533 0
477 531 479 0
478 534 532 0
480 534 478 0
481 533 535 0
479 533 481 0
480 536 534 0
482 536 480 0
483 535 537 0
481 535 483 0
482 538 536 0
484 538 482 0
485 537 539 0
483 537 485 0
484 540 538 0
486 540 484 0
487 539 541 0
485 539 487 0
486 542 540 0
488 542 486 0
489 541 543 0
487 541 489 0
488 544 542 0
490 544 488 0
491 543 545 0
489 543 491 0
490 546 544 0
492 546 490 0
493 545 547 0
491 545 493 0
492 548 546 0
494 548 492 0
495 547 549 0
493 547 495 0
494 550 548 0
496 550 494 0
497 549 551 0
495 549 497 0
496 552 550 0
498 552 496 0
499 551 553 0
497 551 499 0
552 498 500 0
555 552 500 0
554 555 500 0
554 556 555 0
555 556 557 0
556 558 557 0
557 558 559 0
503 560 559 0
503 559 558 0
503 558 502 0
560 505 561 0
503 505 560 0
499 561 505 0
553 561 499 0
554 500 506 0
506 556 554 0
507 556 506 0
507 558 556 0
508 558 507 0
508 502 558 0
564 562 563 0
565 562 564 0
567 509 566 0
510 509 567 0
568 510 567 0
511 510 568 0
512 569 563 0
513 512 563 0
562 513 563 0
565 570 514 0
562 565 514 0
513 562 514 0
509 571 566 0
515 571 509 0
572 516 568 0
568 516 511 0
573 516 572 0
517 516 573 0
574 517 573 0
518 517 574 0
518 574 512 0
512 574 569 0
519 570 575 0
514 570 519 0
515 576 571 0
520 576 515 0
521 575 577 0
519 575 521 0
520 578 576 0
522 578 520 0
523 577 579 0
521 577 523 0
522 580 578 0
524 580 522 0
525 579 581 0
523 579 525 0
524 582 580 0
526 582 524 0
527 581 583 0
525 581 527 0
526 584 582 0
528 584 526 0
529 583 585 0
527 583 529 0
528 586 584 0
530 586 528 0
531 585 587 0
529 585 531 0
530 588 586 0
532 588 530 0
533 587 589 0
531 587 533 0
532 590 588 0
534 590 532 0
535 589 591 0
533 589 535 0
534 592 590 0
536 592 534 0
537 591 593 0
535 591 537 0
536 594 592 0
538 594 536 0
539 593 595 0
537 593 539 0
538 596 594 0
540 596 538 0
541 595 597 0
539 595 541 0
540 598 596 0
542 598 540 0
543 597 599 0
541 597 543 0
542 600 598 0
544 600 542 0
545 599 601 0
543 599 545 0
544 602 600 0
546 602 544 0
547 601 603 0
545 601 547 0
546 604 602 0
548 604 546 0
549 603 605 0
547 603 549 0
548 606 604 0
550 606 548 0
551 605 607 0
549 605 551 0
550 608 606 0
552 608 550 0
610 609 611 0
553 551 607 0
609 553 607 0
611 609 607 0
608 555 612 0
552 555 608 0
612 557 613 0
555 557 612 0
613 559 614 0
557 559 613 0
614 560 615 0
559 560 614 0
615 560 561 0
610 615 561 0
609 610 561 0
561 553 609 0
618 616 617 0
618 619 616 0
620 619 618 0
620 621 564 0
619 620 564 0
563 619 564 0
622 564 621 0
565 564 622 0
624 566 623 0
567 566 624 0
567 624 626 0
568 567 626 0
625 568 626 0
616 627 625 0
617 616 625 0
626 617 625 0
628 616 619 0
627 616 628 0
563 569 619 0
619 569 628 0
570 622 629 0
565 622 570 0
566 630 623 0
571 630 566 0
572 568 625 0
625 627 572 0
572 627 573 0
627 628 573 0
573 628 574 0
628 569 574 0
575 629 631 0
570 629 575 0
571 632 630 0
576 632 571 0
577 631 633 0
575 631 577 0
576 634 632 0
578 634 576 0
579 633 635 0
577 633 579 0
578 636 634 0
580 636 578 0
581 635 637 0
579 635 581 0
580 638 636 0
582 638 580 0
583 637 639 0
581 637 583 0
582 640 638 0
584 640 582 0
585 639 641 0
583 639 585 0
584 642 640 0
586 642 584 0
587 641 643 0
585 641 587 0
586 644 642 0
588 644 586 0
589 643 645 0
587 643 589 0
588 646 644 0
590 646 588 0
591 645 647 0
589 645 591 0
590 648 646 0
592 648 590 0
593 647 649 0
591 647 593 0
592 650 648 0
594 650 592 0
595 649 651 0
593 649 595 0
594 652 650 0
596 652 594 0
597 651 653 0
595 651 597 0
596 654 652 0
598 654 596 0
599 653 655 0
597 653 599 0
598 656 654 0
600 656 598 0
601 655 657 0
599 655 601 0
600 658 656 0
602 658 600 0
603 657 659 0
601 657 603 0
658 602 604 0
661 658 604 0
660 661 604 0
660 662 661 0
661 662 663 0
662 664 663 0
663 664 665 0
664 666 665 0
665 666 667 0
666 668 667 0
667 668 669 0
605 603 659 0
668 605 659 0
669 668 659 0
670 604 606 0
660 604 670 0
670 662 660 0
671 662 670 0
671 664 662 0
672 664 671 0
672 666 664 0
673 666 672 0
673 668 666 0
674 668 673 0
668 607 605 0
674 607 668 0
675 606 608 0
670 606 675 0
675 671 670 0
676 671 675 0
676 672 671 0
677 672 676 0
677 673 672 0
678 673 677 0
674 673 678 0
611 674 678 0
610 611 678 0
611 607 674 0
675 608 612 0
612 676 675 0
613 676 612 0
613 677 676 0
614 677 613 0
614 678 677 0
615 678 614 0
615 610 678 0
681 679 680 0
681 682 618 0
679 681 618 0
617 679 618 0
683 618 682 0
620 618 683 0
684 620 683 0
621 620 684 0
685 621 684 0
622 621 685 0
687 623 686 0
624 623 687 0
626 624 687 0
626 687 680 0
626 680 679 0
679 617 626 0
629 685 688 0
622 685 629 0
623 689 686 0
630 689 623 0
631 688 690 0
629 688 631 0
630 691 689 0
632 691 630 0
633 690 692 0
631 690 633 0
632 693 691 0
634 693 632 0
635 692 694 0
633 692 635 0
634 695 693 0
636 695 634 0
637 694 696 0
635 694 637 0
636 697 695 0
638 697 636 0
639 696 698 0
637 696 639 0
638 699 697 0
640 699 638 0
641 698 700 0
639 698 641 0
640 701 699 0
642 701 640 0
643 700 702 0
641 700 643 0
642 703 701 0
644 703 642 0
645 702 704 0
643 702 645 0
644 705 703 0
646 705 644 0
647 704 706 0
645 704 647 0
646 707 705 0
648 707 646 0
649 706 708 0
647 706 649 0
648 709 707 0
650 709 648 0
651 708 710 0
649 708 651 0
650 711 709 0
652 711 650 0
653 710 712 0
651 710 653 0
652 713 711 0
654 713 652 0
655 712 714 0
653 712 655 0
654 715 713 0
656 715 654 0
657 714 716 0
655 714 657 0
656 717 715 0
658 717 656 0
659 716 718 0
657 716 659 0
717 661 719 0
658 661 717 0
719 663 720 0
661 663 719 0
720 665 721 0
663 665 720 0
721 667 722 0
665 667 721 0
722 669 723 0
667 669 722 0
659 723 669 0
718 723 659 0
726 724 725 0
726 727 681 0
724 726 681 0
680 724 681 0
728 681 727 0
682 681 728 0
729 682 728 0
683 682 729 0
730 683 729 0
684 683 730 0
731 684 730 0
685 684 731 0
686 732 725 0
687 686 725 0
724 687 725 0
724 680 687 0
688 731 733 0
685 731 688 0
686 734 732 0
689 734 686 0
690 733 735 0
688 733 690 0
689 736 734 0
691 736 689 0
692 735 737 0
690 735 692 0
691 738 736 0
693 738 691 0
694 737 739 0
692 737 694 0
693 740 738 0
695 740 693 0
696 739 741 0
694 739 696 0
695 742 740 0
697 742 695 0
698 741 743 0
696 741 698 0
697 744 742 0
699 744 697 0
700 743 745 0
698 743 700 0
699 746 744 0
701 746 699 0
702 745 747 0
700 745 702 0
701 748 746 0
703 748 701 0
704 747 749 0
702 747 704 0
703 750 748 0
705 750 703 0
706 749 751 0
