#!ascii version of
354 704
-23.000000  -48.500000  31.000000  0
-22.500000  -48.000000  31.000000  0
-23.000000  -48.000000  31.500000  0
-24.000000  -48.500000  31.000000  0
-24.000000  -48.000000  31.500000  0
-24.500000  -48.000000  31.000000  0
-23.000000  -48.500000  30.000000  0
-22.500000  -48.000000  30.000000  0
-24.000000  -48.500000  30.000000  0
-24.500000  -48.000000  30.000000  0
-23.000000  -48.000000  29.500000  0
-24.000000  -48.000000  29.500000  0
-23.000000  -47.500000  32.000000  0
-22.500000  -47.000000  32.000000  0
-23.000000  -47.000000  32.500000  0
-24.000000  -47.500000  32.000000  0
-24.000000  -47.000000  32.500000  0
-24.500000  -47.000000  32.000000  0
-23.000000  -47.500000  31.000000  0
-23.000000  -47.000000  31.500000  0
-23.500000  -47.000000  31.000000  0
-24.500000  -47.000000  31.000000  0
-23.000000  -47.500000  30.000000  0
-24.000000  -47.500000  30.000000  0
-24.000000  -47.000000  30.500000  0
-21.000000  -46.500000  33.000000  0
-20.500000  -46.000000  33.000000  0
-21.000000  -46.000000  33.500000  0
-22.000000  -46.500000  33.000000  0
-22.000000  -46.000000  33.500000  0
-22.500000  -46.000000  33.000000  0
-21.000000  -46.000000  32.500000  0
-22.000000  -46.000000  32.500000  0
-22.500000  -46.000000  32.000000  0
-23.000000  -46.000000  32.500000  0
-24.000000  -46.000000  32.500000  0
-24.500000  -46.000000  32.000000  0
-23.000000  -46.500000  31.000000  0
-22.500000  -46.000000  31.000000  0
-24.500000  -46.000000  31.000000  0
-23.000000  -46.000000  30.500000  0
-24.000000  -46.000000  30.500000  0
-25.000000  -46.500000  30.000000  0
-24.500000  -46.000000  30.000000  0
-25.000000  -46.000000  30.500000  0
-26.000000  -46.500000  30.000000  0
-26.000000  -46.000000  30.500000  0
-26.500000  -46.000000  30.000000  0
-25.000000  -46.500000  29.000000  0
-24.500000  -46.000000  29.000000  0
-26.000000  -46.500000  29.000000  0
-26.500000  -46.000000  29.000000  0
-25.000000  -46.000000  28.500000  0
-26.000000  -46.000000  28.500000  0
-21.000000  -45.500000  34.000000  0
-20.500000  -45.000000  34.000000  0
-21.000000  -45.000000  34.500000  0
-22.000000  -45.500000  34.000000  0
-22.000000  -45.000000  34.500000  0
-23.000000  -45.500000  34.000000  0
-23.000000  -45.000000  34.500000  0
-23.500000  -45.000000  34.000000  0
-20.500000  -45.000000  33.000000  0
-23.000000  -45.500000  33.000000  0
-24.000000  -45.500000  33.000000  0
-24.000000  -45.000000  33.500000  0
-24.500000  -45.000000  33.000000  0
-21.000000  -45.000000  32.500000  0
-22.000000  -45.000000  32.500000  0
-22.500000  -45.000000  32.000000  0
-25.000000  -45.500000  32.000000  0
-25.000000  -45.000000  32.500000  0
-25.500000  -45.000000  32.000000  0
-22.500000  -45.000000  31.000000  0
-25.000000  -45.500000  31.000000  0
-25.500000  -45.000000  31.000000  0
-23.000000  -45.000000  30.500000  0
-24.000000  -45.500000  30.000000  0
-23.500000  -45.000000  30.000000  0
-26.000000  -45.500000  30.000000  0
-25.500000  -45.000000  30.000000  0
-24.000000  -45.000000  29.500000  0
-25.000000  -45.500000  29.000000  0
-25.000000  -45.000000  29.500000  0
-26.000000  -45.500000  29.000000  0
-21.000000  -44.500000  35.000000  0
-20.500000  -44.000000  35.000000  0
-21.000000  -44.000000  35.500000  0
-22.000000  -44.500000  35.000000  0
-22.000000  -44.000000  35.500000  0
-23.000000  -44.500000  35.000000  0
-23.000000  -44.000000  35.500000  0
-23.500000  -44.000000  35.000000  0
-20.500000  -44.000000  34.000000  0
-23.500000  -44.000000  34.000000  0
-20.500000  -44.000000  33.000000  0
-24.000000  -44.000000  33.500000  0
-24.500000  -44.000000  33.000000  0
-21.000000  -44.000000  32.500000  0
-22.000000  -44.500000  32.000000  0
-21.500000  -44.000000  32.000000  0
-25.000000  -44.000000  32.500000  0
-25.500000  -44.000000  32.000000  0
-22.000000  -44.000000  31.500000  0
-22.500000  -44.000000  31.000000  0
-25.500000  -44.000000  31.000000  0
-23.000000  -44.000000  30.500000  0
-23.500000  -44.000000  30.000000  0
-25.500000  -44.000000  30.000000  0
-24.000000  -44.000000  29.500000  0
-25.000000  -44.000000  29.500000  0
-17.000000  -43.500000  39.000000  0
-16.500000  -43.000000  39.000000  0
-17.000000  -43.000000  39.500000  0
-18.000000  -43.500000  39.000000  0
-18.000000  -43.000000  39.500000  0
-19.000000  -43.500000  39.000000  0
-19.000000  -43.000000  39.500000  0
-19.500000  -43.000000  39.000000  0
-17.000000  -43.500000  38.000000  0
-16.500000  -43.000000  38.000000  0
-18.000000  -43.500000  38.000000  0
-19.000000  -43.500000  38.000000  0
-19.500000  -43.000000  38.000000  0
-17.000000  -43.000000  37.500000  0
-18.000000  -43.000000  37.500000  0
-19.000000  -43.500000  37.000000  0
-18.500000  -43.000000  37.000000  0
-20.000000  -43.500000  37.000000  0
-20.000000  -43.000000  37.500000  0
-21.000000  -43.500000  37.000000  0
-21.000000  -43.000000  37.500000  0
-21.500000  -43.000000  37.000000  0
-19.000000  -43.500000  36.000000  0
-18.500000  -43.000000  36.000000  0
-20.000000  -43.500000  36.000000  0
-21.000000  -43.500000  36.000000  0
-21.500000  -43.000000  36.000000  0
-19.000000  -43.500000  35.000000  0
-18.500000  -43.000000  35.000000  0
-20.000000  -43.500000  35.000000  0
-22.000000  -43.000000  35.500000  0
-23.000000  -43.000000  35.500000  0
-23.500000  -43.000000  35.000000  0
-19.000000  -43.000000  34.500000  0
-20.000000  -43.000000  34.500000  0
-20.500000  -43.000000  34.000000  0
-23.500000  -43.000000  34.000000  0
-20.500000  -43.000000  33.000000  0
-24.000000  -43.000000  33.500000  0
-24.500000  -43.000000  33.000000  0
-21.000000  -43.000000  32.500000  0
-21.500000  -43.000000  32.000000  0
-25.000000  -43.500000  32.000000  0
-24.500000  -43.000000  32.000000  0
-22.000000  -43.000000  31.500000  0
-22.500000  -43.000000  31.000000  0
-25.000000  -43.000000  31.500000  0
-25.500000  -43.000000  31.000000  0
-23.000000  -43.000000  30.500000  0
-23.500000  -43.000000  30.000000  0
-25.500000  -43.000000  30.000000  0
-24.000000  -43.000000  29.500000  0
-25.000000  -43.000000  29.500000  0
-26.000000  -43.500000  29.000000  0
-25.500000  -43.000000  29.000000  0
-26.000000  -43.000000  29.500000  0
-26.500000  -43.000000  29.000000  0
-26.000000  -43.000000  28.500000  0
-16.000000  -42.500000  39.000000  0
-15.500000  -42.000000  39.000000  0
-16.000000  -42.000000  39.500000  0
-17.000000  -42.000000  39.500000  0
-18.000000  -42.000000  39.500000  0
-19.000000  -42.000000  39.500000  0
-19.500000  -42.000000  39.000000  0
-16.000000  -42.500000  38.000000  0
-15.500000  -42.000000  38.000000  0
-19.500000  -42.000000  38.000000  0
-16.000000  -42.000000  37.500000  0
-17.000000  -42.000000  37.500000  0
-18.000000  -42.500000  37.000000  0
-17.500000  -42.000000  37.000000  0
-20.000000  -42.000000  37.500000  0
-21.000000  -42.000000  37.500000  0
-21.500000  -42.000000  37.000000  0
-18.000000  -42.000000  36.500000  0
-18.500000  -42.000000  36.000000  0
-21.500000  -42.000000  36.000000  0
-18.500000  -42.000000  35.000000  0
-22.000000  -42.000000  35.500000  0
-23.000000  -42.500000  35.000000  0
-22.500000  -42.000000  35.000000  0
-19.000000  -42.000000  34.500000  0
-20.000000  -42.000000  34.500000  0
-20.500000  -42.000000  34.000000  0
-23.000000  -42.500000  34.000000  0
-22.500000  -42.000000  34.000000  0
-20.500000  -42.000000  33.000000  0
-23.000000  -42.000000  33.500000  0
-24.000000  -42.500000  33.000000  0
-23.500000  -42.000000  33.000000  0
-21.000000  -42.000000  32.500000  0
-21.500000  -42.000000  32.000000  0
-24.000000  -42.000000  32.500000  0
-24.500000  -42.000000  32.000000  0
-22.000000  -42.000000  31.500000  0
-22.500000  -42.000000  31.000000  0
-25.000000  -42.000000  31.500000  0
-25.500000  -42.000000  31.000000  0
-23.000000  -42.000000  30.500000  0
-23.500000  -42.000000  30.000000  0
-25.500000  -42.000000  30.000000  0
-24.000000  -42.000000  29.500000  0
-25.000000  -42.500000  29.000000  0
-24.500000  -42.000000  29.000000  0
-26.000000  -42.000000  29.500000  0
-26.500000  -42.000000  29.000000  0
-25.000000  -42.000000  28.500000  0
-26.000000  -42.000000  28.500000  0
-16.000000  -41.500000  40.000000  0
-15.500000  -41.000000  40.000000  0
-16.000000  -41.000000  40.500000  0
-17.000000  -41.500000  40.000000  0
-17.000000  -41.000000  40.500000  0
-18.000000  -41.500000  40.000000  0
-18.000000  -41.000000  40.500000  0
-19.000000  -41.500000  40.000000  0
-19.000000  -41.000000  40.500000  0
-19.500000  -41.000000  40.000000  0
-15.500000  -41.000000  39.000000  0
-19.500000  -41.000000  39.000000  0
-15.500000  -41.000000  38.000000  0
-19.500000  -41.000000  38.000000  0
-16.000000  -41.000000  37.500000  0
-17.000000  -41.000000  37.500000  0
-17.500000  -41.000000  37.000000  0
-20.000000  -41.000000  37.500000  0
-21.000000  -41.500000  37.000000  0
-20.500000  -41.000000  37.000000  0
-18.000000  -41.000000  36.500000  0
-18.500000  -41.000000  36.000000  0
-21.000000  -41.500000  36.000000  0
-20.500000  -41.000000  36.000000  0
-19.000000  -41.500000  35.000000  0
-19.000000  -41.000000  35.500000  0
-20.000000  -41.500000  35.000000  0
-20.000000  -41.000000  35.500000  0
-21.000000  -41.500000  35.000000  0
-22.000000  -41.500000  35.000000  0
-21.000000  -41.500000  34.000000  0
-22.000000  -41.500000  34.000000  0
-21.000000  -41.500000  33.000000  0
-22.000000  -41.500000  33.000000  0
-23.000000  -41.500000  33.000000  0
-22.000000  -41.500000  32.000000  0
-23.000000  -41.500000  32.000000  0
-24.000000  -41.500000  32.000000  0
-23.000000  -41.500000  31.000000  0
-23.500000  -41.000000  31.000000  0
-24.000000  -41.000000  31.500000  0
-25.000000  -41.500000  31.000000  0
-24.500000  -41.000000  31.000000  0
-23.500000  -41.000000  30.000000  0
-25.000000  -41.000000  30.500000  0
-25.500000  -41.000000  30.000000  0
-24.000000  -41.000000  29.500000  0
-24.500000  -41.000000  29.000000  0
-26.000000  -41.000000  29.500000  0
-26.500000  -41.000000  29.000000  0
-25.000000  -41.000000  28.500000  0
-26.000000  -41.000000  28.500000  0
-16.000000  -40.500000  42.000000  0
-15.500000  -40.000000  42.000000  0
-16.000000  -40.000000  42.500000  0
-17.000000  -40.500000  42.000000  0
-17.000000  -40.000000  42.500000  0
-18.000000  -40.500000  42.000000  0
-18.000000  -40.000000  42.500000  0
-18.500000  -40.000000  42.000000  0
-16.000000  -40.500000  41.000000  0
-15.500000  -40.000000  41.000000  0
-17.000000  -40.500000  41.000000  0
-18.000000  -40.500000  41.000000  0
-18.500000  -40.000000  41.000000  0
-15.500000  -40.000000  40.000000  0
-19.000000  -40.000000  40.500000  0
-19.500000  -40.000000  40.000000  0
-15.500000  -40.000000  39.000000  0
-19.500000  -40.000000  39.000000  0
-16.000000  -40.500000  38.000000  0
-16.000000  -40.000000  38.500000  0
-16.500000  -40.000000  38.000000  0
-19.500000  -40.000000  38.000000  0
-17.000000  -40.500000  37.000000  0
-16.500000  -40.000000  37.000000  0
-19.000000  -40.500000  37.000000  0
-18.500000  -40.000000  37.000000  0
-19.000000  -40.000000  37.500000  0
-20.000000  -40.500000  37.000000  0
-17.000000  -40.000000  36.500000  0
-18.000000  -40.000000  36.500000  0
-19.000000  -40.500000  36.000000  0
-20.000000  -40.500000  36.000000  0
-24.000000  -40.500000  31.000000  0
-24.000000  -40.500000  30.000000  0
-25.000000  -40.500000  30.000000  0
-25.000000  -40.500000  29.000000  0
-26.000000  -40.500000  29.000000  0
-15.500000  -39.000000  42.000000  0
-16.000000  -39.000000  42.500000  0
-17.000000  -39.000000  42.500000  0
-18.000000  -39.000000  42.500000  0
-18.500000  -39.000000  42.000000  0
-15.500000  -39.000000  41.000000  0
-18.500000  -39.000000  41.000000  0
-15.500000  -39.000000  40.000000  0
-18.000000  -39.500000  40.000000  0
-17.500000  -39.000000  40.000000  0
-18.000000  -39.000000  40.500000  0
-19.000000  -39.500000  40.000000  0
-15.500000  -39.000000  39.000000  0
-18.000000  -39.500000  39.000000  0
-17.500000  -39.000000  39.000000  0
-19.000000  -39.500000  39.000000  0
-16.000000  -39.000000  38.500000  0
-16.500000  -39.000000  38.000000  0
-18.000000  -39.500000  38.000000  0
-17.500000  -39.000000  38.000000  0
-19.000000  -39.500000  38.000000  0
-17.000000  -39.500000  37.000000  0
-17.000000  -39.000000  37.500000  0
-18.000000  -39.500000  37.000000  0
-15.500000  -38.000000  42.000000  0
-16.000000  -38.000000  42.500000  0
-17.000000  -38.000000  42.500000  0
-18.000000  -38.500000  42.000000  0
-17.500000  -38.000000  42.000000  0
-15.500000  -38.000000  41.000000  0
-18.000000  -38.000000  41.500000  0
-18.500000  -38.000000  41.000000  0
-16.000000  -38.500000  40.000000  0
-16.000000  -38.000000  40.500000  0
-17.000000  -38.500000  40.000000  0
-17.000000  -38.000000  40.500000  0
-18.000000  -38.000000  40.500000  0
-16.000000  -38.500000  39.000000  0
-17.000000  -38.500000  39.000000  0
-17.000000  -38.500000  38.000000  0
-16.000000  -37.500000  42.000000  0
-17.000000  -37.500000  42.000000  0
-16.000000  -37.500000  41.000000  0
-17.000000  -37.500000  41.000000  0
-18.000000  -37.500000  41.000000  0
2 0 1 0
2 3 0 0
4 3 2 0
5 3 4 0
0 7 1 0
6 7 0 0
8 0 3 0
6 0 8 0
5 8 3 0
9 8 5 0
7 6 10 0
6 11 10 0
8 11 6 0
8 9 11 0
14 12 13 0
14 15 12 0
16 15 14 0
17 15 16 0
13 12 19 0
1 18 2 0
4 20 15 0
4 2 20 0
2 18 20 0
15 20 12 0
12 20 19 0
17 21 5 0
15 17 5 0
4 15 5 0
22 1 7 0
18 1 22 0
18 22 23 0
18 23 24 0
18 24 20 0
9 5 21 0
23 9 21 0
24 23 21 0
22 7 10 0
10 23 22 0
11 23 10 0
11 9 23 0
27 25 26 0
27 28 25 0
29 28 27 0
30 28 29 0
26 25 31 0
25 32 31 0
28 32 25 0
13 34 14 0
33 34 13 0
28 30 32 0
35 14 34 0
16 14 35 0
36 16 35 0
17 16 36 0
38 33 13 0
37 38 13 0
19 37 13 0
20 37 19 0
21 36 39 0
17 36 21 0
38 37 40 0
24 41 40 0
20 24 40 0
37 20 40 0
21 41 24 0
39 41 21 0
42 43 44 0
44 45 42 0
46 45 44 0
47 45 46 0
42 49 43 0
48 49 42 0
50 42 45 0
48 42 50 0
47 50 45 0
51 50 47 0
49 48 52 0
48 53 52 0
50 53 48 0
50 51 53 0
56 54 55 0
56 57 54 0
58 57 56 0
58 59 57 0
60 59 58 0
61 59 60 0
26 62 55 0
27 26 55 0
54 27 55 0
54 57 27 0
27 57 29 0
57 59 63 0
57 63 30 0
57 30 29 0
64 63 59 0
65 64 59 0
61 65 59 0
66 64 65 0
62 31 67 0
26 31 62 0
67 32 68 0
31 32 67 0
68 63 69 0
68 32 63 0
32 30 63 0
69 63 33 0
33 63 34 0
63 64 34 0
34 64 35 0
71 64 66 0
71 70 64 0
70 35 64 0
36 35 70 0
72 70 71 0
33 73 69 0
38 73 33 0
39 36 74 0
74 36 70 0
72 74 70 0
75 74 72 0
73 40 76 0
38 40 73 0
76 40 41 0
76 41 77 0
76 77 78 0
74 44 43 0
74 43 77 0
39 74 77 0
41 39 77 0
44 79 46 0
44 80 79 0
74 80 44 0
75 80 74 0
46 79 47 0
78 77 81 0
83 81 82 0
81 49 82 0
81 77 49 0
77 43 49 0
82 84 79 0
82 79 80 0
82 80 83 0
79 51 47 0
84 51 79 0
82 49 52 0
52 84 82 0
53 84 52 0
53 51 84 0
87 85 86 0
87 88 85 0
89 88 87 0
89 90 88 0
91 90 89 0
92 90 91 0
55 93 86 0
56 55 86 0
85 56 86 0
85 88 56 0
56 88 58 0
88 90 58 0
58 90 60 0
92 94 61 0
90 92 61 0
60 90 61 0
55 95 93 0
62 95 55 0
96 65 94 0
94 65 61 0
97 65 96 0
66 65 97 0
95 67 98 0
62 67 95 0
98 67 68 0
98 68 99 0
98 99 100 0
69 99 68 0
101 71 97 0
97 71 66 0
102 71 101 0
72 71 102 0
100 99 103 0
69 73 104 0
69 104 103 0
69 103 99 0
75 102 105 0
72 102 75 0
104 76 106 0
73 76 104 0
106 76 107 0
107 76 78 0
80 105 108 0
75 105 80 0
107 81 109 0
78 81 107 0
109 83 110 0
81 83 109 0
80 110 83 0
108 110 80 0
113 111 112 0
113 114 111 0
115 114 113 0
115 116 114 0
117 116 115 0
118 116 117 0
111 120 112 0
119 120 111 0
121 111 114 0
119 111 121 0
122 114 116 0
121 114 122 0
118 122 116 0
123 122 118 0
120 119 124 0
119 125 124 0
121 125 119 0
121 122 126 0
125 121 126 0
127 125 126 0
128 126 122 0
129 128 122 0
123 129 122 0
129 130 128 0
131 130 129 0
132 130 131 0
126 134 127 0
133 134 126 0
135 126 128 0
133 126 135 0
136 128 130 0
135 128 136 0
132 136 130 0
137 136 132 0
133 139 134 0
138 139 133 0
140 133 135 0
138 133 140 0
140 135 136 0
140 136 87 0
140 87 86 0
141 89 87 0
141 87 136 0
141 136 137 0
142 89 141 0
91 89 142 0
143 91 142 0
92 91 143 0
139 138 144 0
138 145 144 0
140 145 138 0
86 93 146 0
86 146 145 0
86 145 140 0
94 143 147 0
92 143 94 0
93 148 146 0
95 148 93 0
149 96 147 0
147 96 94 0
150 96 149 0
97 96 150 0
148 98 151 0
95 98 148 0
151 98 152 0
152 98 100 0
97 150 154 0
97 154 153 0
97 153 101 0
101 153 102 0
152 103 155 0
100 103 152 0
155 103 156 0
156 103 104 0
157 153 154 0
158 105 102 0
157 158 102 0
153 157 102 0
156 106 159 0
104 106 156 0
159 106 160 0
160 106 107 0
108 158 161 0
105 158 108 0
160 109 162 0
107 109 160 0
162 110 163 0
109 110 162 0
108 163 110 0
161 163 108 0
164 165 166 0
167 164 166 0
165 164 168 0
164 167 168 0
171 169 170 0
171 172 113 0
169 171 113 0
112 169 113 0
173 113 172 0
115 113 173 0
174 115 173 0
117 115 174 0
175 117 174 0
118 117 175 0
169 177 170 0
176 177 169 0
112 120 169 0
169 120 176 0
123 175 178 0
118 175 123 0
177 176 179 0
124 180 179 0
120 124 179 0
176 120 179 0
180 124 125 0
180 125 181 0
180 181 182 0
127 181 125 0
183 129 178 0
178 129 123 0
184 129 183 0
131 129 184 0
185 131 184 0
132 131 185 0
182 181 186 0
127 134 187 0
127 187 186 0
127 186 181 0
137 185 188 0
132 185 137 0
134 189 187 0
139 189 134 0
190 141 188 0
188 141 137 0
142 141 190 0
191 142 190 0
192 191 190 0
142 191 143 0
189 144 193 0
139 144 189 0
193 145 194 0
144 145 193 0
194 145 195 0
195 145 146 0
192 197 191 0
191 197 196 0
191 147 143 0
196 147 191 0
146 198 195 0
148 198 146 0
199 196 197 0
199 147 196 0
199 201 147 0
201 149 147 0
200 149 201 0
149 200 150 0
198 151 202 0
148 151 198 0
202 151 203 0
203 151 152 0
204 200 201 0
205 154 150 0
204 205 150 0
200 204 150 0
203 155 206 0
152 155 203 0
206 155 207 0
207 155 156 0
208 157 205 0
205 157 154 0
209 157 208 0
158 157 209 0
207 159 210 0
156 159 207 0
210 159 211 0
211 159 160 0
161 209 212 0
158 209 161 0
211 162 213 0
160 162 211 0
213 162 163 0
213 163 214 0
213 214 215 0
216 214 212 0
216 166 214 0
166 165 214 0
212 214 161 0
161 214 163 0
217 166 216 0
167 166 217 0
215 214 218 0
168 219 218 0
165 168 218 0
214 165 218 0
167 219 168 0
217 219 167 0
222 220 221 0
222 223 220 0
224 223 222 0
224 225 223 0
226 225 224 0
226 227 225 0
228 227 226 0
229 227 228 0
170 230 221 0
171 170 221 0
220 171 221 0
220 223 171 0
171 223 172 0
223 225 172 0
172 225 173 0
225 227 173 0
173 227 174 0
229 231 175 0
227 229 175 0
174 227 175 0
170 232 230 0
177 232 170 0
178 231 233 0
175 231 178 0
232 179 234 0
177 179 232 0
234 180 235 0
179 180 234 0
235 180 236 0
236 180 182 0
237 183 233 0
233 183 178 0
184 183 237 0
238 184 237 0
239 238 237 0
184 238 185 0
236 186 240 0
182 186 236 0
240 186 241 0
241 186 187 0
239 243 238 0
238 243 242 0
238 188 185 0
242 188 238 0
241 187 189 0
245 241 189 0
244 245 189 0
244 246 245 0
245 246 247 0
246 248 242 0
246 242 243 0
246 243 247 0
242 248 249 0
188 242 249 0
190 188 249 0
190 249 192 0
244 189 193 0
193 246 244 0
194 246 193 0
250 248 246 0
195 250 246 0
194 195 246 0
250 249 248 0
251 249 250 0
249 197 192 0
251 197 249 0
252 195 198 0
250 195 252 0
252 251 250 0
253 251 252 0
251 253 254 0
197 251 254 0
199 197 254 0
199 254 201 0
252 198 202 0
255 253 252 0
203 255 252 0
202 203 252 0
255 254 253 0
256 254 255 0
254 256 257 0
201 254 257 0
204 201 257 0
204 257 205 0
255 203 206 0
258 256 255 0
207 258 255 0
206 207 255 0
257 256 258 0
257 258 259 0
257 259 260 0
260 205 257 0
260 262 205 0
262 208 205 0
261 208 262 0
208 261 209 0
258 207 210 0
211 263 259 0
211 259 258 0
211 258 210 0
264 261 262 0
265 212 209 0
264 265 209 0
261 264 209 0
263 213 266 0
211 213 263 0
266 213 267 0
267 213 215 0
268 216 265 0
265 216 212 0
269 216 268 0
217 216 269 0
267 218 270 0
215 218 267 0
270 219 271 0
218 219 270 0
217 271 219 0
269 271 217 0
274 272 273 0
274 275 272 0
276 275 274 0
276 277 275 0
278 277 276 0
279 277 278 0
272 281 273 0
280 281 272 0
282 272 275 0
280 272 282 0
283 275 277 0
282 275 283 0
279 283 277 0
284 283 279 0
221 285 281 0
222 221 281 0
280 222 281 0
280 282 222 0
222 282 224 0
282 283 224 0
224 283 226 0
286 228 226 0
286 226 283 0
286 283 284 0
287 228 286 0
229 228 287 0
221 288 285 0
230 288 221 0
231 287 289 0
229 287 231 0
288 230 232 0
291 288 232 0
290 291 232 0
291 290 292 0
233 289 293 0
231 289 233 0
290 232 234 0
292 294 295 0
292 235 294 0
290 235 292 0
234 235 290 0
236 294 235 0
297 296 298 0
296 299 298 0
299 293 298 0
299 237 293 0
237 233 293 0
237 299 239 0
295 294 300 0
240 301 300 0
236 240 300 0
294 236 300 0
240 297 301 0
240 296 297 0
241 296 240 0
302 296 241 0
302 299 296 0
303 299 302 0
299 243 239 0
303 243 299 0
302 241 245 0
245 303 302 0
247 303 245 0
247 243 303 0
260 259 304 0
260 304 262 0
305 259 263 0
304 259 305 0
304 305 306 0
262 304 306 0
264 262 306 0
264 306 265 0
305 263 266 0
307 306 305 0
267 307 305 0
266 267 305 0
306 307 308 0
265 306 308 0
268 265 308 0
268 308 269 0
307 267 270 0
270 308 307 0
271 308 270 0
271 269 308 0
310 273 309 0
274 273 310 0
311 274 310 0
276 274 311 0
312 276 311 0
278 276 312 0
313 278 312 0
279 278 313 0
273 314 309 0
281 314 273 0
284 313 315 0
279 313 284 0
281 316 314 0
285 316 281 0
318 317 319 0
317 320 319 0
320 315 319 0
320 286 315 0
286 284 315 0
286 320 287 0
285 321 316 0
288 321 285 0
318 323 317 0
317 323 322 0
322 320 317 0
324 320 322 0
320 289 287 0
324 289 320 0
321 291 325 0
288 291 321 0
325 291 326 0
326 291 292 0
323 328 322 0
322 328 327 0
327 324 322 0
329 324 327 0
324 293 289 0
329 293 324 0
326 292 295 0
331 326 295 0
330 331 295 0
330 332 327 0
330 327 328 0
330 328 331 0
329 327 332 0
298 329 332 0
297 298 332 0
298 293 329 0
330 295 300 0
300 332 330 0
301 332 300 0
301 297 332 0
334 309 333 0
310 309 334 0
335 310 334 0
311 310 335 0
312 311 335 0
336 312 335 0
337 336 335 0
312 336 313 0
309 338 333 0
314 338 309 0
339 336 337 0
340 315 313 0
339 340 313 0
336 339 313 0
338 314 316 0
342 338 316 0
341 342 316 0
341 343 342 0
342 343 344 0
319 345 344 0
319 344 343 0
319 343 318 0
315 345 319 0
340 345 315 0
346 316 321 0
341 316 346 0
346 343 341 0
347 343 346 0
343 323 318 0
347 323 343 0
346 321 325 0
348 347 346 0
326 348 346 0
325 326 346 0
347 328 323 0
348 328 347 0
348 326 331 0
331 328 348 0
333 349 334 0
334 349 350 0
335 334 350 0
337 335 350 0
351 333 338 0
349 333 351 0
351 350 349 0
352 350 351 0
350 352 353 0
337 350 353 0
339 337 353 0
339 353 340 0
351 338 342 0
342 352 351 0
344 352 342 0
344 353 352 0
345 353 344 0
345 340 353 0
