#!ascii version of
500 996
-7.000000  -0.500000  24.000000  0
-6.500000  0.000000  24.000000  0
-7.000000  0.000000  24.500000  0
-8.000000  -0.500000  24.000000  0
-8.000000  0.000000  24.500000  0
-8.500000  0.000000  24.000000  0
-7.000000  0.000000  23.500000  0
-8.000000  0.000000  23.500000  0
-6.500000  1.000000  24.000000  0
-7.000000  1.000000  24.500000  0
-8.000000  1.000000  24.500000  0
-8.500000  1.000000  24.000000  0
-7.000000  1.000000  23.500000  0
-8.000000  1.000000  23.500000  0
-2.000000  1.500000  28.000000  0
-1.500000  2.000000  28.000000  0
-2.000000  2.000000  28.500000  0
-3.000000  1.500000  28.000000  0
-3.000000  2.000000  28.500000  0
-4.000000  1.500000  28.000000  0
-4.000000  2.000000  28.500000  0
-5.000000  1.500000  28.000000  0
-5.000000  2.000000  28.500000  0
-6.000000  1.500000  28.000000  0
-6.000000  2.000000  28.500000  0
-6.500000  2.000000  28.000000  0
-2.000000  2.000000  27.500000  0
-3.000000  1.500000  27.000000  0
-2.500000  2.000000  27.000000  0
-4.000000  1.500000  27.000000  0
-5.000000  1.500000  27.000000  0
-6.000000  1.500000  27.000000  0
-6.500000  2.000000  27.000000  0
-3.000000  2.000000  26.500000  0
-4.000000  2.000000  26.500000  0
-5.000000  1.500000  26.000000  0
-4.500000  2.000000  26.000000  0
-6.000000  1.500000  26.000000  0
-7.000000  1.500000  26.000000  0
-7.000000  2.000000  26.500000  0
-7.500000  2.000000  26.000000  0
-5.000000  2.000000  25.500000  0
-6.000000  2.000000  25.500000  0
-7.000000  1.500000  25.000000  0
-6.500000  2.000000  25.000000  0
-8.000000  1.500000  25.000000  0
-8.000000  2.000000  25.500000  0
-8.500000  2.000000  25.000000  0
-6.500000  2.000000  24.000000  0
-8.500000  2.000000  24.000000  0
-7.000000  2.000000  23.500000  0
-8.000000  2.000000  23.500000  0
-1.500000  3.000000  28.000000  0
-2.000000  3.000000  28.500000  0
-3.000000  3.000000  28.500000  0
-4.000000  3.000000  28.500000  0
-5.000000  3.000000  28.500000  0
-6.000000  3.000000  28.500000  0
-6.500000  3.000000  28.000000  0
-2.000000  3.000000  27.500000  0
-3.000000  2.500000  27.000000  0
-3.000000  3.000000  27.500000  0
-3.500000  3.000000  27.000000  0
-6.500000  3.000000  27.000000  0
-4.000000  3.000000  26.500000  0
-4.500000  3.000000  26.000000  0
-7.000000  3.000000  26.500000  0
-8.000000  2.500000  26.000000  0
-8.000000  3.000000  26.500000  0
-8.500000  3.000000  26.000000  0
-5.000000  3.000000  25.500000  0
-6.000000  3.000000  25.500000  0
-6.500000  3.000000  25.000000  0
-8.500000  3.000000  25.000000  0
-6.500000  3.000000  24.000000  0
-8.500000  3.000000  24.000000  0
-7.000000  3.000000  23.500000  0
-8.000000  3.000000  23.500000  0
-3.000000  3.500000  32.000000  0
-2.500000  4.000000  32.000000  0
-3.000000  4.000000  32.500000  0
-4.000000  3.500000  32.000000  0
-4.000000  4.000000  32.500000  0
-4.500000  4.000000  32.000000  0
-3.000000  3.500000  31.000000  0
-2.500000  4.000000  31.000000  0
-4.000000  3.500000  31.000000  0
-4.500000  4.000000  31.000000  0
-3.000000  3.500000  30.000000  0
-2.500000  4.000000  30.000000  0
-4.000000  3.500000  30.000000  0
-5.000000  3.500000  30.000000  0
-5.000000  4.000000  30.500000  0
-6.000000  3.500000  30.000000  0
-6.000000  4.000000  30.500000  0
-6.500000  4.000000  30.000000  0
-2.000000  3.500000  29.000000  0
-1.500000  4.000000  29.000000  0
-2.000000  4.000000  29.500000  0
-3.000000  3.500000  29.000000  0
-4.000000  3.500000  29.000000  0
-5.000000  3.500000  29.000000  0
-6.000000  3.500000  29.000000  0
-6.500000  4.000000  29.000000  0
-2.000000  3.500000  28.000000  0
-2.000000  4.000000  28.500000  0
-2.500000  4.000000  28.000000  0
-7.000000  3.500000  28.000000  0
-7.000000  4.000000  28.500000  0
-8.000000  3.500000  28.000000  0
-8.000000  4.000000  28.500000  0
-8.500000  4.000000  28.000000  0
-3.000000  3.500000  27.000000  0
-2.500000  4.000000  27.000000  0
-7.000000  3.500000  27.000000  0
-8.000000  3.500000  27.000000  0
-8.500000  4.000000  27.000000  0
-3.000000  3.500000  26.000000  0
-2.500000  4.000000  26.000000  0
-4.000000  3.500000  26.000000  0
-8.500000  4.000000  26.000000  0
-3.000000  4.000000  25.500000  0
-4.000000  4.000000  25.500000  0
-5.000000  3.500000  25.000000  0
-4.500000  4.000000  25.000000  0
-6.000000  3.500000  25.000000  0
-9.000000  3.500000  25.000000  0
-9.000000  4.000000  25.500000  0
-10.000000  3.500000  25.000000  0
-10.000000  4.000000  25.500000  0
-10.500000  4.000000  25.000000  0
-5.000000  4.000000  24.500000  0
-6.000000  4.000000  24.500000  0
-6.500000  4.000000  24.000000  0
-9.000000  3.500000  24.000000  0
-10.000000  3.500000  24.000000  0
-10.500000  4.000000  24.000000  0
-7.000000  4.000000  23.500000  0
-8.000000  4.000000  23.500000  0
-9.000000  4.000000  23.500000  0
-10.000000  4.000000  23.500000  0
-2.500000  5.000000  32.000000  0
-3.000000  5.000000  32.500000  0
-4.000000  5.000000  32.500000  0
-4.500000  5.000000  32.000000  0
-2.500000  5.000000  31.000000  0
-5.000000  4.500000  31.000000  0
-5.000000  5.000000  31.500000  0
-5.500000  5.000000  31.000000  0
-2.500000  5.000000  30.000000  0
-6.000000  5.000000  30.500000  0
-6.500000  5.000000  30.000000  0
-2.000000  4.500000  29.000000  0
-2.500000  5.000000  29.000000  0
-6.500000  5.000000  29.000000  0
-2.500000  5.000000  28.000000  0
-7.000000  5.000000  28.500000  0
-8.000000  5.000000  28.500000  0
-8.500000  5.000000  28.000000  0
-2.500000  5.000000  27.000000  0
-8.500000  5.000000  27.000000  0
-2.500000  5.000000  26.000000  0
-8.500000  5.000000  26.000000  0
-3.000000  5.000000  25.500000  0
-4.000000  5.000000  25.500000  0
-4.500000  5.000000  25.000000  0
-9.000000  5.000000  25.500000  0
-10.000000  5.000000  25.500000  0
-10.500000  5.000000  25.000000  0
-5.000000  5.000000  24.500000  0
-6.000000  5.000000  24.500000  0
-7.000000  4.500000  24.000000  0
-7.000000  5.000000  24.500000  0
-7.500000  5.000000  24.000000  0
-10.500000  5.000000  24.000000  0
-8.000000  5.000000  23.500000  0
-9.000000  5.000000  23.500000  0
-10.000000  5.000000  23.500000  0
-3.000000  5.500000  33.000000  0
-2.500000  6.000000  33.000000  0
-3.000000  6.000000  33.500000  0
-4.000000  5.500000  33.000000  0
-4.000000  6.000000  33.500000  0
-4.500000  6.000000  33.000000  0
-2.500000  6.000000  32.000000  0
-4.500000  6.000000  32.000000  0
-2.500000  6.000000  31.000000  0
-5.000000  6.000000  31.500000  0
-6.000000  5.500000  31.000000  0
-6.000000  6.000000  31.500000  0
-6.500000  6.000000  31.000000  0
-2.500000  6.000000  30.000000  0
-6.000000  5.500000  30.000000  0
-5.500000  6.000000  30.000000  0
-6.000000  6.000000  30.500000  0
-2.500000  6.000000  29.000000  0
-6.000000  6.000000  29.500000  0
-7.000000  5.500000  29.000000  0
-7.000000  6.000000  29.500000  0
-8.000000  5.500000  29.000000  0
-8.000000  6.000000  29.500000  0
-8.500000  6.000000  29.000000  0
-2.500000  6.000000  28.000000  0
-8.500000  6.000000  28.000000  0
-3.000000  5.500000  27.000000  0
-3.000000  6.000000  27.500000  0
-4.000000  5.500000  27.000000  0
-4.000000  6.000000  27.500000  0
-4.500000  6.000000  27.000000  0
-8.500000  6.000000  27.000000  0
-3.000000  5.500000  26.000000  0
-4.000000  5.500000  26.000000  0
-4.500000  6.000000  26.000000  0
-8.500000  6.000000  26.000000  0
-4.500000  6.000000  25.000000  0
-9.000000  5.500000  25.000000  0
-8.500000  6.000000  25.000000  0
-10.000000  5.500000  25.000000  0
-5.000000  6.000000  24.500000  0
-6.000000  6.000000  24.500000  0
-7.000000  6.000000  24.500000  0
-8.000000  5.500000  24.000000  0
-8.000000  6.000000  24.500000  0
-9.000000  5.500000  24.000000  0
-10.000000  5.500000  24.000000  0
-2.500000  7.000000  33.000000  0
-3.000000  7.000000  33.500000  0
-4.000000  7.000000  33.500000  0
-4.500000  7.000000  33.000000  0
-2.500000  7.000000  32.000000  0
-4.500000  7.000000  32.000000  0
-3.000000  6.500000  31.000000  0
-3.000000  7.000000  31.500000  0
-3.500000  7.000000  31.000000  0
-5.000000  7.000000  31.500000  0
-6.000000  7.000000  31.500000  0
-6.500000  7.000000  31.000000  0
-3.000000  6.500000  30.000000  0
-3.500000  7.000000  30.000000  0
-5.500000  7.000000  30.000000  0
-6.000000  7.000000  30.500000  0
-3.000000  6.500000  29.000000  0
-3.500000  7.000000  29.000000  0
-6.000000  7.000000  29.500000  0
-7.000000  7.000000  29.500000  0
-8.000000  7.000000  29.500000  0
-8.500000  7.000000  29.000000  0
-3.000000  6.500000  28.000000  0
-3.500000  7.000000  28.000000  0
-8.500000  7.000000  28.000000  0
-4.000000  7.000000  27.500000  0
-4.500000  7.000000  27.000000  0
-8.500000  7.000000  27.000000  0
-5.000000  6.500000  26.000000  0
-5.000000  7.000000  26.500000  0
-6.000000  6.500000  26.000000  0
-6.000000  7.000000  26.500000  0
-6.500000  7.000000  26.000000  0
-8.500000  7.000000  26.000000  0
-5.000000  6.500000  25.000000  0
-6.000000  6.500000  25.000000  0
-6.500000  7.000000  25.000000  0
-8.500000  7.000000  25.000000  0
-7.000000  7.000000  24.500000  0
-8.000000  7.000000  24.500000  0
-3.000000  7.500000  34.000000  0
-2.500000  8.000000  34.000000  0
-3.000000  8.000000  34.500000  0
-4.000000  7.500000  34.000000  0
-4.000000  8.000000  34.500000  0
-4.500000  8.000000  34.000000  0
-2.500000  8.000000  33.000000  0
-4.500000  8.000000  33.000000  0
-2.500000  8.000000  32.000000  0
-5.000000  7.500000  32.000000  0
-5.000000  8.000000  32.500000  0
-5.500000  8.000000  32.000000  0
-3.000000  8.000000  31.500000  0
-3.500000  8.000000  31.000000  0
-6.000000  8.000000  31.500000  0
-6.500000  8.000000  31.000000  0
-3.500000  8.000000  30.000000  0
-6.000000  7.500000  30.000000  0
-7.000000  7.500000  30.000000  0
-7.000000  8.000000  30.500000  0
-7.500000  8.000000  30.000000  0
-3.500000  8.000000  29.000000  0
-8.000000  8.000000  29.500000  0
-9.000000  7.500000  29.000000  0
-9.000000  8.000000  29.500000  0
-10.000000  7.500000  29.000000  0
-10.000000  8.000000  29.500000  0
-10.500000  8.000000  29.000000  0
-4.000000  7.500000  28.000000  0
-4.000000  8.000000  28.500000  0
-4.500000  8.000000  28.000000  0
-9.000000  7.500000  28.000000  0
-10.000000  7.500000  28.000000  0
-10.500000  8.000000  28.000000  0
-4.500000  8.000000  27.000000  0
-9.000000  7.500000  27.000000  0
-10.000000  7.500000  27.000000  0
-10.500000  8.000000  27.000000  0
-5.000000  8.000000  26.500000  0
-6.000000  8.000000  26.500000  0
-7.000000  7.500000  26.000000  0
-7.000000  8.000000  26.500000  0
-8.000000  7.500000  26.000000  0
-8.000000  8.000000  26.500000  0
-9.000000  8.000000  26.500000  0
-10.000000  8.000000  26.500000  0
-7.000000  7.500000  25.000000  0
-8.000000  7.500000  25.000000  0
-3.000000  8.500000  34.000000  0
-3.500000  9.000000  34.000000  0
-4.000000  9.000000  34.500000  0
-4.500000  9.000000  34.000000  0
-3.000000  8.500000  33.000000  0
-3.500000  9.000000  33.000000  0
-4.500000  9.000000  33.000000  0
-3.000000  8.500000  32.000000  0
-4.000000  8.500000  32.000000  0
-4.000000  9.000000  32.500000  0
-4.500000  9.000000  32.000000  0
-5.000000  9.000000  32.500000  0
-6.000000  8.500000  32.000000  0
-6.000000  9.000000  32.500000  0
-6.500000  9.000000  32.000000  0
-4.000000  8.500000  31.000000  0
-4.500000  9.000000  31.000000  0
-6.500000  9.000000  31.000000  0
-4.000000  8.500000  30.000000  0
-4.500000  9.000000  30.000000  0
-7.000000  9.000000  30.500000  0
-8.000000  8.500000  30.000000  0
-8.000000  9.000000  30.500000  0
-8.500000  9.000000  30.000000  0
-4.000000  8.500000  29.000000  0
-5.000000  8.500000  29.000000  0
-5.000000  9.000000  29.500000  0
-5.500000  9.000000  29.000000  0
-9.000000  9.000000  29.500000  0
-10.000000  9.000000  29.500000  0
-10.500000  9.000000  29.000000  0
-5.000000  8.500000  28.000000  0
-5.500000  9.000000  28.000000  0
-10.500000  9.000000  28.000000  0
-5.000000  8.500000  27.000000  0
-6.000000  8.500000  27.000000  0
-6.000000  9.000000  27.500000  0
-7.000000  8.500000  27.000000  0
-7.000000  9.000000  27.500000  0
-7.500000  9.000000  27.000000  0
-10.500000  9.000000  27.000000  0
-8.000000  9.000000  26.500000  0
-9.000000  9.000000  26.500000  0
-10.000000  9.000000  26.500000  0
-4.000000  9.500000  34.000000  0
-4.000000  9.500000  33.000000  0
-4.500000  10.000000  32.000000  0
-5.000000  10.000000  32.500000  0
-6.000000  10.000000  32.500000  0
-7.000000  9.500000  32.000000  0
-7.000000  10.000000  32.500000  0
-8.000000  9.500000  32.000000  0
-8.000000  10.000000  32.500000  0
-8.500000  10.000000  32.000000  0
-5.000000  9.500000  31.000000  0
-5.000000  10.000000  31.500000  0
-5.500000  10.000000  31.000000  0
-7.000000  9.500000  31.000000  0
-8.000000  9.500000  31.000000  0
-8.500000  10.000000  31.000000  0
-5.000000  9.500000  30.000000  0
-6.000000  9.500000  30.000000  0
-6.000000  10.000000  30.500000  0
-6.500000  10.000000  30.000000  0
-9.000000  9.500000  30.000000  0
-9.000000  10.000000  30.500000  0
-10.000000  9.500000  30.000000  0
-10.000000  10.000000  30.500000  0
-10.500000  10.000000  30.000000  0
-6.000000  9.500000  29.000000  0
-6.500000  10.000000  29.000000  0
-11.000000  9.500000  29.000000  0
-11.000000  10.000000  29.500000  0
-12.000000  9.500000  29.000000  0
-12.000000  10.000000  29.500000  0
-12.500000  10.000000  29.000000  0
-6.000000  9.500000  28.000000  0
-7.000000  9.500000  28.000000  0
-7.000000  10.000000  28.500000  0
-7.500000  10.000000  28.000000  0
-11.000000  9.500000  28.000000  0
-12.000000  9.500000  28.000000  0
-12.500000  10.000000  28.000000  0
-8.000000  9.500000  27.000000  0
-8.000000  10.000000  27.500000  0
-8.500000  10.000000  27.000000  0
-11.000000  9.500000  27.000000  0
-11.500000  10.000000  27.000000  0
-12.000000  10.000000  27.500000  0
-9.000000  10.000000  26.500000  0
-10.000000  10.000000  26.500000  0
-11.000000  10.000000  26.500000  0
-5.000000  10.500000  34.000000  0
-4.500000  11.000000  34.000000  0
-5.000000  11.000000  34.500000  0
-6.000000  10.500000  34.000000  0
-6.000000  11.000000  34.500000  0
-6.500000  11.000000  34.000000  0
-5.000000  11.000000  33.500000  0
-6.000000  10.500000  33.000000  0
-5.500000  11.000000  33.000000  0
-6.500000  11.000000  33.000000  0
-5.000000  10.500000  32.000000  0
-5.500000  11.000000  32.000000  0
-7.000000  11.000000  32.500000  0
-8.000000  11.000000  32.500000  0
-8.500000  11.000000  32.000000  0
-6.000000  10.500000  31.000000  0
-6.000000  11.000000  31.500000  0
-6.500000  11.000000  31.000000  0
-8.500000  11.000000  31.000000  0
-6.500000  11.000000  30.000000  0
-9.000000  10.500000  30.000000  0
-8.500000  11.000000  30.000000  0
-10.000000  10.500000  30.000000  0
-11.000000  10.500000  30.000000  0
-10.500000  11.000000  30.000000  0
-11.000000  11.000000  30.500000  0
-11.500000  11.000000  30.000000  0
-7.000000  10.500000  29.000000  0
-7.000000  11.000000  29.500000  0
-7.500000  11.000000  29.000000  0
-9.000000  11.000000  29.500000  0
-10.000000  11.000000  29.500000  0
-12.000000  11.000000  29.500000  0
-13.000000  10.500000  29.000000  0
-13.000000  11.000000  29.500000  0
-13.500000  11.000000  29.000000  0
-8.000000  10.500000  28.000000  0
-8.000000  11.000000  28.500000  0
-8.500000  11.000000  28.000000  0
-13.000000  10.500000  28.000000  0
-13.500000  11.000000  28.000000  0
-9.000000  10.500000  27.000000  0
-9.000000  11.000000  27.500000  0
-10.000000  10.500000  27.000000  0
-10.000000  11.000000  27.500000  0
-11.000000  10.500000  27.000000  0
-11.000000  11.000000  27.500000  0
-12.000000  11.000000  27.500000  0
-13.000000  11.000000  27.500000  0
-5.000000  11.500000  35.000000  0
-4.500000  12.000000  35.000000  0
-5.000000  12.000000  35.500000  0
-6.000000  11.500000  35.000000  0
-6.000000  12.000000  35.500000  0
-6.500000  12.000000  35.000000  0
-5.000000  11.500000  34.000000  0
-5.000000  12.000000  34.500000  0
-5.500000  12.000000  34.000000  0
-6.500000  12.000000  34.000000  0
-6.000000  11.500000  33.000000  0
-6.000000  12.000000  33.500000  0
-6.000000  11.500000  32.000000  0
-6.500000  12.000000  32.000000  0
-7.000000  12.000000  32.500000  0
-8.000000  12.000000  32.500000  0
-8.500000  12.000000  32.000000  0
-6.500000  12.000000  31.000000  0
-8.500000  12.000000  31.000000  0
-7.000000  11.500000  30.000000  0
-7.000000  12.000000  30.500000  0
-8.000000  11.500000  30.000000  0
-8.000000  12.000000  30.500000  0
-11.000000  11.500000  30.000000  0
-8.000000  11.500000  29.000000  0
-8.500000  12.000000  29.000000  0
-9.000000  12.000000  29.500000  0
-10.000000  11.500000  29.000000  0
-9.500000  12.000000  29.000000  0
-11.000000  11.500000  29.000000  0
-12.000000  11.500000  29.000000  0
-13.000000  11.500000  29.000000  0
-9.000000  11.500000  28.000000  0
-9.000000  12.000000  28.500000  0
-10.000000  11.500000  28.000000  0
-11.000000  11.500000  28.000000  0
-12.000000  11.500000  28.000000  0
-13.000000  11.500000  28.000000  0
-5.000000  12.500000  35.000000  0
-6.000000  12.500000  35.000000  0
-6.000000  12.500000  34.000000  0
-7.000000  12.500000  32.000000  0
-8.000000  12.500000  32.000000  0
-7.000000  12.500000  31.000000  0
-8.000000  12.500000  31.000000  0
-9.000000  12.500000  29.000000  0
2 0 1 0
2 3 0 0
4 3 2 0
5 3 4 0
1 0 6 0
0 7 6 0
3 7 0 0
3 5 7 0
9 1 8 0
2 1 9 0
10 2 9 0
4 2 10 0
11 4 10 0
5 4 11 0
8 6 12 0
1 6 8 0
12 7 13 0
6 7 12 0
5 13 7 0
11 13 5 0
16 14 15 0
16 17 14 0
18 17 16 0
18 19 17 0
20 19 18 0
20 21 19 0
22 21 20 0
22 23 21 0
24 23 22 0
25 23 24 0
15 14 26 0
14 17 27 0
26 14 27 0
28 26 27 0
29 17 19 0
27 17 29 0
30 19 21 0
29 19 30 0
31 21 23 0
30 21 31 0
25 31 23 0
32 31 25 0
28 27 33 0
27 34 33 0
29 34 27 0
29 30 35 0
34 29 35 0
36 34 35 0
37 30 31 0
35 30 37 0
38 37 31 0
39 38 31 0
32 39 31 0
40 38 39 0
36 35 41 0
35 42 41 0
37 42 35 0
37 38 43 0
42 37 43 0
44 42 43 0
45 43 38 0
46 45 38 0
40 46 38 0
47 45 46 0
8 48 44 0
9 8 44 0
43 9 44 0
43 45 9 0
9 45 10 0
47 49 11 0
45 47 11 0
10 45 11 0
48 12 50 0
8 12 48 0
50 13 51 0
12 13 50 0
11 51 13 0
49 51 11 0
53 15 52 0
16 15 53 0
54 16 53 0
18 16 54 0
55 18 54 0
20 18 55 0
56 20 55 0
22 20 56 0
57 22 56 0
24 22 57 0
58 24 57 0
25 24 58 0
52 26 59 0
15 26 52 0
61 59 26 0
61 26 28 0
61 28 60 0
61 60 62 0
32 58 63 0
25 58 32 0
60 28 33 0
33 34 64 0
60 33 64 0
62 60 64 0
64 34 65 0
65 34 36 0
66 39 63 0
63 39 32 0
39 66 68 0
40 39 68 0
67 40 68 0
69 67 68 0
65 41 70 0
36 41 65 0
70 42 71 0
41 42 70 0
71 42 72 0
72 42 44 0
46 40 67 0
69 73 47 0
67 69 47 0
46 67 47 0
44 74 72 0
48 74 44 0
49 73 75 0
47 73 49 0
74 50 76 0
48 50 74 0
76 51 77 0
50 51 76 0
49 77 51 0
75 77 49 0
80 78 79 0
80 81 78 0
82 81 80 0
83 81 82 0
78 85 79 0
84 85 78 0
86 78 81 0
84 78 86 0
83 86 81 0
87 86 83 0
84 89 85 0
88 89 84 0
90 84 86 0
88 84 90 0
91 90 86 0
92 91 86 0
87 92 86 0
92 93 91 0
94 93 92 0
95 93 94 0
98 96 97 0
88 99 96 0
89 88 96 0
98 89 96 0
100 88 90 0
99 88 100 0
101 90 91 0
100 90 101 0
102 91 93 0
101 91 102 0
95 102 93 0
103 102 95 0
97 96 105 0
52 104 53 0
54 106 99 0
54 53 106 0
53 104 106 0
99 106 96 0
96 106 105 0
99 100 54 0
54 100 55 0
100 101 55 0
55 101 56 0
101 102 56 0
56 102 57 0
108 102 103 0
108 107 102 0
107 57 102 0
58 57 107 0
108 109 107 0
110 109 108 0
111 109 110 0
104 52 59 0
106 112 113 0
106 61 112 0
104 61 106 0
59 61 104 0
62 112 61 0
63 58 114 0
114 58 107 0
115 107 109 0
114 107 115 0
111 115 109 0
116 115 111 0
112 118 113 0
117 118 112 0
119 117 112 0
119 112 62 0
119 62 64 0
65 119 64 0
66 63 114 0
114 115 66 0
66 115 68 0
116 120 69 0
115 116 69 0
68 115 69 0
118 117 121 0
117 122 121 0
119 122 117 0
122 123 124 0
122 119 123 0
119 70 123 0
65 70 119 0
125 123 71 0
71 123 70 0
72 125 71 0
73 69 120 0
73 120 127 0
73 127 126 0
127 128 126 0
129 128 127 0
130 128 129 0
124 123 131 0
123 132 131 0
125 132 123 0
72 74 133 0
72 133 132 0
72 132 125 0
75 73 134 0
134 73 126 0
135 126 128 0
134 126 135 0
130 135 128 0
136 135 130 0
133 76 137 0
74 76 133 0
137 77 138 0
76 77 137 0
139 138 77 0
134 139 77 0
75 134 77 0
134 140 139 0
135 140 134 0
135 136 140 0
142 79 141 0
80 79 142 0
143 80 142 0
82 80 143 0
144 82 143 0
83 82 144 0
79 145 141 0
85 145 79 0
87 83 144 0
87 144 147 0
87 147 146 0
148 146 147 0
85 149 145 0
89 149 85 0
92 87 146 0
150 94 92 0
150 92 146 0
150 146 148 0
151 94 150 0
95 94 151 0
98 97 152 0
153 149 89 0
153 89 98 0
153 98 152 0
103 151 154 0
95 151 103 0
152 97 105 0
106 155 153 0
106 153 152 0
106 152 105 0
156 108 154 0
154 108 103 0
157 108 156 0
110 108 157 0
158 110 157 0
111 110 158 0
106 159 155 0
113 159 106 0
116 158 160 0
111 158 116 0
113 161 159 0
118 161 113 0
120 160 162 0
116 160 120 0
161 121 163 0
118 121 161 0
163 122 164 0
121 122 163 0
164 122 165 0
165 122 124 0
166 127 162 0
162 127 120 0
167 127 166 0
129 127 167 0
168 129 167 0
130 129 168 0
165 131 169 0
124 131 165 0
169 132 170 0
131 132 169 0
172 170 132 0
172 132 133 0
172 133 171 0
172 171 173 0
136 168 174 0
130 168 136 0
171 133 137 0
137 138 175 0
171 137 175 0
173 171 175 0
175 139 176 0
138 139 175 0
176 140 177 0
139 140 176 0
136 177 140 0
174 177 136 0
180 178 179 0
180 181 178 0
182 181 180 0
183 181 182 0
141 184 179 0
142 141 179 0
178 142 179 0
178 181 142 0
142 181 143 0
183 185 144 0
181 183 144 0
143 181 144 0
141 186 184 0
145 186 141 0
187 147 185 0
185 147 144 0
147 187 189 0
148 147 189 0
188 148 189 0
190 188 189 0
145 191 186 0
149 191 145 0
193 192 150 0
193 150 148 0
194 193 148 0
188 194 148 0
190 194 188 0
151 150 192 0
149 195 191 0
153 195 149 0
196 192 193 0
154 151 197 0
151 198 197 0
151 192 198 0
192 196 198 0
198 199 197 0
200 199 198 0
201 199 200 0
153 202 195 0
155 202 153 0
156 154 197 0
197 199 156 0
156 199 157 0
201 203 158 0
199 201 158 0
157 199 158 0
202 155 159 0
205 202 159 0
204 205 159 0
204 206 205 0
205 206 207 0
207 206 208 0
160 203 209 0
158 203 160 0
210 159 161 0
204 159 210 0
210 206 204 0
211 206 210 0
206 211 208 0
208 211 212 0
162 209 213 0
160 209 162 0
210 161 163 0
163 211 210 0
164 211 163 0
165 214 212 0
165 212 211 0
165 211 164 0
162 213 216 0
162 216 215 0
162 215 166 0
167 215 217 0
166 215 167 0
167 217 168 0
214 169 218 0
165 169 214 0
218 170 219 0
169 170 218 0
219 172 220 0
170 172 219 0
222 220 172 0
222 172 173 0
222 173 221 0
221 223 215 0
221 215 216 0
221 216 222 0
223 217 215 0
224 217 223 0
217 174 168 0
224 174 217 0
221 173 175 0
175 223 221 0
176 223 175 0
176 224 223 0
177 224 176 0
177 174 224 0
226 179 225 0
180 179 226 0
227 180 226 0
182 180 227 0
228 182 227 0
183 182 228 0
179 229 225 0
184 229 179 0
185 228 230 0
183 228 185 0
229 184 186 0
232 229 186 0
231 232 186 0
232 231 233 0
234 187 230 0
230 187 185 0
235 187 234 0
189 187 235 0
236 189 235 0
190 189 236 0
237 186 191 0
231 186 237 0
231 237 233 0
233 237 238 0
239 193 240 0
240 193 194 0
190 240 194 0
236 240 190 0
241 191 195 0
237 191 241 0
237 241 238 0
238 241 242 0
243 196 239 0
239 196 193 0
244 196 243 0
198 196 244 0
245 198 244 0
200 198 245 0
246 200 245 0
201 200 246 0
247 195 202 0
241 195 247 0
241 247 242 0
242 247 248 0
203 246 249 0
201 246 203 0
247 202 205 0
205 207 250 0
247 205 250 0
248 247 250 0
250 207 251 0
251 207 208 0
209 249 252 0
203 249 209 0
251 208 212 0
254 251 212 0
253 254 212 0
253 255 254 0
254 255 256 0
256 255 257 0
213 252 258 0
209 252 213 0
259 212 214 0
253 212 259 0
259 255 253 0
260 255 259 0
255 260 257 0
257 260 261 0
216 258 262 0
213 258 216 0
259 214 218 0
218 260 259 0
219 260 218 0
219 220 263 0
260 219 263 0
261 260 263 0
263 222 264 0
220 222 263 0
216 264 222 0
262 264 216 0
267 265 266 0
267 268 265 0
269 268 267 0
270 268 269 0
225 271 266 0
226 225 266 0
265 226 266 0
265 268 226 0
226 268 227 0
270 272 228 0
268 270 228 0
227 268 228 0
225 273 271 0
229 273 225 0
230 228 272 0
230 272 275 0
230 275 274 0
276 274 275 0
273 232 277 0
229 232 273 0
277 232 278 0
278 232 233 0
234 230 274 0
279 235 234 0
279 234 274 0
279 274 276 0
280 235 279 0
236 235 280 0
233 281 278 0
238 281 233 0
282 239 240 0
280 240 236 0
280 282 240 0
284 282 280 0
283 282 284 0
285 283 284 0
238 286 281 0
242 286 238 0
243 239 282 0
282 283 243 0
243 283 244 0
287 245 244 0
287 244 283 0
287 283 285 0
245 287 289 0
246 245 289 0
288 246 289 0
289 290 288 0
291 290 289 0
292 290 291 0
286 242 248 0
294 286 248 0
293 294 248 0
294 293 295 0
249 246 296 0
296 246 288 0
297 288 290 0
296 288 297 0
292 297 290 0
298 297 292 0
293 248 250 0
251 299 295 0
251 295 293 0
251 293 250 0
252 249 300 0
300 249 296 0
301 296 297 0
300 296 301 0
298 301 297 0
302 301 298 0
299 254 303 0
251 254 299 0
303 256 304 0
254 256 303 0
306 304 256 0
306 256 257 0
306 257 305 0
305 307 306 0
306 307 308 0
308 300 309 0
308 252 300 0
307 252 308 0
258 252 307 0
300 310 309 0
301 310 300 0
301 302 310 0
311 257 261 0
305 257 311 0
311 307 305 0
312 307 311 0
307 262 258 0
312 262 307 0
311 261 263 0
263 312 311 0
264 312 263 0
264 262 312 0
267 266 313 0
315 269 267 0
314 315 267 0
313 314 267 0
316 269 315 0
270 269 316 0
317 266 271 0
313 266 317 0
313 317 314 0
314 317 318 0
272 316 319 0
270 316 272 0
320 271 273 0
317 271 320 0
317 320 321 0
317 321 322 0
317 322 318 0
272 321 275 0
272 319 321 0
319 322 321 0
275 321 324 0
324 321 323 0
275 324 326 0
276 275 326 0
325 276 326 0
327 325 326 0
320 273 277 0
328 321 320 0
278 328 320 0
277 278 320 0
321 328 323 0
323 328 329 0
279 276 325 0
327 330 280 0
325 327 280 0
279 325 280 0
331 278 281 0
328 278 331 0
328 331 329 0
329 331 332 0
333 284 330 0
330 284 280 0
284 333 335 0
285 284 335 0
334 285 335 0
336 334 335 0
337 281 286 0
331 281 337 0
331 337 338 0
331 338 339 0
331 339 332 0
339 338 340 0
287 285 334 0
341 289 287 0
341 287 334 0
341 334 336 0
342 289 341 0
291 289 342 0
343 291 342 0
292 291 343 0
337 286 294 0
344 338 337 0
295 344 337 0
294 295 337 0
338 344 340 0
340 344 345 0
298 343 346 0
292 343 298 0
347 295 299 0
344 295 347 0
344 347 348 0
344 348 349 0
344 349 345 0
348 350 349 0
349 350 351 0
351 350 352 0
302 346 353 0
298 346 302 0
347 299 303 0
303 348 347 0
304 348 303 0
304 350 348 0
306 350 304 0
306 308 354 0
350 306 354 0
352 350 354 0
354 309 355 0
308 309 354 0
355 310 356 0
309 310 355 0
302 356 310 0
353 356 302 0
315 314 357 0
315 357 316 0
358 314 318 0
357 314 358 0
357 319 316 0
358 319 357 0
358 318 322 0
360 323 359 0
324 323 360 0
358 322 319 0
361 324 360 0
326 324 361 0
326 361 363 0
327 326 363 0
362 327 363 0
363 364 362 0
365 364 363 0
366 364 365 0
359 323 329 0
368 359 329 0
367 368 329 0
368 367 369 0
330 327 370 0
370 327 362 0
371 362 364 0
370 362 371 0
366 371 364 0
372 371 366 0
373 329 332 0
367 329 373 0
367 373 374 0
367 374 375 0
367 375 369 0
375 374 376 0
333 330 370 0
370 371 333 0
333 371 335 0
378 371 372 0
378 377 371 0
377 335 371 0
336 335 377 0
378 379 377 0
380 379 378 0
381 379 380 0
373 332 339 0
382 374 373 0
340 382 373 0
339 340 373 0
374 382 376 0
376 382 383 0
341 336 377 0
377 379 341 0
341 379 342 0
385 379 381 0
385 384 379 0
384 342 379 0
343 342 384 0
385 386 384 0
387 386 385 0
388 386 387 0
389 340 345 0
382 340 389 0
382 389 390 0
382 390 391 0
382 391 383 0
391 390 392 0
346 343 393 0
393 343 384 0
394 384 386 0
393 384 394 0
388 394 386 0
395 394 388 0
389 345 349 0
349 390 389 0
351 390 349 0
390 397 392 0
390 351 397 0
351 396 397 0
352 396 351 0
397 396 398 0
353 346 399 0
399 346 393 0
399 393 394 0
400 399 394 0
401 400 394 0
394 395 401 0
396 352 354 0
354 355 402 0
396 354 402 0
398 396 402 0
402 356 403 0
355 356 402 0
404 403 356 0
399 404 356 0
353 399 356 0
399 400 404 0
407 405 406 0
407 408 405 0
409 408 407 0
410 408 409 0
406 405 411 0
405 408 412 0
411 405 412 0
413 411 412 0
410 412 408 0
414 412 410 0
360 359 415 0
416 413 415 0
413 360 415 0
413 412 360 0
412 361 360 0
417 363 361 0
417 361 412 0
417 412 414 0
418 363 417 0
365 363 418 0
419 365 418 0
366 365 419 0
415 359 368 0
415 421 416 0
415 368 421 0
368 420 421 0
369 420 368 0
421 420 422 0
372 419 423 0
366 419 372 0
420 369 375 0
376 424 422 0
376 422 420 0
376 420 375 0
372 423 426 0
372 426 425 0
372 425 378 0
380 425 427 0
378 425 380 0
430 428 429 0
380 427 381 0
431 428 430 0
424 376 383 0
433 424 383 0
432 433 383 0
433 432 434 0
435 425 426 0
435 436 425 0
425 436 427 0
436 429 428 0
436 428 385 0
427 436 385 0
381 427 385 0
437 387 385 0
437 385 428 0
437 428 431 0
387 437 439 0
388 387 439 0
438 388 439 0
440 438 439 0
432 383 391 0
432 442 434 0
432 391 442 0
391 441 442 0
392 441 391 0
442 441 443 0
395 388 444 0
444 388 438 0
440 444 438 0
445 444 440 0
441 392 397 0
441 447 443 0
441 397 447 0
397 446 447 0
398 446 397 0
446 448 447 0
447 448 449 0
448 450 449 0
449 450 451 0
401 452 451 0
401 451 450 0
401 450 400 0
453 452 401 0
444 453 401 0
395 444 401 0
444 445 453 0
446 398 402 0
402 448 446 0
403 448 402 0
403 450 448 0
404 450 403 0
404 400 450 0
456 454 455 0
456 457 454 0
458 457 456 0
459 457 458 0
455 454 461 0
406 460 407 0
409 462 457 0
409 407 462 0
407 460 462 0
457 462 454 0
454 462 461 0
459 463 410 0
457 459 410 0
409 457 410 0
460 406 411 0
460 465 462 0
460 411 465 0
411 464 465 0
413 464 411 0
414 410 463 0
464 414 463 0
465 464 463 0
466 413 416 0
464 413 466 0
466 414 464 0
466 417 414 0
467 417 466 0
468 417 467 0
469 417 468 0
418 417 469 0
470 418 469 0
419 418 470 0
466 416 421 0
422 471 467 0
422 467 466 0
422 466 421 0
423 470 472 0
419 470 423 0
471 422 424 0
474 471 424 0
473 474 424 0
473 475 474 0
474 475 476 0
426 423 472 0
475 426 472 0
476 475 472 0
430 429 477 0
430 477 431 0
473 424 433 0
478 475 473 0
434 478 473 0
433 434 473 0
478 426 475 0
478 435 426 0
479 435 478 0
480 435 479 0
436 435 480 0
481 436 480 0
482 481 480 0
481 483 477 0
436 481 477 0
429 436 477 0
477 483 484 0
431 477 484 0
437 431 484 0
439 484 485 0
437 484 439 0
439 485 440 0
478 434 442 0
478 487 479 0
478 442 487 0
442 486 487 0
443 486 442 0
486 488 481 0
486 481 482 0
486 482 487 0
488 483 481 0
489 483 488 0
489 484 483 0
490 484 489 0
490 485 484 0
491 485 490 0
485 445 440 0
491 445 485 0
486 443 447 0
447 488 486 0
449 488 447 0
449 489 488 0
451 489 449 0
451 490 489 0
452 490 451 0
452 491 490 0
453 491 452 0
453 445 491 0
456 455 492 0
458 492 493 0
456 492 458 0
458 493 459 0
492 455 461 0
494 493 492 0
462 494 492 0
461 462 492 0
493 463 459 0
494 463 493 0
494 462 465 0
465 463 494 0
468 467 495 0
469 495 496 0
468 495 469 0
469 496 470 0
497 467 471 0
495 467 497 0
497 496 495 0
498 496 497 0
496 472 470 0
498 472 496 0
497 471 474 0
474 498 497 0
476 498 474 0
476 472 498 0
480 479 499 0
480 499 482 0
499 479 487 0
487 482 499 0
