#!ascii version of
1340 2676
-18.000000  -13.000000  21.500000  0
-19.000000  -13.500000  21.000000  0
-24.500000  -13.000000  21.000000  0
-17.000000  -13.500000  20.000000  0
-16.500000  -13.000000  20.000000  0
-18.000000  -13.500000  20.000000  0
-19.000000  -13.500000  20.000000  0
-25.000000  -13.000000  20.500000  0
-26.000000  -13.000000  20.500000  0
-26.500000  -13.000000  20.000000  0
-17.000000  -13.000000  19.500000  0
-18.000000  -13.500000  19.000000  0
-17.500000  -13.000000  19.000000  0
-19.000000  -13.500000  19.000000  0
-20.000000  -13.500000  19.000000  0
-27.000000  -13.000000  19.500000  0
-27.500000  -13.000000  19.000000  0
-18.000000  -13.000000  18.500000  0
-19.000000  -13.500000  18.000000  0
-18.500000  -13.000000  18.000000  0
-20.000000  -13.500000  18.000000  0
-21.000000  -13.500000  18.000000  0
-22.000000  -13.500000  18.000000  0
-23.000000  -13.500000  18.000000  0
-24.000000  -13.500000  18.000000  0
-25.000000  -13.500000  18.000000  0
-26.000000  -13.500000  18.000000  0
-27.000000  -13.500000  18.000000  0
-28.000000  -13.500000  18.000000  0
-28.000000  -13.000000  18.500000  0
-29.000000  -13.500000  18.000000  0
-29.000000  -13.000000  18.500000  0
-29.500000  -13.000000  18.000000  0
-19.000000  -13.000000  17.500000  0
-20.000000  -13.000000  17.500000  0
-21.000000  -13.500000  17.000000  0
-20.500000  -13.000000  17.000000  0
-22.000000  -13.500000  17.000000  0
-23.000000  -13.500000  17.000000  0
-24.000000  -13.500000  17.000000  0
-25.000000  -13.500000  17.000000  0
-26.000000  -13.500000  17.000000  0
-27.000000  -13.500000  17.000000  0
-28.000000  -13.500000  17.000000  0
-29.000000  -13.500000  17.000000  0
-30.000000  -13.500000  17.000000  0
-30.000000  -13.000000  17.500000  0
-30.500000  -13.000000  17.000000  0
-21.000000  -13.000000  16.500000  0
-22.000000  -13.000000  16.500000  0
-23.000000  -13.500000  16.000000  0
-22.500000  -13.000000  16.000000  0
-24.000000  -13.500000  16.000000  0
-25.000000  -13.500000  16.000000  0
-26.000000  -13.500000  16.000000  0
-27.000000  -13.500000  16.000000  0
-28.000000  -13.500000  16.000000  0
-28.500000  -13.000000  16.000000  0
-29.000000  -13.000000  16.500000  0
-30.000000  -13.000000  16.500000  0
-23.000000  -13.000000  15.500000  0
-24.000000  -13.000000  15.500000  0
-25.000000  -13.000000  15.500000  0
-26.000000  -13.000000  15.500000  0
-27.000000  -13.000000  15.500000  0
-28.000000  -13.000000  15.500000  0
-18.500000  -12.000000  23.000000  0
-19.000000  -12.000000  23.500000  0
-20.000000  -12.000000  23.500000  0
-21.000000  -12.000000  23.500000  0
-22.000000  -12.000000  23.500000  0
-23.000000  -12.000000  23.500000  0
-24.000000  -12.000000  23.500000  0
-24.500000  -12.000000  23.000000  0
-18.500000  -12.000000  22.000000  0
-24.500000  -12.000000  22.000000  0
-16.500000  -12.000000  21.000000  0
-17.000000  -12.000000  21.500000  0
-18.000000  -12.000000  21.500000  0
-24.500000  -12.000000  21.000000  0
-16.500000  -12.000000  20.000000  0
-25.000000  -12.000000  20.500000  0
-26.000000  -12.000000  20.500000  0
-26.500000  -12.000000  20.000000  0
-17.000000  -12.500000  19.000000  0
-16.500000  -12.000000  19.000000  0
-27.000000  -12.000000  19.500000  0
-27.500000  -12.000000  19.000000  0
-17.000000  -12.500000  18.000000  0
-16.500000  -12.000000  18.000000  0
-18.000000  -12.500000  18.000000  0
-28.000000  -12.000000  18.500000  0
-29.000000  -12.000000  18.500000  0
-29.500000  -12.000000  18.000000  0
-17.000000  -12.500000  17.000000  0
-16.500000  -12.000000  17.000000  0
-18.000000  -12.500000  17.000000  0
-19.000000  -12.500000  17.000000  0
-20.000000  -12.500000  17.000000  0
-30.000000  -12.000000  17.500000  0
-30.500000  -12.000000  17.000000  0
-17.000000  -12.500000  16.000000  0
-16.500000  -12.000000  16.000000  0
-18.000000  -12.500000  16.000000  0
-19.000000  -12.500000  16.000000  0
-20.000000  -12.500000  16.000000  0
-21.000000  -12.500000  16.000000  0
-22.000000  -12.500000  16.000000  0
-29.000000  -12.500000  16.000000  0
-30.000000  -12.500000  16.000000  0
-30.500000  -12.000000  16.000000  0
-17.000000  -12.000000  15.500000  0
-18.000000  -12.000000  15.500000  0
-19.000000  -12.000000  15.500000  0
-20.000000  -12.500000  15.000000  0
-19.500000  -12.000000  15.000000  0
-21.000000  -12.500000  15.000000  0
-22.000000  -12.500000  15.000000  0
-23.000000  -12.500000  15.000000  0
-24.000000  -12.500000  15.000000  0
-25.000000  -12.500000  15.000000  0
-26.000000  -12.500000  15.000000  0
-27.000000  -12.500000  15.000000  0
-28.000000  -12.500000  15.000000  0
-29.000000  -12.500000  15.000000  0
-29.500000  -12.000000  15.000000  0
-30.000000  -12.000000  15.500000  0
-20.000000  -12.000000  14.500000  0
-21.000000  -12.000000  14.500000  0
-22.000000  -12.000000  14.500000  0
-23.000000  -12.000000  14.500000  0
-24.000000  -12.500000  14.000000  0
-23.500000  -12.000000  14.000000  0
-25.000000  -12.500000  14.000000  0
-26.000000  -12.500000  14.000000  0
-27.000000  -12.500000  14.000000  0
-28.000000  -12.500000  14.000000  0
-29.000000  -12.500000  14.000000  0
-29.500000  -12.000000  14.000000  0
-24.000000  -12.000000  13.500000  0
-25.000000  -12.000000  13.500000  0
-26.000000  -12.000000  13.500000  0
-27.000000  -12.000000  13.500000  0
-28.000000  -12.000000  13.500000  0
-29.000000  -12.000000  13.500000  0
-17.000000  -11.500000  23.000000  0
-16.500000  -11.000000  23.000000  0
-17.000000  -11.000000  23.500000  0
-18.000000  -11.500000  23.000000  0
-18.000000  -11.000000  23.500000  0
-19.000000  -11.000000  23.500000  0
-20.000000  -11.000000  23.500000  0
-21.000000  -11.000000  23.500000  0
-22.000000  -11.000000  23.500000  0
-23.000000  -11.500000  23.000000  0
-22.500000  -11.000000  23.000000  0
-24.000000  -11.500000  23.000000  0
-17.000000  -11.500000  22.000000  0
-16.500000  -11.000000  22.000000  0
-18.000000  -11.500000  22.000000  0
-23.000000  -11.500000  22.000000  0
-22.500000  -11.000000  22.000000  0
-24.000000  -11.500000  22.000000  0
-16.000000  -11.500000  21.000000  0
-15.500000  -11.000000  21.000000  0
-16.000000  -11.000000  21.500000  0
-23.000000  -11.000000  21.500000  0
-24.000000  -11.000000  21.500000  0
-24.500000  -11.000000  21.000000  0
-16.000000  -11.500000  20.000000  0
-15.500000  -11.000000  20.000000  0
-25.000000  -11.000000  20.500000  0
-26.000000  -11.000000  20.500000  0
-26.500000  -11.000000  20.000000  0
-16.000000  -11.500000  19.000000  0
-15.500000  -11.000000  19.000000  0
-27.000000  -11.000000  19.500000  0
-27.500000  -11.000000  19.000000  0
-16.000000  -11.500000  18.000000  0
-15.500000  -11.000000  18.000000  0
-28.000000  -11.000000  18.500000  0
-29.000000  -11.000000  18.500000  0
-29.500000  -11.000000  18.000000  0
-16.000000  -11.500000  17.000000  0
-15.500000  -11.000000  17.000000  0
-30.000000  -11.000000  17.500000  0
-30.500000  -11.000000  17.000000  0
-16.000000  -11.000000  16.500000  0
-16.500000  -11.000000  16.000000  0
-30.500000  -11.000000  16.000000  0
-17.000000  -11.000000  15.500000  0
-18.000000  -11.500000  15.000000  0
-17.500000  -11.000000  15.000000  0
-19.000000  -11.500000  15.000000  0
-30.000000  -11.500000  15.000000  0
-30.500000  -11.000000  15.000000  0
-18.000000  -11.000000  14.500000  0
-19.000000  -11.000000  14.500000  0
-20.000000  -11.000000  14.500000  0
-21.000000  -11.000000  14.500000  0
-22.000000  -11.000000  14.500000  0
-23.000000  -11.500000  14.000000  0
-22.500000  -11.000000  14.000000  0
-30.000000  -11.500000  14.000000  0
-31.000000  -11.500000  14.000000  0
-31.000000  -11.000000  14.500000  0
-31.500000  -11.000000  14.000000  0
-23.000000  -11.000000  13.500000  0
-24.000000  -11.500000  13.000000  0
-23.500000  -11.000000  13.000000  0
-25.000000  -11.500000  13.000000  0
-26.000000  -11.500000  13.000000  0
-27.000000  -11.500000  13.000000  0
-28.000000  -11.500000  13.000000  0
-28.500000  -11.000000  13.000000  0
-29.000000  -11.000000  13.500000  0
-30.000000  -11.000000  13.500000  0
-31.000000  -11.000000  13.500000  0
-24.000000  -11.000000  12.500000  0
-25.000000  -11.000000  12.500000  0
-26.000000  -11.000000  12.500000  0
-27.000000  -11.000000  12.500000  0
-28.000000  -11.000000  12.500000  0
-18.000000  -10.500000  24.000000  0
-17.500000  -10.000000  24.000000  0
-18.000000  -10.000000  24.500000  0
-18.500000  -10.000000  24.000000  0
-16.500000  -10.000000  23.000000  0
-17.000000  -10.000000  23.500000  0
-19.000000  -10.000000  23.500000  0
-20.000000  -10.000000  23.500000  0
-21.000000  -10.500000  23.000000  0
-20.500000  -10.000000  23.000000  0
-22.000000  -10.500000  23.000000  0
-16.000000  -10.500000  22.000000  0
-15.500000  -10.000000  22.000000  0
-16.000000  -10.000000  22.500000  0
-21.000000  -10.000000  22.500000  0
-22.000000  -10.500000  22.000000  0
-21.500000  -10.000000  22.000000  0
-14.000000  -10.500000  21.000000  0
-13.500000  -10.000000  21.000000  0
-14.000000  -10.000000  21.500000  0
-15.000000  -10.500000  21.000000  0
-15.000000  -10.000000  21.500000  0
-22.000000  -10.000000  21.500000  0
-23.000000  -10.000000  21.500000  0
-24.000000  -10.000000  21.500000  0
-24.500000  -10.000000  21.000000  0
-13.000000  -10.500000  20.000000  0
-12.500000  -10.000000  20.000000  0
-13.000000  -10.000000  20.500000  0
-14.000000  -10.500000  20.000000  0
-15.000000  -10.500000  20.000000  0
-25.000000  -10.000000  20.500000  0
-26.000000  -10.500000  20.000000  0
-25.500000  -10.000000  20.000000  0
-12.000000  -10.500000  19.000000  0
-11.500000  -10.000000  19.000000  0
-12.000000  -10.000000  19.500000  0
-13.000000  -10.500000  19.000000  0
-14.000000  -10.500000  19.000000  0
-15.000000  -10.500000  19.000000  0
-26.000000  -10.500000  19.000000  0
-25.500000  -10.000000  19.000000  0
-27.000000  -10.500000  19.000000  0
-12.000000  -10.500000  18.000000  0
-11.500000  -10.000000  18.000000  0
-13.000000  -10.500000  18.000000  0
-14.000000  -10.500000  18.000000  0
-15.000000  -10.500000  18.000000  0
-26.000000  -10.000000  18.500000  0
-27.000000  -10.000000  18.500000  0
-28.000000  -10.000000  18.500000  0
-29.000000  -10.000000  18.500000  0
-29.500000  -10.000000  18.000000  0
-12.000000  -10.000000  17.500000  0
-13.000000  -10.000000  17.500000  0
-14.000000  -10.000000  17.500000  0
-15.000000  -10.500000  17.000000  0
-14.500000  -10.000000  17.000000  0
-30.000000  -10.000000  17.500000  0
-30.500000  -10.000000  17.000000  0
-15.000000  -10.000000  16.500000  0
-16.000000  -10.000000  16.500000  0
-16.500000  -10.000000  16.000000  0
-30.500000  -10.000000  16.000000  0
-17.000000  -10.000000  15.500000  0
-17.500000  -10.000000  15.000000  0
-30.500000  -10.000000  15.000000  0
-18.000000  -10.000000  14.500000  0
-19.000000  -10.000000  14.500000  0
-20.000000  -10.500000  14.000000  0
-19.500000  -10.000000  14.000000  0
-21.000000  -10.500000  14.000000  0
-22.000000  -10.500000  14.000000  0
-31.000000  -10.000000  14.500000  0
-31.500000  -10.000000  14.000000  0
-20.000000  -10.000000  13.500000  0
-21.000000  -10.500000  13.000000  0
-20.500000  -10.000000  13.000000  0
-22.000000  -10.500000  13.000000  0
-23.000000  -10.500000  13.000000  0
-29.000000  -10.500000  13.000000  0
-30.000000  -10.500000  13.000000  0
-31.000000  -10.500000  13.000000  0
-32.000000  -10.500000  13.000000  0
-32.000000  -10.000000  13.500000  0
-32.500000  -10.000000  13.000000  0
-21.000000  -10.000000  12.500000  0
-22.000000  -10.000000  12.500000  0
-23.000000  -10.000000  12.500000  0
-24.000000  -10.000000  12.500000  0
-25.000000  -10.000000  12.500000  0
-26.000000  -10.000000  12.500000  0
-27.000000  -10.000000  12.500000  0
-28.000000  -10.000000  12.500000  0
-29.000000  -10.000000  12.500000  0
-30.000000  -10.000000  12.500000  0
-31.000000  -10.000000  12.500000  0
-32.000000  -10.000000  12.500000  0
-18.000000  -9.500000  24.000000  0
-17.000000  -9.500000  23.000000  0
-18.000000  -9.500000  23.000000  0
-19.000000  -9.500000  23.000000  0
-20.000000  -9.500000  23.000000  0
-15.000000  -9.500000  22.000000  0
-14.500000  -9.000000  22.000000  0
-15.000000  -9.000000  22.500000  0
-16.000000  -9.000000  22.500000  0
-17.000000  -9.000000  22.500000  0
-18.000000  -9.000000  22.500000  0
-19.000000  -9.500000  22.000000  0
-18.500000  -9.000000  22.000000  0
-20.000000  -9.500000  22.000000  0
-21.000000  -9.500000  22.000000  0
-13.500000  -9.000000  21.000000  0
-14.000000  -9.000000  21.500000  0
-19.000000  -9.000000  21.500000  0
-20.000000  -9.000000  21.500000  0
-21.000000  -9.000000  21.500000  0
-22.000000  -9.000000  21.500000  0
-23.000000  -9.000000  21.500000  0
-24.000000  -9.000000  21.500000  0
-24.500000  -9.000000  21.000000  0
-12.500000  -9.000000  20.000000  0
-13.000000  -9.000000  20.500000  0
-25.000000  -9.000000  20.500000  0
-25.500000  -9.000000  20.000000  0
-11.500000  -9.000000  19.000000  0
-12.000000  -9.000000  19.500000  0
-26.000000  -9.500000  19.000000  0
-26.000000  -9.000000  19.500000  0
-27.000000  -9.500000  19.000000  0
-27.000000  -9.000000  19.500000  0
-28.000000  -9.500000  19.000000  0
-28.000000  -9.000000  19.500000  0
-29.000000  -9.500000  19.000000  0
-29.000000  -9.000000  19.500000  0
-29.500000  -9.000000  19.000000  0
-11.000000  -9.500000  18.000000  0
-10.500000  -9.000000  18.000000  0
-11.000000  -9.000000  18.500000  0
-30.000000  -9.500000  18.000000  0
-30.000000  -9.000000  18.500000  0
-30.500000  -9.000000  18.000000  0
-11.000000  -9.000000  17.500000  0
-12.000000  -9.000000  17.500000  0
-13.000000  -9.000000  17.500000  0
-14.000000  -9.500000  17.000000  0
-13.500000  -9.000000  17.000000  0
-30.500000  -9.000000  17.000000  0
-14.000000  -9.500000  16.000000  0
-13.500000  -9.000000  16.000000  0
-15.000000  -9.500000  16.000000  0
-16.000000  -9.500000  16.000000  0
-30.500000  -9.000000  16.000000  0
-14.000000  -9.000000  15.500000  0
-15.000000  -9.500000  15.000000  0
-14.500000  -9.000000  15.000000  0
-16.000000  -9.500000  15.000000  0
-17.000000  -9.500000  15.000000  0
-31.000000  -9.500000  15.000000  0
-31.000000  -9.000000  15.500000  0
-31.500000  -9.000000  15.000000  0
-15.000000  -9.000000  14.500000  0
-16.000000  -9.000000  14.500000  0
-17.000000  -9.500000  14.000000  0
-16.500000  -9.000000  14.000000  0
-18.000000  -9.500000  14.000000  0
-19.000000  -9.500000  14.000000  0
-31.500000  -9.000000  14.000000  0
-17.000000  -9.000000  13.500000  0
-18.000000  -9.000000  13.500000  0
-19.000000  -9.000000  13.500000  0
-20.000000  -9.000000  13.500000  0
-20.500000  -9.000000  13.000000  0
-32.000000  -9.000000  13.500000  0
-32.500000  -9.000000  13.000000  0
-21.000000  -9.000000  12.500000  0
-22.000000  -9.000000  12.500000  0
-23.000000  -9.000000  12.500000  0
-24.000000  -9.000000  12.500000  0
-25.000000  -9.000000  12.500000  0
-26.000000  -9.000000  12.500000  0
-27.000000  -9.500000  12.000000  0
-26.500000  -9.000000  12.000000  0
-28.000000  -9.500000  12.000000  0
-29.000000  -9.500000  12.000000  0
-30.000000  -9.500000  12.000000  0
-31.000000  -9.500000  12.000000  0
-32.000000  -9.500000  12.000000  0
-32.500000  -9.000000  12.000000  0
-27.000000  -9.500000  11.000000  0
-26.500000  -9.000000  11.000000  0
-28.000000  -9.500000  11.000000  0
-29.000000  -9.500000  11.000000  0
-30.000000  -9.500000  11.000000  0
-31.000000  -9.500000  11.000000  0
-32.000000  -9.500000  11.000000  0
-32.500000  -9.000000  11.000000  0
-27.000000  -9.000000  10.500000  0
-28.000000  -9.000000  10.500000  0
-29.000000  -9.500000  10.000000  0
-28.500000  -9.000000  10.000000  0
-29.500000  -9.000000  10.000000  0
-30.000000  -9.000000  10.500000  0
-31.000000  -9.000000  10.500000  0
-32.000000  -9.000000  10.500000  0
-29.000000  -9.500000  9.000000  0
-28.500000  -9.000000  9.000000  0
-29.500000  -9.000000  9.000000  0
-29.000000  -9.500000  8.000000  0
-28.500000  -9.000000  8.000000  0
-29.500000  -9.000000  8.000000  0
-29.000000  -9.500000  7.000000  0
-28.500000  -9.000000  7.000000  0
-29.500000  -9.000000  7.000000  0
-29.000000  -9.000000  6.500000  0
-14.500000  -8.000000  22.000000  0
-15.000000  -8.000000  22.500000  0
-16.000000  -8.000000  22.500000  0
-17.000000  -8.000000  22.500000  0
-18.000000  -8.000000  22.500000  0
-19.000000  -8.500000  22.000000  0
-19.000000  -8.000000  22.500000  0
-19.500000  -8.000000  22.000000  0
-13.500000  -8.000000  21.000000  0
-14.000000  -8.000000  21.500000  0
-20.000000  -8.000000  21.500000  0
-21.000000  -8.000000  21.500000  0
-22.000000  -8.000000  21.500000  0
-23.000000  -8.000000  21.500000  0
-24.000000  -8.500000  21.000000  0
-23.500000  -8.000000  21.000000  0
-13.000000  -8.500000  20.000000  0
-13.500000  -8.000000  20.000000  0
-24.000000  -8.000000  20.500000  0
-25.000000  -8.000000  20.500000  0
-25.500000  -8.000000  20.000000  0
-11.000000  -8.500000  19.000000  0
-10.500000  -8.000000  19.000000  0
-11.000000  -8.000000  19.500000  0
-12.000000  -8.000000  19.500000  0
-13.000000  -8.000000  19.500000  0
-26.000000  -8.000000  19.500000  0
-27.000000  -8.000000  19.500000  0
-28.000000  -8.000000  19.500000  0
-29.000000  -8.000000  19.500000  0
-29.500000  -8.000000  19.000000  0
-10.500000  -8.000000  18.000000  0
-30.000000  -8.000000  18.500000  0
-30.500000  -8.000000  18.000000  0
-11.000000  -8.500000  17.000000  0
-10.500000  -8.000000  17.000000  0
-12.000000  -8.500000  17.000000  0
-13.000000  -8.500000  17.000000  0
-31.000000  -8.500000  17.000000  0
-31.000000  -8.000000  17.500000  0
-31.500000  -8.000000  17.000000  0
-11.000000  -8.000000  16.500000  0
-12.000000  -8.000000  16.500000  0
-13.000000  -8.000000  16.500000  0
-13.500000  -8.000000  16.000000  0
-31.000000  -8.500000  16.000000  0
-31.500000  -8.000000  16.000000  0
-14.000000  -8.000000  15.500000  0
-14.500000  -8.000000  15.000000  0
-32.000000  -8.500000  15.000000  0
-32.000000  -8.000000  15.500000  0
-32.500000  -8.000000  15.000000  0
-15.000000  -8.500000  14.000000  0
-14.500000  -8.000000  14.000000  0
-16.000000  -8.500000  14.000000  0
-32.000000  -8.500000  14.000000  0
-32.500000  -8.000000  14.000000  0
-15.000000  -8.000000  13.500000  0
-16.000000  -8.000000  13.500000  0
-17.000000  -8.000000  13.500000  0
-18.000000  -8.000000  13.500000  0
-19.000000  -8.000000  13.500000  0
-20.000000  -8.000000  13.500000  0
-20.500000  -8.000000  13.000000  0
-32.500000  -8.000000  13.000000  0
-21.000000  -8.000000  12.500000  0
-22.000000  -8.000000  12.500000  0
-23.000000  -8.500000  12.000000  0
-22.500000  -8.000000  12.000000  0
-24.000000  -8.500000  12.000000  0
-25.000000  -8.500000  12.000000  0
-26.000000  -8.500000  12.000000  0
-32.500000  -8.000000  12.000000  0
-23.000000  -8.000000  11.500000  0
-24.000000  -8.000000  11.500000  0
-25.000000  -8.000000  11.500000  0
-26.000000  -8.500000  11.000000  0
-25.500000  -8.000000  11.000000  0
-32.500000  -8.000000  11.000000  0
-26.000000  -8.000000  10.500000  0
-27.000000  -8.500000  10.000000  0
-26.500000  -8.000000  10.000000  0
-28.000000  -8.500000  10.000000  0
-30.000000  -8.500000  10.000000  0
-31.000000  -8.500000  10.000000  0
-32.000000  -8.500000  10.000000  0
-32.500000  -8.000000  10.000000  0
-27.000000  -8.000000  9.500000  0
-28.000000  -8.000000  9.500000  0
-28.500000  -8.000000  9.000000  0
-30.000000  -8.500000  9.000000  0
-31.000000  -8.500000  9.000000  0
-32.000000  -8.500000  9.000000  0
-32.500000  -8.000000  9.000000  0
-28.500000  -8.000000  8.000000  0
-30.000000  -8.500000  8.000000  0
-30.500000  -8.000000  8.000000  0
-31.000000  -8.000000  8.500000  0
-32.000000  -8.000000  8.500000  0
-28.500000  -8.000000  7.000000  0
-29.500000  -8.000000  7.000000  0
-30.000000  -8.000000  7.500000  0
-29.000000  -8.000000  6.500000  0
-14.500000  -7.000000  22.000000  0
-15.000000  -7.000000  22.500000  0
-16.000000  -7.000000  22.500000  0
-17.000000  -7.000000  22.500000  0
-18.000000  -7.000000  22.500000  0
-19.000000  -7.000000  22.500000  0
-19.500000  -7.000000  22.000000  0
-14.000000  -7.500000  21.000000  0
-14.500000  -7.000000  21.000000  0
-20.000000  -7.000000  21.500000  0
-21.000000  -7.000000  21.500000  0
-22.000000  -7.000000  21.500000  0
-23.000000  -7.000000  21.500000  0
-23.500000  -7.000000  21.000000  0
-13.500000  -7.000000  20.000000  0
-14.000000  -7.000000  20.500000  0
-24.000000  -7.000000  20.500000  0
-25.000000  -7.000000  20.500000  0
-25.500000  -7.000000  20.000000  0
-10.500000  -7.000000  19.000000  0
-11.000000  -7.000000  19.500000  0
-12.000000  -7.000000  19.500000  0
-13.000000  -7.000000  19.500000  0
-26.000000  -7.000000  19.500000  0
-27.000000  -7.000000  19.500000  0
-28.000000  -7.000000  19.500000  0
-29.000000  -7.000000  19.500000  0
-29.500000  -7.000000  19.000000  0
-10.500000  -7.000000  18.000000  0
-30.000000  -7.000000  18.500000  0
-30.500000  -7.000000  18.000000  0
-10.500000  -7.000000  17.000000  0
-31.000000  -7.000000  17.500000  0
-31.500000  -7.000000  17.000000  0
-11.000000  -7.000000  16.500000  0
-12.000000  -7.000000  16.500000  0
-13.000000  -7.000000  16.500000  0
-13.500000  -7.000000  16.000000  0
-31.500000  -7.000000  16.000000  0
-14.000000  -7.000000  15.500000  0
-14.500000  -7.000000  15.000000  0
-32.000000  -7.000000  15.500000  0
-32.500000  -7.000000  15.000000  0
-15.000000  -7.500000  14.000000  0
-15.000000  -7.000000  14.500000  0
-16.000000  -7.500000  14.000000  0
-16.000000  -7.000000  14.500000  0
-16.500000  -7.000000  14.000000  0
-32.500000  -7.000000  14.000000  0
-17.000000  -7.000000  13.500000  0
-18.000000  -7.000000  13.500000  0
-19.000000  -7.500000  13.000000  0
-18.500000  -7.000000  13.000000  0
-20.000000  -7.500000  13.000000  0
-32.500000  -7.000000  13.000000  0
-19.000000  -7.000000  12.500000  0
-20.000000  -7.000000  12.500000  0
-21.000000  -7.500000  12.000000  0
-20.500000  -7.000000  12.000000  0
-22.000000  -7.500000  12.000000  0
-32.500000  -7.000000  12.000000  0
-21.000000  -7.000000  11.500000  0
-22.000000  -7.500000  11.000000  0
-21.500000  -7.000000  11.000000  0
-23.000000  -7.500000  11.000000  0
-24.000000  -7.500000  11.000000  0
-25.000000  -7.500000  11.000000  0
-32.500000  -7.000000  11.000000  0
-22.000000  -7.000000  10.500000  0
-23.000000  -7.500000  10.000000  0
-22.500000  -7.000000  10.000000  0
-24.000000  -7.500000  10.000000  0
-25.000000  -7.500000  10.000000  0
-26.000000  -7.500000  10.000000  0
-32.500000  -7.000000  10.000000  0
-23.000000  -7.000000  9.500000  0
-24.000000  -7.500000  9.000000  0
-23.500000  -7.000000  9.000000  0
-25.000000  -7.500000  9.000000  0
-26.000000  -7.500000  9.000000  0
-27.000000  -7.500000  9.000000  0
-28.000000  -7.500000  9.000000  0
-32.000000  -7.500000  9.000000  0
-31.500000  -7.000000  9.000000  0
-32.000000  -7.000000  9.500000  0
-24.000000  -7.000000  8.500000  0
-25.000000  -7.000000  8.500000  0
-26.000000  -7.500000  8.000000  0
-25.500000  -7.000000  8.000000  0
-27.000000  -7.500000  8.000000  0
-28.000000  -7.500000  8.000000  0
-30.500000  -7.000000  8.000000  0
-31.000000  -7.000000  8.500000  0
-26.000000  -7.000000  7.500000  0
-27.000000  -7.000000  7.500000  0
-28.000000  -7.500000  7.000000  0
-27.500000  -7.000000  7.000000  0
-29.500000  -7.000000  7.000000  0
-30.000000  -7.000000  7.500000  0
-28.000000  -7.500000  6.000000  0
-27.500000  -7.000000  6.000000  0
-28.500000  -7.000000  6.000000  0
-29.000000  -7.000000  6.500000  0
-28.000000  -7.000000  5.500000  0
-15.000000  -6.500000  22.000000  0
-15.500000  -6.000000  22.000000  0
-16.000000  -6.000000  22.500000  0
-17.000000  -6.000000  22.500000  0
-18.000000  -6.000000  22.500000  0
-19.000000  -6.000000  22.500000  0
-19.500000  -6.000000  22.000000  0
-15.000000  -6.500000  21.000000  0
-15.500000  -6.000000  21.000000  0
-20.000000  -6.000000  21.500000  0
-21.000000  -6.000000  21.500000  0
-22.000000  -6.000000  21.500000  0
-23.000000  -6.000000  21.500000  0
-23.500000  -6.000000  21.000000  0
-14.000000  -6.500000  20.000000  0
-14.500000  -6.000000  20.000000  0
-15.000000  -6.000000  20.500000  0
-24.000000  -6.000000  20.500000  0
-25.000000  -6.000000  20.500000  0
-25.500000  -6.000000  20.000000  0
-11.000000  -6.500000  19.000000  0
-12.000000  -6.500000  19.000000  0
-13.000000  -6.500000  19.000000  0
-14.000000  -6.500000  19.000000  0
-14.500000  -6.000000  19.000000  0
-26.000000  -6.500000  19.000000  0
-25.500000  -6.000000  19.000000  0
-27.000000  -6.500000  19.000000  0
-28.000000  -6.500000  19.000000  0
-29.000000  -6.500000  19.000000  0
-11.000000  -6.500000  18.000000  0
-11.500000  -6.000000  18.000000  0
-12.000000  -6.000000  18.500000  0
-13.000000  -6.000000  18.500000  0
-14.000000  -6.000000  18.500000  0
-26.000000  -6.000000  18.500000  0
-27.000000  -6.500000  18.000000  0
-26.500000  -6.000000  18.000000  0
-28.000000  -6.500000  18.000000  0
-29.000000  -6.500000  18.000000  0
-30.000000  -6.500000  18.000000  0
-10.500000  -6.000000  17.000000  0
-11.000000  -6.000000  17.500000  0
-27.000000  -6.000000  17.500000  0
-28.000000  -6.500000  17.000000  0
-27.500000  -6.000000  17.000000  0
-29.000000  -6.500000  17.000000  0
-30.000000  -6.500000  17.000000  0
-31.000000  -6.500000  17.000000  0
-11.000000  -6.500000  16.000000  0
-10.500000  -6.000000  16.000000  0
-12.000000  -6.500000  16.000000  0
-13.000000  -6.500000  16.000000  0
-28.000000  -6.500000  16.000000  0
-27.500000  -6.000000  16.000000  0
-29.000000  -6.500000  16.000000  0
-30.000000  -6.500000  16.000000  0
-31.000000  -6.500000  16.000000  0
-11.000000  -6.500000  15.000000  0
-10.500000  -6.000000  15.000000  0
-12.000000  -6.500000  15.000000  0
-13.000000  -6.500000  15.000000  0
-14.000000  -6.500000  15.000000  0
-28.000000  -6.000000  15.500000  0
-29.000000  -6.500000  15.000000  0
-28.500000  -6.000000  15.000000  0
-30.000000  -6.500000  15.000000  0
-31.000000  -6.500000  15.000000  0
-32.000000  -6.500000  15.000000  0
-11.000000  -6.000000  14.500000  0
-12.000000  -6.500000  14.000000  0
-11.500000  -6.000000  14.000000  0
-13.000000  -6.500000  14.000000  0
-14.000000  -6.500000  14.000000  0
-15.000000  -6.500000  14.000000  0
-16.000000  -6.500000  14.000000  0
-29.000000  -6.000000  14.500000  0
-30.000000  -6.500000  14.000000  0
-29.500000  -6.000000  14.000000  0
-31.000000  -6.500000  14.000000  0
-32.000000  -6.500000  14.000000  0
-12.000000  -6.000000  13.500000  0
-13.000000  -6.500000  13.000000  0
-12.500000  -6.000000  13.000000  0
-14.000000  -6.500000  13.000000  0
-15.000000  -6.500000  13.000000  0
-16.000000  -6.500000  13.000000  0
-17.000000  -6.500000  13.000000  0
-18.000000  -6.500000  13.000000  0
-30.000000  -6.000000  13.500000  0
-31.000000  -6.500000  13.000000  0
-30.500000  -6.000000  13.000000  0
-32.000000  -6.500000  13.000000  0
-13.000000  -6.000000  12.500000  0
-14.000000  -6.500000  12.000000  0
-13.500000  -6.000000  12.000000  0
-15.000000  -6.500000  12.000000  0
-16.000000  -6.500000  12.000000  0
-17.000000  -6.500000  12.000000  0
-18.000000  -6.500000  12.000000  0
-19.000000  -6.500000  12.000000  0
-20.000000  -6.500000  12.000000  0
-31.000000  -6.000000  12.500000  0
-32.000000  -6.000000  12.500000  0
-32.500000  -6.000000  12.000000  0
-14.000000  -6.000000  11.500000  0
-15.000000  -6.000000  11.500000  0
-16.000000  -6.000000  11.500000  0
-17.000000  -6.500000  11.000000  0
-16.500000  -6.000000  11.000000  0
-18.000000  -6.500000  11.000000  0
-19.000000  -6.500000  11.000000  0
-20.000000  -6.500000  11.000000  0
-21.000000  -6.500000  11.000000  0
-32.500000  -6.000000  11.000000  0
-17.000000  -6.000000  10.500000  0
-18.000000  -6.500000  10.000000  0
-17.500000  -6.000000  10.000000  0
-19.000000  -6.500000  10.000000  0
-20.000000  -6.500000  10.000000  0
-21.000000  -6.500000  10.000000  0
-22.000000  -6.500000  10.000000  0
-32.500000  -6.000000  10.000000  0
-18.000000  -6.000000  9.500000  0
-19.000000  -6.000000  9.500000  0
-20.000000  -6.000000  9.500000  0
-21.000000  -6.500000  9.000000  0
-20.500000  -6.000000  9.000000  0
-22.000000  -6.500000  9.000000  0
-23.000000  -6.500000  9.000000  0
-31.000000  -6.500000  9.000000  0
-30.500000  -6.000000  9.000000  0
-31.000000  -6.000000  9.500000  0
-32.000000  -6.000000  9.500000  0
-21.000000  -6.500000  8.000000  0
-20.500000  -6.000000  8.000000  0
-22.000000  -6.500000  8.000000  0
-23.000000  -6.500000  8.000000  0
-24.000000  -6.500000  8.000000  0
-25.000000  -6.500000  8.000000  0
-30.500000  -6.000000  8.000000  0
-21.000000  -6.000000  7.500000  0
-22.000000  -6.500000  7.000000  0
-21.500000  -6.000000  7.000000  0
-23.000000  -6.500000  7.000000  0
-24.000000  -6.500000  7.000000  0
-25.000000  -6.500000  7.000000  0
-26.000000  -6.500000  7.000000  0
-27.000000  -6.500000  7.000000  0
-29.500000  -6.000000  7.000000  0
-30.000000  -6.000000  7.500000  0
-22.000000  -6.000000  6.500000  0
-23.000000  -6.000000  6.500000  0
-24.000000  -6.500000  6.000000  0
-23.500000  -6.000000  6.000000  0
-25.000000  -6.500000  6.000000  0
-26.000000  -6.500000  6.000000  0
-27.000000  -6.500000  6.000000  0
-29.000000  -6.500000  6.000000  0
-29.500000  -6.000000  6.000000  0
-24.000000  -6.000000  5.500000  0
-25.000000  -6.000000  5.500000  0
-26.000000  -6.000000  5.500000  0
-27.000000  -6.000000  5.500000  0
-28.000000  -6.000000  5.500000  0
-29.000000  -6.000000  5.500000  0
-16.000000  -5.500000  22.000000  0
-16.500000  -5.000000  22.000000  0
-17.000000  -5.000000  22.500000  0
-18.000000  -5.000000  22.500000  0
-19.000000  -5.000000  22.500000  0
-19.500000  -5.000000  22.000000  0
-16.000000  -5.500000  21.000000  0
-16.500000  -5.000000  21.000000  0
-20.000000  -5.000000  21.500000  0
-21.000000  -5.000000  21.500000  0
-22.000000  -5.500000  21.000000  0
-21.500000  -5.000000  21.000000  0
-23.000000  -5.500000  21.000000  0
-15.000000  -5.500000  20.000000  0
-15.500000  -5.000000  20.000000  0
-16.000000  -5.000000  20.500000  0
-22.000000  -5.000000  20.500000  0
-23.000000  -5.000000  20.500000  0
-24.000000  -5.500000  20.000000  0
-23.500000  -5.000000  20.000000  0
-25.000000  -5.500000  20.000000  0
-15.000000  -5.500000  19.000000  0
-15.500000  -5.000000  19.000000  0
-24.000000  -5.500000  19.000000  0
-23.500000  -5.000000  19.000000  0
-25.000000  -5.500000  19.000000  0
-12.000000  -5.500000  18.000000  0
-13.000000  -5.500000  18.000000  0
-14.000000  -5.500000  18.000000  0
-14.500000  -5.000000  18.000000  0
-15.000000  -5.000000  18.500000  0
-24.000000  -5.000000  18.500000  0
-25.000000  -5.500000  18.000000  0
-24.500000  -5.000000  18.000000  0
-26.000000  -5.500000  18.000000  0
-11.000000  -5.500000  17.000000  0
-12.000000  -5.500000  17.000000  0
-13.000000  -5.500000  17.000000  0
-14.000000  -5.500000  17.000000  0
-14.500000  -5.000000  17.000000  0
-25.000000  -5.500000  17.000000  0
-24.500000  -5.000000  17.000000  0
-26.000000  -5.500000  17.000000  0
-27.000000  -5.500000  17.000000  0
-11.000000  -5.500000  16.000000  0
-11.500000  -5.000000  16.000000  0
-12.000000  -5.000000  16.500000  0
-13.000000  -5.000000  16.500000  0
-14.000000  -5.000000  16.500000  0
-25.000000  -5.000000  16.500000  0
-26.000000  -5.500000  16.000000  0
-25.500000  -5.000000  16.000000  0
-27.000000  -5.500000  16.000000  0
-10.000000  -5.500000  15.000000  0
-9.500000  -5.000000  15.000000  0
-10.000000  -5.000000  15.500000  0
-11.000000  -5.000000  15.500000  0
-26.000000  -5.500000  15.000000  0
-25.500000  -5.000000  15.000000  0
-27.000000  -5.500000  15.000000  0
-28.000000  -5.500000  15.000000  0
-10.000000  -5.500000  14.000000  0
-9.500000  -5.000000  14.000000  0
-11.000000  -5.500000  14.000000  0
-26.000000  -5.000000  14.500000  0
-27.000000  -5.000000  14.500000  0
-28.000000  -5.500000  14.000000  0
-27.500000  -5.000000  14.000000  0
-29.000000  -5.500000  14.000000  0
-10.000000  -5.000000  13.500000  0
-11.000000  -5.500000  13.000000  0
-10.500000  -5.000000  13.000000  0
-12.000000  -5.500000  13.000000  0
-28.000000  -5.000000  13.500000  0
-29.000000  -5.500000  13.000000  0
-28.500000  -5.000000  13.000000  0
-30.000000  -5.500000  13.000000  0
-11.000000  -5.000000  12.500000  0
-12.000000  -5.000000  12.500000  0
-13.000000  -5.000000  12.500000  0
-13.500000  -5.000000  12.000000  0
-28.000000  -5.500000  12.000000  0
-27.500000  -5.000000  12.000000  0
-28.000000  -5.000000  12.500000  0
-29.000000  -5.500000  12.000000  0
-30.000000  -5.500000  12.000000  0
-31.000000  -5.500000  12.000000  0
-32.000000  -5.500000  12.000000  0
-14.000000  -5.000000  11.500000  0
-15.000000  -5.000000  11.500000  0
-16.000000  -5.000000  11.500000  0
-16.500000  -5.000000  11.000000  0
-28.000000  -5.000000  11.500000  0
-29.000000  -5.000000  11.500000  0
-30.000000  -5.000000  11.500000  0
-31.000000  -5.500000  11.000000  0
-30.500000  -5.000000  11.000000  0
-32.000000  -5.500000  11.000000  0
-17.000000  -5.000000  10.500000  0
-17.500000  -5.000000  10.000000  0
-31.000000  -5.500000  10.000000  0
-30.500000  -5.000000  10.000000  0
-32.000000  -5.500000  10.000000  0
-18.000000  -5.000000  9.500000  0
-19.000000  -5.000000  9.500000  0
-20.000000  -5.000000  9.500000  0
-20.500000  -5.000000  9.000000  0
-30.500000  -5.000000  9.000000  0
-21.000000  -5.500000  8.000000  0
-21.000000  -5.000000  8.500000  0
-21.500000  -5.000000  8.000000  0
-30.500000  -5.000000  8.000000  0
-22.000000  -5.500000  7.000000  0
-22.000000  -5.000000  7.500000  0
-22.500000  -5.000000  7.000000  0
-29.500000  -5.000000  7.000000  0
-30.000000  -5.000000  7.500000  0
-23.000000  -5.000000  6.500000  0
-23.500000  -5.000000  6.000000  0
-29.000000  -5.500000  6.000000  0
-28.500000  -5.000000  6.000000  0
-29.000000  -5.000000  6.500000  0
-24.000000  -5.000000  5.500000  0
-25.000000  -5.000000  5.500000  0
-26.000000  -5.000000  5.500000  0
-27.000000  -5.000000  5.500000  0
-28.000000  -5.000000  5.500000  0
-17.000000  -4.500000  22.000000  0
-18.000000  -4.500000  22.000000  0
-19.000000  -4.500000  22.000000  0
-17.000000  -4.500000  21.000000  0
-18.000000  -4.500000  21.000000  0
-19.000000  -4.500000  21.000000  0
-20.000000  -4.500000  21.000000  0
-21.000000  -4.500000  21.000000  0
-16.000000  -4.500000  20.000000  0
-16.500000  -4.000000  20.000000  0
-17.000000  -4.000000  20.500000  0
-18.000000  -4.000000  20.500000  0
-19.000000  -4.000000  20.500000  0
-20.000000  -4.000000  20.500000  0
-21.000000  -4.000000  20.500000  0
-22.000000  -4.000000  20.500000  0
-23.000000  -4.000000  20.500000  0
-23.500000  -4.000000  20.000000  0
-16.000000  -4.500000  19.000000  0
-16.500000  -4.000000  19.000000  0
-23.500000  -4.000000  19.000000  0
-15.000000  -4.500000  18.000000  0
-15.500000  -4.000000  18.000000  0
-16.000000  -4.000000  18.500000  0
-24.000000  -4.000000  18.500000  0
-24.500000  -4.000000  18.000000  0
-15.000000  -4.500000  17.000000  0
-15.500000  -4.000000  17.000000  0
-24.500000  -4.000000  17.000000  0
-12.000000  -4.500000  16.000000  0
-13.000000  -4.500000  16.000000  0
-13.500000  -4.000000  16.000000  0
-14.000000  -4.000000  16.500000  0
-15.000000  -4.000000  16.500000  0
-25.000000  -4.500000  16.000000  0
-24.500000  -4.000000  16.000000  0
-10.000000  -4.500000  15.000000  0
-11.000000  -4.500000  15.000000  0
-12.000000  -4.500000  15.000000  0
-12.500000  -4.000000  15.000000  0
-13.000000  -4.000000  15.500000  0
-25.000000  -4.500000  15.000000  0
-24.500000  -4.000000  15.000000  0
-10.000000  -4.500000  14.000000  0
-11.000000  -4.500000  14.000000  0
-12.000000  -4.500000  14.000000  0
-12.500000  -4.000000  14.000000  0
-25.000000  -4.000000  14.500000  0
-26.000000  -4.000000  14.500000  0
-27.000000  -4.000000  14.500000  0
-27.500000  -4.000000  14.000000  0
-11.000000  -4.500000  13.000000  0
-12.000000  -4.500000  13.000000  0
-13.000000  -4.500000  13.000000  0
-13.000000  -4.000000  13.500000  0
-13.500000  -4.000000  13.000000  0
-28.000000  -4.500000  13.000000  0
-27.500000  -4.000000  13.000000  0
-13.500000  -4.000000  12.000000  0
-27.500000  -4.000000  12.000000  0
-14.000000  -4.000000  11.500000  0
-15.000000  -4.000000  11.500000  0
-16.000000  -4.000000  11.500000  0
-16.500000  -4.000000  11.000000  0
-28.000000  -4.000000  11.500000  0
-29.000000  -4.000000  11.500000  0
-30.000000  -4.500000  11.000000  0
-29.500000  -4.000000  11.000000  0
-17.000000  -4.000000  10.500000  0
-18.000000  -4.500000  10.000000  0
-18.000000  -4.000000  10.500000  0
-19.000000  -4.500000  10.000000  0
-19.000000  -4.000000  10.500000  0
-20.000000  -4.500000  10.000000  0
-20.000000  -4.000000  10.500000  0
-20.500000  -4.000000  10.000000  0
-30.000000  -4.500000  10.000000  0
-29.500000  -4.000000  10.000000  0
-21.000000  -4.500000  9.000000  0
-21.000000  -4.000000  9.500000  0
-21.500000  -4.000000  9.000000  0
-30.000000  -4.500000  9.000000  0
-29.500000  -4.000000  9.000000  0
-22.000000  -4.500000  8.000000  0
-22.000000  -4.000000  8.500000  0
-22.500000  -4.000000  8.000000  0
-30.000000  -4.500000  8.000000  0
-29.500000  -4.000000  8.000000  0
-22.500000  -4.000000  7.000000  0
-29.000000  -4.500000  7.000000  0
-28.500000  -4.000000  7.000000  0
-29.000000  -4.000000  7.500000  0
-23.000000  -4.000000  6.500000  0
-24.000000  -4.500000  6.000000  0
-24.000000  -4.000000  6.500000  0
-25.000000  -4.500000  6.000000  0
-25.000000  -4.000000  6.500000  0
-26.000000  -4.500000  6.000000  0
-26.000000  -4.000000  6.500000  0
-27.000000  -4.500000  6.000000  0
-27.000000  -4.000000  6.500000  0
-28.000000  -4.500000  6.000000  0
-28.000000  -4.000000  6.500000  0
-17.000000  -3.500000  20.000000  0
-18.000000  -3.500000  20.000000  0
-19.000000  -3.500000  20.000000  0
-20.000000  -3.500000  20.000000  0
-21.000000  -3.500000  20.000000  0
-22.000000  -3.500000  20.000000  0
-23.000000  -3.500000  20.000000  0
-17.000000  -3.500000  19.000000  0
-18.000000  -3.500000  19.000000  0
-19.000000  -3.500000  19.000000  0
-20.000000  -3.500000  19.000000  0
-21.000000  -3.500000  19.000000  0
-22.000000  -3.500000  19.000000  0
-23.000000  -3.500000  19.000000  0
-16.000000  -3.500000  18.000000  0
-17.000000  -3.500000  18.000000  0
-18.000000  -3.500000  18.000000  0
-19.000000  -3.500000  18.000000  0
-20.000000  -3.500000  18.000000  0
-21.000000  -3.500000  18.000000  0
-22.000000  -3.500000  18.000000  0
-22.500000  -3.000000  18.000000  0
-23.000000  -3.000000  18.500000  0
-24.000000  -3.000000  18.500000  0
-24.500000  -3.000000  18.000000  0
-16.000000  -3.500000  17.000000  0
-17.000000  -3.500000  17.000000  0
-18.000000  -3.500000  17.000000  0
-19.000000  -3.500000  17.000000  0
-20.000000  -3.500000  17.000000  0
-20.500000  -3.000000  17.000000  0
-21.000000  -3.000000  17.500000  0
-22.000000  -3.000000  17.500000  0
-24.500000  -3.000000  17.000000  0
-14.000000  -3.500000  16.000000  0
-15.000000  -3.500000  16.000000  0
-16.000000  -3.500000  16.000000  0
-17.000000  -3.500000  16.000000  0
-18.000000  -3.500000  16.000000  0
-19.000000  -3.500000  16.000000  0
-19.500000  -3.000000  16.000000  0
-20.000000  -3.000000  16.500000  0
-24.500000  -3.000000  16.000000  0
-13.000000  -3.500000  15.000000  0
-14.000000  -3.500000  15.000000  0
-15.000000  -3.500000  15.000000  0
-16.000000  -3.500000  15.000000  0
-17.000000  -3.500000  15.000000  0
-18.000000  -3.500000  15.000000  0
-18.500000  -3.000000  15.000000  0
-19.000000  -3.000000  15.500000  0
-25.000000  -3.500000  15.000000  0
-25.000000  -3.000000  15.500000  0
-25.500000  -3.000000  15.000000  0
-13.000000  -3.500000  14.000000  0
-14.000000  -3.500000  14.000000  0
-15.000000  -3.500000  14.000000  0
-16.000000  -3.500000  14.000000  0
-17.000000  -3.500000  14.000000  0
-17.500000  -3.000000  14.000000  0
-18.000000  -3.000000  14.500000  0
-26.000000  -3.000000  14.500000  0
-27.000000  -3.500000  14.000000  0
-26.500000  -3.000000  14.000000  0
-13.500000  -3.000000  13.000000  0
-14.000000  -3.000000  13.500000  0
-15.000000  -3.000000  13.500000  0
-16.000000  -3.000000  13.500000  0
-17.000000  -3.000000  13.500000  0
-27.000000  -3.500000  13.000000  0
-26.500000  -3.000000  13.000000  0
-13.500000  -3.000000  12.000000  0
-25.000000  -3.500000  12.000000  0
-24.500000  -3.000000  12.000000  0
-25.000000  -3.000000  12.500000  0
-25.500000  -3.000000  12.000000  0
-27.000000  -3.500000  12.000000  0
-26.500000  -3.000000  12.000000  0
-14.000000  -3.000000  11.500000  0
-15.000000  -3.000000  11.500000  0
-16.000000  -3.000000  11.500000  0
-17.000000  -3.500000  11.000000  0
-17.000000  -3.000000  11.500000  0
-18.000000  -3.500000  11.000000  0
-18.000000  -3.000000  11.500000  0
-19.000000  -3.500000  11.000000  0
-19.000000  -3.000000  11.500000  0
-19.500000  -3.000000  11.000000  0
-25.000000  -3.500000  11.000000  0
-24.500000  -3.000000  11.000000  0
-26.000000  -3.500000  11.000000  0
-26.000000  -3.000000  11.500000  0
-27.000000  -3.500000  11.000000  0
-28.000000  -3.500000  11.000000  0
-29.000000  -3.500000  11.000000  0
-20.000000  -3.000000  10.500000  0
-20.500000  -3.000000  10.000000  0
-25.000000  -3.000000  10.500000  0
-26.000000  -3.500000  10.000000  0
-25.500000  -3.000000  10.000000  0
-27.000000  -3.500000  10.000000  0
-28.000000  -3.500000  10.000000  0
-29.000000  -3.500000  10.000000  0
-21.000000  -3.000000  9.500000  0
-21.500000  -3.000000  9.000000  0
-26.000000  -3.500000  9.000000  0
-25.500000  -3.000000  9.000000  0
-27.000000  -3.500000  9.000000  0
-28.000000  -3.500000  9.000000  0
-29.000000  -3.500000  9.000000  0
-22.000000  -3.000000  8.500000  0
-23.000000  -3.500000  8.000000  0
-23.000000  -3.000000  8.500000  0
-24.000000  -3.500000  8.000000  0
-24.000000  -3.000000  8.500000  0
-25.000000  -3.500000  8.000000  0
-25.000000  -3.000000  8.500000  0
-26.000000  -3.500000  8.000000  0
-27.000000  -3.500000  8.000000  0
-28.000000  -3.500000  8.000000  0
-29.000000  -3.500000  8.000000  0
-23.000000  -3.500000  7.000000  0
-24.000000  -3.500000  7.000000  0
-25.000000  -3.500000  7.000000  0
-26.000000  -3.500000  7.000000  0
-27.000000  -3.500000  7.000000  0
-28.000000  -3.500000  7.000000  0
-23.000000  -2.500000  18.000000  0
-24.000000  -2.500000  18.000000  0
-21.000000  -2.500000  17.000000  0
-22.000000  -2.500000  17.000000  0
-23.000000  -2.500000  17.000000  0
-24.000000  -2.500000  17.000000  0
-20.000000  -2.500000  16.000000  0
-21.000000  -2.500000  16.000000  0
-22.000000  -2.500000  16.000000  0
-23.000000  -2.500000  16.000000  0
-24.000000  -2.500000  16.000000  0
-19.000000  -2.500000  15.000000  0
-20.000000  -2.500000  15.000000  0
-21.000000  -2.500000  15.000000  0
-22.000000  -2.500000  15.000000  0
-23.000000  -2.500000  15.000000  0
-24.000000  -2.500000  15.000000  0
-25.000000  -2.500000  15.000000  0
-18.000000  -2.500000  14.000000  0
-19.000000  -2.500000  14.000000  0
-20.000000  -2.500000  14.000000  0
-21.000000  -2.500000  14.000000  0
-22.000000  -2.500000  14.000000  0
-23.000000  -2.500000  14.000000  0
-24.000000  -2.500000  14.000000  0
-25.000000  -2.500000  14.000000  0
-26.000000  -2.500000  14.000000  0
-14.000000  -2.500000  13.000000  0
-15.000000  -2.500000  13.000000  0
-16.000000  -2.500000  13.000000  0
-17.000000  -2.500000  13.000000  0
-18.000000  -2.500000  13.000000  0
-19.000000  -2.500000  13.000000  0
-20.000000  -2.500000  13.000000  0
-21.000000  -2.500000  13.000000  0
-22.000000  -2.500000  13.000000  0
-23.000000  -2.500000  13.000000  0
-24.000000  -2.500000  13.000000  0
-25.000000  -2.500000  13.000000  0
-26.000000  -2.500000  13.000000  0
-14.000000  -2.500000  12.000000  0
-15.000000  -2.500000  12.000000  0
-16.000000  -2.500000  12.000000  0
-17.000000  -2.500000  12.000000  0
-18.000000  -2.500000  12.000000  0
-19.000000  -2.500000  12.000000  0
-20.000000  -2.500000  12.000000  0
-21.000000  -2.500000  12.000000  0
-22.000000  -2.500000  12.000000  0
-23.000000  -2.500000  12.000000  0
-24.000000  -2.500000  12.000000  0
-26.000000  -2.500000  12.000000  0
-20.000000  -2.500000  11.000000  0
-21.000000  -2.500000  11.000000  0
-22.000000  -2.500000  11.000000  0
-23.000000  -2.500000  11.000000  0
-24.000000  -2.500000  11.000000  0
-21.000000  -2.500000  10.000000  0
-22.000000  -2.500000  10.000000  0
-23.000000  -2.500000  10.000000  0
-24.000000  -2.500000  10.000000  0
-25.000000  -2.500000  10.000000  0
-22.000000  -2.500000  9.000000  0
-23.000000  -2.500000  9.000000  0
-24.000000  -2.500000  9.000000  0
-25.000000  -2.500000  9.000000  0
2 0 1 0
3 0 2 0
1 0 4 0
0 3 4 0
6 1 5 0
2 1 6 0
2 6 8 0
3 2 8 0
7 3 8 0
8 9 7 0
10 9 8 0
10 11 9 0
12 11 10 0
13 11 12 0
15 5 1 0
14 15 1 0
4 14 1 0
7 16 14 0
7 14 4 0
7 4 3 0
17 7 9 0
16 7 17 0
18 9 11 0
17 9 18 0
13 18 11 0
19 18 13 0
15 14 20 0
14 21 20 0
16 21 14 0
16 22 21 0
17 22 16 0
17 23 22 0
18 23 17 0
18 19 23 0
25 5 24 0
6 5 25 0
26 6 25 0
8 6 26 0
27 8 26 0
10 8 27 0
28 10 27 0
12 10 28 0
29 12 28 0
13 12 29 0
5 30 24 0
15 30 5 0
19 29 31 0
13 29 19 0
30 20 32 0
15 20 30 0
32 21 33 0
20 21 32 0
33 22 34 0
21 22 33 0
34 22 23 0
34 23 35 0
34 35 36 0
31 23 19 0
31 35 23 0
38 35 31 0
37 35 38 0
38 39 37 0
40 39 38 0
41 39 40 0
36 35 42 0
35 43 42 0
37 43 35 0
37 44 43 0
39 44 37 0
39 41 44 0
47 45 46 0
47 48 45 0
49 48 47 0
49 50 48 0
51 50 49 0
51 52 50 0
53 52 51 0
54 52 53 0
45 56 46 0
55 56 45 0
55 45 48 0
55 48 25 0
55 25 24 0
48 50 25 0
25 50 26 0
50 52 26 0
26 52 27 0
57 28 27 0
57 27 52 0
57 52 54 0
58 28 57 0
29 28 58 0
55 60 56 0
59 60 55 0
24 30 55 0
55 30 59 0
31 58 61 0
29 58 31 0
59 63 60 0
62 63 59 0
64 62 59 0
64 59 30 0
64 30 32 0
65 64 33 0
33 64 32 0
66 65 34 0
34 65 33 0
36 66 34 0
67 38 61 0
61 38 31 0
68 38 67 0
40 38 68 0
69 40 68 0
41 40 69 0
63 62 70 0
62 64 71 0
70 62 71 0
72 70 71 0
73 64 65 0
71 64 73 0
74 65 66 0
73 65 74 0
75 74 66 0
75 66 36 0
75 36 42 0
76 75 43 0
43 75 42 0
77 76 44 0
44 76 43 0
69 44 41 0
69 77 44 0
79 77 69 0
78 77 79 0
80 78 79 0
72 71 81 0
71 82 81 0
73 82 71 0
73 83 82 0
74 83 73 0
74 84 83 0
75 84 74 0
75 85 84 0
76 85 75 0
76 86 85 0
77 86 76 0
77 87 86 0
78 87 77 0
78 80 87 0
90 88 89 0
90 91 47 0
88 90 47 0
46 88 47 0
92 47 91 0
49 47 92 0
93 49 92 0
51 49 93 0
94 51 93 0
53 51 94 0
53 94 96 0
54 53 96 0
95 54 96 0
97 95 96 0
88 99 89 0
98 99 88 0
46 56 88 0
88 56 98 0
57 54 95 0
97 100 58 0
95 97 58 0
57 95 58 0
103 101 102 0
103 104 101 0
105 104 103 0
98 106 104 0
99 98 104 0
105 99 104 0
56 60 98 0
98 60 106 0
61 100 107 0
58 100 61 0
101 109 102 0
108 109 101 0
110 101 104 0
108 101 110 0
111 104 106 0
110 104 111 0
60 63 106 0
106 63 111 0
112 67 107 0
107 67 61 0
113 67 112 0
68 67 113 0
114 68 113 0
69 68 114 0
109 108 115 0
108 110 116 0
115 108 116 0
117 115 116 0
118 110 111 0
116 110 118 0
119 118 111 0
119 111 63 0
119 63 70 0
72 119 70 0
120 79 114 0
114 79 69 0
121 79 120 0
80 79 121 0
117 116 122 0
116 118 123 0
122 116 123 0
124 122 123 0
125 118 119 0
123 118 125 0
126 125 119 0
126 119 72 0
126 72 81 0
127 126 82 0
82 126 81 0
128 127 83 0
83 127 82 0
129 128 84 0
84 128 83 0
130 129 85 0
85 129 84 0
131 130 86 0
86 130 85 0
132 131 87 0
87 131 86 0
121 87 80 0
121 132 87 0
134 132 121 0
133 132 134 0
134 135 133 0
136 135 134 0
137 135 136 0
124 123 138 0
123 139 138 0
125 139 123 0
125 126 140 0
139 125 140 0
141 139 140 0
142 126 127 0
140 126 142 0
143 127 128 0
142 127 143 0
144 128 129 0
143 128 144 0
145 129 130 0
144 129 145 0
146 130 131 0
145 130 146 0
147 131 132 0
146 131 147 0
148 132 133 0
147 132 148 0
149 133 135 0
148 133 149 0
150 149 135 0
151 150 135 0
137 151 135 0
152 150 151 0
141 140 153 0
140 154 153 0
142 154 140 0
142 143 155 0
154 142 155 0
156 154 155 0
157 143 144 0
155 143 157 0
158 144 145 0
157 144 158 0
159 145 146 0
158 145 159 0
160 146 147 0
159 146 160 0
161 147 148 0
160 147 161 0
161 148 149 0
162 161 149 0
163 162 149 0
149 164 163 0
150 164 149 0
150 152 164 0
156 155 165 0
