#!ascii version of
2674 5344
-11.500000  16.000000  30.000000  0
-15.500000  16.000000  30.000000  0
-12.000000  16.000000  29.500000  0
-13.000000  16.000000  29.500000  0
-14.000000  16.000000  29.500000  0
-15.000000  16.000000  29.500000  0
-16.000000  16.500000  48.000000  0
-16.000000  16.500000  47.000000  0
-15.000000  16.500000  46.000000  0
-15.500000  17.000000  46.000000  0
-16.000000  17.000000  46.500000  0
-17.000000  16.500000  46.000000  0
-16.500000  17.000000  46.000000  0
-14.000000  16.500000  45.000000  0
-15.000000  16.500000  45.000000  0
-15.500000  17.000000  45.000000  0
-17.000000  16.500000  45.000000  0
-16.500000  17.000000  45.000000  0
-13.000000  16.500000  44.000000  0
-14.000000  16.500000  44.000000  0
-14.500000  17.000000  44.000000  0
-15.000000  17.000000  44.500000  0
-17.000000  16.500000  44.000000  0
-16.500000  17.000000  44.000000  0
-12.000000  16.500000  43.000000  0
-13.000000  16.500000  43.000000  0
-13.500000  17.000000  43.000000  0
-14.000000  17.000000  43.500000  0
-17.000000  17.000000  43.500000  0
-17.500000  17.000000  43.000000  0
-11.000000  16.500000  42.000000  0
-12.000000  16.500000  42.000000  0
-12.500000  17.000000  42.000000  0
-13.000000  17.000000  42.500000  0
-17.500000  17.000000  42.000000  0
-10.000000  16.500000  41.000000  0
-11.000000  16.500000  41.000000  0
-12.000000  16.500000  41.000000  0
-12.500000  17.000000  41.000000  0
-17.500000  17.000000  41.000000  0
-10.000000  16.500000  40.000000  0
-10.500000  17.000000  40.000000  0
-11.000000  17.000000  40.500000  0
-12.000000  17.000000  40.500000  0
-17.500000  17.000000  40.000000  0
-9.000000  16.500000  39.000000  0
-10.000000  16.500000  39.000000  0
-10.500000  17.000000  39.000000  0
-17.500000  17.000000  39.000000  0
-9.000000  16.500000  38.000000  0
-10.000000  16.500000  38.000000  0
-10.500000  17.000000  38.000000  0
-17.500000  17.000000  38.000000  0
-8.000000  16.500000  37.000000  0
-9.000000  16.500000  37.000000  0
-10.000000  16.500000  37.000000  0
-10.500000  17.000000  37.000000  0
-17.500000  17.000000  37.000000  0
-8.000000  16.500000  36.000000  0
-9.000000  16.500000  36.000000  0
-9.500000  17.000000  36.000000  0
-10.000000  17.000000  36.500000  0
-17.500000  17.000000  36.000000  0
-9.000000  16.500000  35.000000  0
-9.500000  17.000000  35.000000  0
-17.500000  17.000000  35.000000  0
-9.000000  16.500000  34.000000  0
-9.500000  17.000000  34.000000  0
-17.500000  17.000000  34.000000  0
-10.000000  16.500000  33.000000  0
-10.000000  17.000000  33.500000  0
-10.500000  17.000000  33.000000  0
-17.000000  16.500000  33.000000  0
-16.500000  17.000000  33.000000  0
-17.000000  17.000000  33.500000  0
-10.000000  16.500000  32.000000  0
-10.500000  17.000000  32.000000  0
-13.000000  16.500000  32.000000  0
-12.500000  17.000000  32.000000  0
-13.000000  17.000000  32.500000  0
-14.000000  16.500000  32.000000  0
-14.000000  17.000000  32.500000  0
-15.000000  16.500000  32.000000  0
-15.000000  17.000000  32.500000  0
-16.000000  16.500000  32.000000  0
-16.000000  17.000000  32.500000  0
-17.000000  16.500000  32.000000  0
-11.000000  16.500000  31.000000  0
-11.000000  17.000000  31.500000  0
-12.000000  16.500000  31.000000  0
-12.000000  17.000000  31.500000  0
-13.000000  16.500000  31.000000  0
-14.000000  16.500000  31.000000  0
-15.000000  16.500000  31.000000  0
-12.000000  16.500000  30.000000  0
-13.000000  16.500000  30.000000  0
-14.000000  16.500000  30.000000  0
-15.000000  16.500000  30.000000  0
-16.000000  17.500000  46.000000  0
-16.000000  17.500000  45.000000  0
-15.000000  17.500000  44.000000  0
-15.500000  18.000000  44.000000  0
-16.000000  18.000000  44.500000  0
-16.500000  18.000000  44.000000  0
-14.000000  17.500000  43.000000  0
-15.000000  17.500000  43.000000  0
-15.500000  18.000000  43.000000  0
-17.000000  17.500000  43.000000  0
-16.500000  18.000000  43.000000  0
-13.000000  17.500000  42.000000  0
-14.000000  17.500000  42.000000  0
-14.500000  18.000000  42.000000  0
-15.000000  18.000000  42.500000  0
-17.000000  18.000000  42.500000  0
-17.500000  18.000000  42.000000  0
-13.000000  17.500000  41.000000  0
-13.500000  18.000000  41.000000  0
-14.000000  18.000000  41.500000  0
-17.500000  18.000000  41.000000  0
-11.000000  17.500000  40.000000  0
-12.000000  17.500000  40.000000  0
-13.000000  17.500000  40.000000  0
-13.500000  18.000000  40.000000  0
-17.500000  18.000000  40.000000  0
-11.000000  17.500000  39.000000  0
-12.000000  17.500000  39.000000  0
-12.500000  18.000000  39.000000  0
-13.000000  18.000000  39.500000  0
-17.500000  18.000000  39.000000  0
-11.000000  17.500000  38.000000  0
-11.500000  18.000000  38.000000  0
-12.000000  18.000000  38.500000  0
-17.500000  18.000000  38.000000  0
-11.000000  17.500000  37.000000  0
-11.500000  18.000000  37.000000  0
-17.500000  18.000000  37.000000  0
-10.000000  17.500000  36.000000  0
-11.000000  17.500000  36.000000  0
-11.500000  18.000000  36.000000  0
-17.500000  18.000000  36.000000  0
-10.000000  17.500000  35.000000  0
-10.500000  18.000000  35.000000  0
-11.000000  18.000000  35.500000  0
-17.500000  18.000000  35.000000  0
-10.000000  17.500000  34.000000  0
-11.000000  17.500000  34.000000  0
-11.000000  18.000000  34.500000  0
-11.500000  18.000000  34.000000  0
-17.000000  17.500000  34.000000  0
-16.500000  18.000000  34.000000  0
-17.000000  18.000000  34.500000  0
-11.000000  17.500000  33.000000  0
-11.500000  18.000000  33.000000  0
-16.500000  18.000000  33.000000  0
-11.000000  17.500000  32.000000  0
-12.000000  17.500000  32.000000  0
-12.000000  18.000000  32.500000  0
-13.000000  18.000000  32.500000  0
-14.000000  18.000000  32.500000  0
-15.000000  18.000000  32.500000  0
-16.000000  18.000000  32.500000  0
-16.000000  18.500000  44.000000  0
-16.000000  18.500000  43.000000  0
-15.000000  18.500000  42.000000  0
-16.000000  18.500000  42.000000  0
-17.000000  18.500000  42.000000  0
-14.000000  18.500000  41.000000  0
-15.000000  18.500000  41.000000  0
-16.000000  18.500000  41.000000  0
-17.000000  18.500000  41.000000  0
-14.000000  18.500000  40.000000  0
-15.000000  18.500000  40.000000  0
-16.000000  18.500000  40.000000  0
-17.000000  18.500000  40.000000  0
-13.000000  18.500000  39.000000  0
-14.000000  18.500000  39.000000  0
-15.000000  18.500000  39.000000  0
-16.000000  18.500000  39.000000  0
-17.000000  18.500000  39.000000  0
-12.000000  18.500000  38.000000  0
-13.000000  18.500000  38.000000  0
-14.000000  18.500000  38.000000  0
-15.000000  18.500000  38.000000  0
-16.000000  18.500000  38.000000  0
-17.000000  18.500000  38.000000  0
-12.000000  18.500000  37.000000  0
-13.000000  18.500000  37.000000  0
-14.000000  18.500000  37.000000  0
-15.000000  18.500000  37.000000  0
-16.000000  18.500000  37.000000  0
-17.000000  18.500000  37.000000  0
-12.000000  18.500000  36.000000  0
-13.000000  18.500000  36.000000  0
-14.000000  18.500000  36.000000  0
-15.000000  18.500000  36.000000  0
-16.000000  18.500000  36.000000  0
-17.000000  18.500000  36.000000  0
-11.000000  18.500000  35.000000  0
-12.000000  18.500000  35.000000  0
-13.000000  18.500000  35.000000  0
-14.000000  18.500000  35.000000  0
-15.000000  18.500000  35.000000  0
-16.000000  18.500000  35.000000  0
-17.000000  18.500000  35.000000  0
-12.000000  18.500000  34.000000  0
-13.000000  18.500000  34.000000  0
-14.000000  18.500000  34.000000  0
-15.000000  18.500000  34.000000  0
-16.000000  18.500000  34.000000  0
-12.000000  18.500000  33.000000  0
-13.000000  18.500000  33.000000  0
-14.000000  18.500000  33.000000  0
-15.000000  18.500000  33.000000  0
-16.000000  18.500000  33.000000  0
2 0 1 0
3 0 2 0
0 5 1 0
4 5 0 0
3 4 0 0
6 4 3 0
5 4 7 0
4 6 7 0
9 1 8 0
2 1 9 0
10 2 9 0
3 2 10 0
1 11 8 0
5 11 1 0
6 10 12 0
3 10 6 0
11 7 13 0
5 7 11 0
6 13 7 0
12 13 6 0
16 14 15 0
17 14 16 0
14 19 15 0
18 19 14 0
17 18 14 0
20 18 17 0
23 21 22 0
19 21 23 0
19 18 21 0
18 8 21 0
9 8 18 0
20 24 10 0
18 20 10 0
9 18 10 0
22 21 25 0
27 25 26 0
25 11 26 0
25 21 11 0
21 8 11 0
12 10 24 0
26 12 24 0
27 26 24 0
26 11 13 0
13 12 26 0
29 15 28 0
16 15 29 0
30 16 29 0
17 16 30 0
15 31 28 0
19 31 15 0
20 30 32 0
17 30 20 0
34 22 33 0
23 22 34 0
23 34 19 0
19 34 31 0
24 32 35 0
20 32 24 0
33 25 36 0
22 25 33 0
36 27 37 0
25 27 36 0
24 37 27 0
35 37 24 0
39 28 38 0
29 28 39 0
40 29 39 0
30 29 40 0
43 41 42 0
38 28 31 0
38 31 41 0
38 41 43 0
32 40 44 0
30 40 32 0
47 45 46 0
42 45 47 0
42 41 45 0
41 33 45 0
34 33 41 0
41 31 34 0
35 44 48 0
32 44 35 0
46 45 49 0
36 50 49 0
33 36 49 0
45 33 49 0
50 37 51 0
36 37 50 0
35 51 37 0
48 51 35 0
54 52 53 0
54 55 39 0
52 54 39 0
38 52 39 0
56 39 55 0
40 39 56 0
59 57 58 0
53 57 59 0
53 52 57 0
52 42 57 0
43 42 52 0
52 38 43 0
44 56 60 0
40 56 44 0
46 61 58 0
47 46 58 0
57 47 58 0
57 42 47 0
63 62 64 0
48 44 60 0
62 48 60 0
64 62 60 0
61 49 65 0
46 49 61 0
65 50 66 0
49 50 65 0
66 50 51 0
63 66 51 0
62 63 51 0
51 48 62 0
69 67 68 0
69 70 54 0
67 69 54 0
53 67 54 0
71 54 70 0
55 54 71 0
72 55 71 0
56 55 72 0
58 73 68 0
59 58 68 0
67 59 68 0
67 53 59 0
75 74 76 0
60 56 72 0
74 60 72 0
76 74 72 0
58 77 73 0
61 77 58 0
75 78 63 0
75 63 64 0
75 64 74 0
64 60 74 0
77 65 79 0
61 65 77 0
79 66 80 0
65 66 79 0
63 80 66 0
78 80 63 0
83 81 82 0
84 81 83 0
87 85 86 0
81 88 85 0
82 81 85 0
87 82 85 0
84 88 81 0
89 88 84 0
68 90 86 0
69 68 86 0
85 69 86 0
85 88 69 0
69 88 70 0
91 71 70 0
91 70 88 0
91 88 89 0
92 71 91 0
72 71 92 0
95 93 94 0
90 68 73 0
90 73 93 0
90 93 95 0
96 75 97 0
97 75 76 0
72 97 76 0
92 97 72 0
94 93 98 0
73 77 99 0
73 99 98 0
73 98 93 0
78 96 100 0
75 96 78 0
99 79 101 0
77 79 99 0
101 80 102 0
79 80 101 0
78 102 80 0
100 102 78 0
104 82 103 0
83 82 104 0
105 83 104 0
84 83 105 0
107 86 106 0
87 86 107 0
87 107 82 0
82 107 103 0
89 105 108 0
84 105 89 0
86 109 106 0
90 109 86 0
110 91 108 0
108 91 89 0
111 91 110 0
92 91 111 0
114 112 113 0
114 115 95 0
112 114 95 0
94 112 95 0
95 115 90 0
90 115 109 0
116 96 117 0
117 96 97 0
92 117 97 0
111 117 92 0
112 119 113 0
118 119 112 0
120 118 112 0
120 112 94 0
120 94 98 0
99 120 98 0
100 116 121 0
96 116 100 0
119 118 122 0
118 123 122 0
120 123 118 0
101 124 123 0
99 101 123 0
120 99 123 0
124 102 125 0
101 102 124 0
100 125 102 0
121 125 100 0
128 126 127 0
128 129 104 0
126 128 104 0
103 126 104 0
130 104 129 0
105 104 130 0
106 131 127 0
107 106 127 0
126 107 127 0
126 103 107 0
108 130 132 0
105 130 108 0
106 133 131 0
109 133 106 0
134 110 132 0
132 110 108 0
135 110 134 0
111 110 135 0
137 113 136 0
114 113 137 0
138 114 137 0
115 114 138 0
115 138 109 0
109 138 133 0
139 116 140 0
140 116 117 0
111 140 117 0
135 140 111 0
113 141 136 0
119 141 113 0
121 139 142 0
116 139 121 0
141 122 143 0
119 122 141 0
143 123 144 0
122 123 143 0
144 124 145 0
123 124 144 0
145 125 146 0
124 125 145 0
121 146 125 0
142 146 121 0
148 127 147 0
128 127 148 0
149 128 148 0
129 128 149 0
150 129 149 0
130 129 150 0
127 151 147 0
131 151 127 0
132 150 152 0
130 150 132 0
155 153 154 0
151 131 133 0
151 133 153 0
151 153 155 0
156 134 152 0
152 134 132 0
157 134 156 0
135 134 157 0
159 136 158 0
137 136 159 0
138 137 159 0
138 159 154 0
138 154 153 0
153 133 138 0
160 139 161 0
161 139 140 0
135 161 140 0
157 161 135 0
136 162 158 0
141 162 136 0
142 160 163 0
139 160 142 0
162 143 164 0
141 143 162 0
164 144 165 0
143 144 164 0
165 145 166 0
144 145 165 0
166 146 167 0
145 146 166 0
142 167 146 0
163 167 142 0
169 147 168 0
148 147 169 0
170 148 169 0
149 148 170 0
171 149 170 0
150 149 171 0
147 172 168 0
151 172 147 0
152 150 171 0
152 171 174 0
152 174 173 0
175 173 174 0
178 176 177 0
178 179 155 0
176 178 155 0
154 176 155 0
155 179 151 0
151 179 172 0
156 152 173 0
175 180 157 0
173 175 157 0
156 173 157 0
158 181 177 0
159 158 177 0
176 159 177 0
176 154 159 0
182 160 183 0
183 160 161 0
157 183 161 0
180 183 157 0
158 184 181 0
162 184 158 0
186 185 187 0
185 188 187 0
187 188 189 0
163 160 182 0
188 163 182 0
189 188 182 0
184 164 190 0
162 164 184 0
190 165 191 0
164 165 190 0
191 165 166 0
186 191 166 0
185 186 166 0
166 188 185 0
167 188 166 0
167 163 188 0
194 192 193 0
194 195 169 0
192 194 169 0
168 192 169 0
196 169 195 0
170 169 196 0
197 170 196 0
171 170 197 0
200 198 199 0
192 201 198 0
193 192 198 0
200 193 198 0
168 172 192 0
192 172 201 0
171 197 203 0
171 203 202 0
171 202 174 0
174 202 175 0
177 204 199 0
178 177 199 0
198 178 199 0
198 201 178 0
178 201 179 0
201 172 179 0
203 206 202 0
202 206 205 0
202 180 175 0
205 180 202 0
177 207 204 0
181 207 177 0
206 208 182 0
206 182 183 0
206 183 205 0
183 180 205 0
181 209 207 0
184 209 181 0
211 210 212 0
187 213 212 0
187 212 210 0
187 210 186 0
213 189 214 0
187 189 213 0
182 214 189 0
208 214 182 0
209 190 215 0
184 190 209 0
215 190 191 0
211 215 191 0
210 211 191 0
191 186 210 0
217 193 216 0
194 193 217 0
218 194 217 0
195 194 218 0
219 195 218 0
196 195 219 0
220 196 219 0
197 196 220 0
222 199 221 0
200 199 222 0
200 222 193 0
193 222 216 0
203 220 223 0
197 220 203 0
199 224 221 0
204 224 199 0
206 223 225 0
203 223 206 0
204 226 224 0
207 226 204 0
208 225 227 0
206 225 208 0
207 228 226 0
209 228 207 0
229 211 230 0
230 211 212 0
230 213 231 0
212 213 230 0
231 214 232 0
213 214 231 0
208 232 214 0
227 232 208 0
228 215 233 0
209 215 228 0
211 233 215 0
229 233 211 0
236 234 235 0
236 237 234 0
238 237 236 0
239 237 238 0
217 216 240 0
241 235 240 0
235 217 240 0
235 234 217 0
234 218 217 0
234 237 218 0
218 237 219 0
239 242 220 0
237 239 220 0
219 237 220 0
244 221 243 0
222 221 244 0
222 244 245 0
222 245 240 0
222 240 216 0
245 241 240 0
223 242 246 0
220 242 223 0
249 247 248 0
243 221 224 0
243 224 247 0
243 247 249 0
225 246 250 0
223 246 225 0
247 252 248 0
251 252 247 0
224 226 247 0
247 226 251 0
227 250 253 0
225 250 227 0
251 255 252 0
254 255 251 0
226 228 251 0
251 228 254 0
256 229 257 0
257 229 230 0
257 231 258 0
230 231 257 0
258 232 259 0
231 232 258 0
227 259 232 0
253 259 227 0
255 254 260 0
233 261 260 0
228 233 260 0
254 228 260 0
229 261 233 0
256 261 229 0
263 235 262 0
236 235 263 0
264 236 263 0
238 236 264 0
265 238 264 0
239 238 265 0
235 266 262 0
241 266 235 0
242 265 267 0
239 265 242 0
269 243 268 0
244 243 269 0
270 244 269 0
245 244 270 0
245 270 241 0
241 270 266 0
246 267 271 0
242 267 246 0
273 248 272 0
249 248 273 0
249 273 243 0
243 273 268 0
250 271 274 0
246 271 250 0
248 275 272 0
252 275 248 0
253 274 276 0
250 274 253 0
252 277 275 0
255 277 252 0
278 256 279 0
279 256 257 0
279 258 280 0
257 258 279 0
280 259 281 0
258 259 280 0
253 281 259 0
276 281 253 0
277 260 282 0
255 260 277 0
282 261 283 0
260 261 282 0
256 283 261 0
278 283 256 0
285 262 284 0
263 262 285 0
286 263 285 0
264 263 286 0
287 264 286 0
265 264 287 0
262 288 284 0
266 288 262 0
267 287 289 0
265 287 267 0
291 268 290 0
269 268 291 0
292 269 291 0
270 269 292 0
270 292 266 0
266 292 288 0
271 289 293 0
267 289 271 0
295 272 294 0
273 272 295 0
273 295 268 0
268 295 290 0
274 293 296 0
271 293 274 0
272 297 294 0
275 297 272 0
276 296 298 0
274 296 276 0
301 299 300 0
297 275 277 0
297 277 299 0
297 299 301 0
302 278 303 0
303 278 279 0
303 280 304 0
279 280 303 0
304 281 305 0
280 281 304 0
276 305 281 0
298 305 276 0
300 299 306 0
282 307 306 0
277 282 306 0
299 277 306 0
307 283 308 0
282 283 307 0
278 308 283 0
302 308 278 0
310 284 309 0
285 284 310 0
311 285 310 0
286 285 311 0
312 286 311 0
287 286 312 0
315 313 314 0
315 316 313 0
317 316 315 0
309 284 288 0
309 288 316 0
309 316 317 0
289 312 318 0
287 312 289 0
321 319 320 0
314 319 321 0
314 313 319 0
313 290 319 0
291 290 313 0
313 316 291 0
291 316 292 0
316 288 292 0
293 318 322 0
289 318 293 0
294 323 320 0
295 294 320 0
319 295 320 0
319 290 295 0
296 322 324 0
293 322 296 0
294 325 323 0
297 325 294 0
298 324 326 0
296 324 298 0
328 300 327 0
301 300 328 0
301 328 297 0
297 328 325 0
329 302 330 0
330 302 303 0
330 304 331 0
303 304 330 0
331 305 332 0
304 305 331 0
298 332 305 0
326 332 298 0
335 333 334 0
327 300 335 0
300 333 335 0
300 306 333 0
306 336 333 0
337 336 307 0
307 336 306 0
307 308 339 0
307 339 338 0
307 338 337 0
302 339 308 0
329 339 302 0
334 333 340 0
333 341 340 0
336 341 333 0
336 342 341 0
337 342 336 0
337 338 342 0
344 309 343 0
310 309 344 0
345 310 344 0
311 310 345 0
346 311 345 0
312 311 346 0
348 314 347 0
315 314 348 0
349 315 348 0
317 315 349 0
317 349 309 0
309 349 343 0
318 346 350 0
312 346 318 0
352 320 351 0
321 320 352 0
321 352 314 0
314 352 347 0
322 350 353 0
318 350 322 0
320 354 351 0
323 354 320 0
324 353 355 0
322 353 324 0
323 356 354 0
325 356 323 0
326 355 357 0
324 355 326 0
359 327 358 0
328 327 359 0
328 359 325 0
325 359 356 0
360 329 330 0
330 331 362 0
330 362 361 0
330 361 360 0
362 332 363 0
331 332 362 0
326 363 332 0
357 363 326 0
335 334 364 0
365 358 327 0
365 327 335 0
365 335 364 0
366 338 367 0
367 338 339 0
368 367 339 0
360 368 339 0
329 360 339 0
360 361 368 0
364 334 340 0
340 341 369 0
364 340 369 0
365 364 369 0
369 342 370 0
341 342 369 0
338 370 342 0
366 370 338 0
373 371 372 0
373 374 371 0
375 374 373 0
376 374 375 0
378 343 377 0
344 343 378 0
345 344 378 0
345 378 372 0
345 372 371 0
371 374 379 0
371 379 346 0
371 346 345 0
376 379 374 0
380 379 376 0
382 347 381 0
348 347 382 0
383 348 382 0
349 348 383 0
349 383 343 0
343 383 377 0
350 346 384 0
384 346 379 0
380 384 379 0
385 384 380 0
387 351 386 0
352 351 387 0
352 387 347 0
347 387 381 0
353 350 388 0
388 350 384 0
385 388 384 0
389 388 385 0
351 390 386 0
354 390 351 0
391 355 353 0
391 353 388 0
391 388 392 0
388 389 392 0
354 393 390 0
356 393 354 0
357 391 394 0
355 391 357 0
396 358 395 0
359 358 396 0
359 396 356 0
356 396 393 0
397 361 398 0
398 361 362 0
398 363 399 0
362 363 398 0
357 399 363 0
394 399 357 0
358 400 395 0
365 400 358 0
401 366 367 0
367 368 403 0
367 403 402 0
367 402 401 0
361 403 368 0
397 403 361 0
406 404 405 0
400 365 406 0
365 404 406 0
365 369 404 0
369 407 404 0
408 407 370 0
370 407 369 0
409 401 410 0
409 408 401 0
408 366 401 0
370 366 408 0
401 402 410 0
405 404 411 0
404 412 411 0
407 412 404 0
407 413 412 0
408 413 407 0
408 409 413 0
415 372 414 0
373 372 415 0
416 373 415 0
375 373 416 0
417 375 416 0
376 375 417 0
419 377 418 0
378 377 419 0
378 419 372 0
372 419 414 0
380 417 420 0
376 417 380 0
422 381 421 0
382 381 422 0
423 382 422 0
383 382 423 0
383 423 377 0
377 423 418 0
385 420 424 0
380 420 385 0
426 386 425 0
387 386 426 0
387 426 381 0
381 426 421 0
389 424 427 0
385 424 389 0
386 428 425 0
390 428 386 0
429 391 430 0
430 391 392 0
389 430 392 0
427 430 389 0
390 431 428 0
393 431 390 0
433 432 434 0
394 391 429 0
432 394 429 0
434 432 429 0
436 395 435 0
396 395 436 0
396 436 393 0
393 436 431 0
437 397 438 0
438 397 398 0
438 398 399 0
433 438 399 0
432 433 399 0
399 394 432 0
395 439 435 0
400 439 395 0
440 402 441 0
441 402 403 0
397 441 403 0
437 441 397 0
443 405 442 0
406 405 443 0
406 443 400 0
400 443 439 0
444 409 410 0
402 440 445 0
410 402 445 0
444 410 445 0
442 411 446 0
405 411 442 0
446 412 447 0
411 412 446 0
447 413 448 0
412 413 447 0
449 448 413 0
444 449 413 0
409 444 413 0
444 445 449 0
451 414 450 0
415 414 451 0
452 415 451 0
416 415 452 0
453 416 452 0
417 416 453 0
455 418 454 0
419 418 455 0
419 455 414 0
414 455 450 0
420 453 456 0
417 453 420 0
458 421 457 0
422 421 458 0
459 422 458 0
423 422 459 0
423 459 418 0
418 459 454 0
424 456 460 0
420 456 424 0
462 425 461 0
426 425 462 0
426 462 421 0
421 462 457 0
427 460 463 0
424 460 427 0
425 464 461 0
428 464 425 0
465 429 430 0
427 463 466 0
430 427 466 0
465 430 466 0
469 467 468 0
464 428 431 0
464 431 467 0
464 467 469 0
470 433 471 0
471 433 434 0
472 471 434 0
465 472 434 0
429 465 434 0
465 466 472 0
435 473 468 0
436 435 468 0
467 436 468 0
467 431 436 0
474 437 438 0
433 470 475 0
438 433 475 0
474 438 475 0
435 476 473 0
439 476 435 0
477 440 478 0
478 440 441 0
479 478 441 0
474 479 441 0
437 474 441 0
474 475 479 0
481 442 480 0
443 442 481 0
443 481 439 0
439 481 476 0
445 477 482 0
440 477 445 0
484 480 442 0
483 484 442 0
446 483 442 0
485 483 447 0
447 483 446 0
486 485 448 0
448 485 447 0
448 449 488 0
448 488 487 0
448 487 486 0
445 488 449 0
482 488 445 0
484 483 489 0
483 490 489 0
485 490 483 0
485 491 490 0
486 491 485 0
486 487 491 0
493 450 492 0
451 450 493 0
494 451 493 0
452 451 494 0
495 452 494 0
453 452 495 0
497 454 496 0
455 454 497 0
455 497 450 0
450 497 492 0
456 495 498 0
453 495 456 0
500 457 499 0
458 457 500 0
501 458 500 0
459 458 501 0
459 501 454 0
454 501 496 0
460 498 502 0
456 498 460 0
504 461 503 0
462 461 504 0
462 504 457 0
457 504 499 0
463 502 505 0
460 502 463 0
461 506 503 0
464 506 461 0
466 505 507 0
463 505 466 0
509 468 508 0
469 468 509 0
469 509 464 0
464 509 506 0
510 470 511 0
511 470 471 0
511 472 512 0
471 472 511 0
466 512 472 0
507 512 466 0
468 513 508 0
473 513 468 0
475 510 514 0
470 510 475 0
473 515 513 0
476 515 473 0
516 477 517 0
517 477 478 0
517 479 518 0
478 479 517 0
475 518 479 0
514 518 475 0
520 480 519 0
481 480 520 0
481 520 476 0
476 520 515 0
482 516 521 0
477 516 482 0
480 522 519 0
484 522 480 0
523 487 488 0
482 521 524 0
488 482 524 0
523 488 524 0
522 489 525 0
484 489 522 0
525 490 526 0
489 490 525 0
526 491 527 0
490 491 526 0
528 527 491 0
523 528 491 0
487 523 491 0
523 524 528 0
530 492 529 0
493 492 530 0
531 493 530 0
494 493 531 0
532 494 531 0
495 494 532 0
534 496 533 0
497 496 534 0
497 534 492 0
492 534 529 0
498 532 535 0
495 532 498 0
537 499 536 0
500 499 537 0
538 500 537 0
501 500 538 0
501 538 496 0
496 538 533 0
502 535 539 0
498 535 502 0
541 503 540 0
504 503 541 0
504 541 499 0
499 541 536 0
505 539 542 0
502 539 505 0
503 543 540 0
506 543 503 0
507 542 544 0
505 542 507 0
546 508 545 0
509 508 546 0
509 546 506 0
506 546 543 0
547 510 511 0
511 512 549 0
511 549 548 0
511 548 547 0
507 549 512 0
544 549 507 0
508 550 545 0
513 550 508 0
551 514 510 0
551 510 547 0
551 547 552 0
547 548 552 0
513 553 550 0
515 553 513 0
554 516 555 0
555 516 517 0
555 518 556 0
517 518 555 0
514 556 518 0
551 556 514 0
558 519 557 0
520 519 558 0
520 558 515 0
515 558 553 0
521 554 559 0
516 554 521 0
519 560 557 0
522 560 519 0
524 559 561 0
521 559 524 0
563 560 522 0
562 563 522 0
525 562 522 0
564 562 526 0
526 562 525 0
565 564 527 0
527 564 526 0
527 528 567 0
527 567 566 0
527 566 565 0
524 567 528 0
561 567 524 0
563 562 568 0
562 569 568 0
564 569 562 0
564 570 569 0
565 570 564 0
565 566 570 0
530 529 571 0
531 571 572 0
530 571 531 0
531 572 532 0
574 533 573 0
534 533 574 0
534 574 575 0
534 575 571 0
534 571 529 0
575 576 571 0
571 576 572 0
577 535 532 0
576 577 532 0
572 576 532 0
579 536 578 0
537 536 579 0
580 537 579 0
538 537 580 0
538 580 533 0
533 580 573 0
539 577 581 0
535 577 539 0
583 540 582 0
541 540 583 0
541 583 536 0
536 583 578 0
542 581 584 0
539 581 542 0
587 585 586 0
582 540 543 0
582 543 585 0
582 585 587 0
544 584 588 0
542 584 544 0
545 589 586 0
546 545 586 0
585 546 586 0
585 543 546 0
590 548 591 0
591 548 549 0
544 591 549 0
588 591 544 0
545 592 589 0
550 592 545 0
593 551 594 0
594 551 552 0
548 594 552 0
590 594 548 0
597 595 596 0
592 550 553 0
592 553 595 0
592 595 597 0
598 554 555 0
555 556 600 0
555 600 599 0
555 599 598 0
551 600 556 0
593 600 551 0
557 601 596 0
558 557 596 0
595 558 596 0
595 553 558 0
602 559 554 0
602 554 598 0
602 598 603 0
598 599 603 0
557 604 601 0
560 604 557 0
561 602 605 0
559 602 561 0
560 606 604 0
563 606 560 0
607 566 608 0
608 566 567 0
561 608 567 0
605 608 561 0
611 609 610 0
606 563 611 0
563 609 611 0
563 568 609 0
568 612 609 0
613 612 569 0
569 612 568 0
614 613 570 0
570 613 569 0
566 607 615 0
570 566 615 0
614 570 615 0
610 609 616 0
609 617 616 0
612 617 609 0
612 618 617 0
613 618 612 0
613 619 618 0
614 619 613 0
614 615 619 0
621 573 620 0
574 573 621 0
622 574 621 0
575 574 622 0
623 575 622 0
576 575 623 0
624 576 623 0
577 576 624 0
579 578 625 0
627 580 579 0
626 627 579 0
625 626 579 0
580 627 573 0
573 627 620 0
581 624 628 0
577 624 581 0
630 582 629 0
583 582 630 0
583 630 631 0
583 631 625 0
583 625 578 0
631 626 625 0
584 628 632 0
581 628 584 0
634 586 633 0
587 586 634 0
587 634 582 0
582 634 629 0
588 632 635 0
584 632 588 0
586 636 633 0
589 636 586 0
637 590 638 0
638 590 591 0
588 638 591 0
635 638 588 0
641 639 640 0
636 589 592 0
636 592 639 0
636 639 641 0
642 593 643 0
643 593 594 0
590 643 594 0
637 643 590 0
596 644 640 0
597 596 640 0
639 597 640 0
639 592 597 0
645 599 646 0
646 599 600 0
593 646 600 0
642 646 593 0
596 647 644 0
601 647 596 0
648 602 649 0
649 602 603 0
599 649 603 0
645 649 599 0
601 650 647 0
604 650 601 0
605 648 651 0
602 648 605 0
604 652 650 0
606 652 604 0
653 607 654 0
654 607 608 0
605 654 608 0
651 654 605 0
656 610 655 0
611 610 656 0
611 656 606 0
606 656 652 0
615 653 657 0
607 653 615 0
655 616 658 0
610 616 655 0
658 617 659 0
616 617 658 0
659 618 660 0
617 618 659 0
660 619 661 0
618 619 660 0
615 661 619 0
657 661 615 0
663 620 662 0
621 620 663 0
664 621 663 0
622 621 664 0
665 622 664 0
623 622 665 0
666 623 665 0
624 623 666 0
668 626 667 0
627 626 668 0
627 668 620 0
620 668 662 0
628 666 669 0
624 666 628 0
671 629 670 0
630 629 671 0
672 630 671 0
631 630 672 0
631 672 626 0
626 672 667 0
632 669 673 0
628 669 632 0
675 633 674 0
634 633 675 0
634 675 629 0
629 675 670 0
635 673 676 0
632 673 635 0
633 677 674 0
636 677 633 0
678 637 638 0
635 676 679 0
638 635 679 0
678 638 679 0
681 640 680 0
641 640 681 0
641 681 636 0
636 681 677 0
682 642 643 0
683 678 684 0
683 682 678 0
682 637 678 0
643 637 682 0
678 679 684 0
640 685 680 0
644 685 640 0
686 645 646 0
687 682 688 0
687 686 682 0
686 642 682 0
646 642 686 0
682 683 688 0
644 689 685 0
647 689 644 0
690 648 691 0
691 648 649 0
692 691 649 0
686 692 649 0
645 686 649 0
686 687 692 0
647 693 689 0
650 693 647 0
651 690 694 0
648 690 651 0
650 695 693 0
652 695 650 0
696 653 654 0
651 694 697 0
654 651 697 0
696 654 697 0
699 655 698 0
656 655 699 0
656 699 652 0
652 699 695 0
700 657 653 0
700 653 696 0
700 696 701 0
696 697 701 0
703 698 655 0
702 703 655 0
658 702 655 0
704 702 659 0
659 702 658 0
705 704 660 0
660 704 659 0
706 705 661 0
661 705 660 0
657 700 707 0
661 657 707 0
706 661 707 0
702 709 703 0
708 709 702 0
710 702 704 0
708 702 710 0
710 704 705 0
711 710 705 0
712 711 705 0
705 713 712 0
706 713 705 0
706 707 713 0
708 715 709 0
714 715 708 0
716 708 710 0
714 708 716 0
711 716 710 0
717 716 711 0
715 714 718 0
714 719 718 0
716 719 714 0
716 717 719 0
721 662 720 0
663 662 721 0
722 663 721 0
664 663 722 0
723 664 722 0
665 664 723 0
724 665 723 0
666 665 724 0
726 667 725 0
668 667 726 0
668 726 662 0
662 726 720 0
669 724 727 0
666 724 669 0
671 670 728 0
730 672 671 0
729 730 671 0
728 729 671 0
672 730 667 0
667 730 725 0
673 727 731 0
669 727 673 0
733 674 732 0
675 674 733 0
675 733 734 0
675 734 728 0
675 728 670 0
734 729 728 0
676 731 735 0
673 731 676 0
674 736 732 0
677 736 674 0
679 735 737 0
676 735 679 0
739 680 738 0
681 680 739 0
681 739 677 0
677 739 736 0
740 683 741 0
741 683 684 0
679 741 684 0
737 741 679 0
680 742 738 0
685 742 680 0
743 687 688 0
683 740 744 0
688 683 744 0
743 688 744 0
685 745 742 0
689 745 685 0
746 690 747 0
747 690 691 0
747 692 748 0
691 692 747 0
749 748 692 0
743 749 692 0
687 743 692 0
743 744 749 0
689 750 745 0
693 750 689 0
694 746 751 0
690 746 694 0
693 752 750 0
695 752 693 0
697 751 753 0
694 751 697 0
755 698 754 0
699 698 755 0
699 755 695 0
695 755 752 0
756 700 757 0
757 700 701 0
697 757 701 0
753 757 697 0
698 758 754 0
703 758 698 0
707 756 759 0
700 756 707 0
703 760 758 0
709 760 703 0
761 711 762 0
762 711 712 0
762 713 763 0
712 713 762 0
707 763 713 0
759 763 707 0
709 764 760 0
715 764 709 0
717 761 765 0
711 761 717 0
764 718 766 0
715 718 764 0
766 719 767 0
718 719 766 0
717 767 719 0
765 767 717 0
769 720 768 0
721 720 769 0
770 721 769 0
722 721 770 0
771 722 770 0
723 722 771 0
772 723 771 0
724 723 772 0
774 725 773 0
726 725 774 0
726 774 720 0
720 774 768 0
727 772 775 0
724 772 727 0
777 729 776 0
730 729 777 0
730 777 725 0
725 777 773 0
731 775 778 0
727 775 731 0
780 732 779 0
733 732 780 0
781 733 780 0
734 733 781 0
734 781 729 0
729 781 776 0
735 778 782 0
731 778 735 0
732 783 779 0
736 783 732 0
737 782 784 0
735 782 737 0
786 738 785 0
739 738 786 0
739 786 736 0
736 786 783 0
787 740 741 0
737 784 788 0
741 737 788 0
787 741 788 0
738 789 785 0
742 789 738 0
790 744 740 0
790 740 787 0
790 787 791 0
787 788 791 0
742 792 789 0
745 792 742 0
793 746 747 0
794 793 748 0
748 793 747 0
748 749 796 0
748 796 795 0
748 795 794 0
744 796 749 0
790 796 744 0
745 797 792 0
750 797 745 0
751 746 798 0
798 746 793 0
798 793 794 0
799 798 794 0
800 799 794 0
794 795 800 0
803 801 802 0
797 750 752 0
797 752 801 0
797 801 803 0
753 751 804 0
804 751 798 0
799 804 798 0
805 804 799 0
754 806 802 0
755 754 802 0
801 755 802 0
801 752 755 0
807 756 808 0
808 756 757 0
809 808 757 0
804 809 757 0
753 804 757 0
804 805 809 0
754 810 806 0
758 810 754 0
759 807 811 0
756 807 759 0
758 812 810 0
760 812 758 0
813 761 762 0
814 813 763 0
763 813 762 0
759 811 815 0
763 759 815 0
814 763 815 0
760 816 812 0
764 816 760 0
817 765 761 0
817 761 813 0
817 813 818 0
813 819 818 0
814 819 813 0
814 815 819 0
821 816 764 0
820 821 764 0
766 820 764 0
822 820 767 0
767 820 766 0
765 817 823 0
767 765 823 0
822 767 823 0
826 824 825 0
820 827 824 0
821 820 824 0
826 821 824 0
828 820 822 0
827 820 828 0
823 828 822 0
829 828 823 0
824 831 825 0
830 831 824 0
832 824 827 0
830 824 832 0
832 827 828 0
833 832 828 0
834 833 828 0
828 829 834 0
831 830 835 0
830 836 835 0
832 836 830 0
832 833 836 0
838 768 837 0
769 768 838 0
839 769 838 0
770 769 839 0
840 770 839 0
771 770 840 0
841 771 840 0
772 771 841 0
843 773 842 0
774 773 843 0
774 843 768 0
768 843 837 0
775 841 844 0
772 841 775 0
846 776 845 0
777 776 846 0
777 846 773 0
773 846 842 0
778 844 847 0
775 844 778 0
780 779 848 0
850 781 780 0
849 850 780 0
848 849 780 0
781 850 776 0
776 850 845 0
782 847 851 0
778 847 782 0
779 783 852 0
848 779 852 0
853 848 852 0
853 849 848 0
784 851 854 0
782 851 784 0
856 785 855 0
786 785 856 0
786 856 783 0
783 856 852 0
788 854 857 0
784 854 788 0
785 858 855 0
789 858 785 0
859 790 860 0
860 790 791 0
788 860 791 0
857 860 788 0
789 861 858 0
792 861 789 0
862 795 863 0
863 795 796 0
790 863 796 0
859 863 790 0
866 864 865 0
861 792 797 0
861 797 864 0
861 864 866 0
867 799 800 0
795 862 868 0
800 795 868 0
867 800 868 0
802 869 865 0
803 802 865 0
864 803 865 0
864 797 803 0
870 805 799 0
870 799 867 0
870 867 871 0
867 868 871 0
802 872 869 0
806 872 802 0
873 807 808 0
808 809 875 0
808 875 874 0
808 874 873 0
805 875 809 0
870 875 805 0
806 876 872 0
810 876 806 0
877 811 807 0
877 807 873 0
877 873 878 0
873 874 878 0
810 879 876 0
812 879 810 0
815 877 880 0
811 877 815 0
812 881 879 0
816 881 812 0
882 817 883 0
883 817 818 0
883 819 884 0
818 819 883 0
815 884 819 0
880 884 815 0
816 885 881 0
821 885 816 0
823 882 886 0
817 882 823 0
888 825 887 0
826 825 888 0
826 888 821 0
821 888 885 0
829 886 889 0
823 886 829 0
825 890 887 0
831 890 825 0
891 833 834 0
829 889 892 0
834 829 892 0
891 834 892 0
894 890 831 0
893 894 831 0
835 893 831 0
895 893 836 0
836 893 835 0
896 891 897 0
896 895 891 0
895 833 891 0
836 833 895 0
891 892 897 0
894 893 898 0
893 899 898 0
895 899 893 0
895 896 899 0
901 837 900 0
838 837 901 0
902 838 901 0
839 838 902 0
903 839 902 0
840 839 903 0
904 840 903 0
841 840 904 0
906 842 905 0
843 842 906 0
843 906 837 0
837 906 900 0
844 904 907 0
841 904 844 0
909 845 908 0
846 845 909 0
846 909 842 0
842 909 905 0
847 907 910 0
844 907 847 0
912 849 911 0
850 849 912 0
850 912 845 0
845 912 908 0
851 910 913 0
847 910 851 0
915 852 914 0
853 852 915 0
853 915 849 0
849 915 911 0
854 913 916 0
851 913 854 0
918 855 917 0
856 855 918 0
856 918 852 0
852 918 914 0
857 916 919 0
854 916 857 0
855 920 917 0
858 920 855 0
921 859 922 0
922 859 860 0
857 922 860 0
919 922 857 0
925 923 924 0
920 858 861 0
920 861 923 0
920 923 925 0
926 862 863 0
859 921 927 0
863 859 927 0
926 863 927 0
865 928 924 0
866 865 924 0
923 866 924 0
923 861 866 0
868 862 929 0
929 862 926 0
927 929 926 0
930 929 927 0
865 931 928 0
869 931 865 0
932 870 933 0
933 870 871 0
934 933 871 0
929 934 871 0
868 929 871 0
929 930 934 0
869 935 931 0
872 935 869 0
936 874 875 0
870 932 937 0
875 870 937 0
936 875 937 0
872 938 935 0
876 938 872 0
939 877 940 0
940 877 878 0
941 940 878 0
936 941 878 0
874 936 878 0
936 937 941 0
876 942 938 0
879 942 876 0
880 939 943 0
877 939 880 0
879 944 942 0
881 944 879 0
945 882 946 0
946 882 883 0
946 884 947 0
883 884 946 0
880 947 884 0
943 947 880 0
950 948 949 0
944 881 885 0
944 885 948 0
944 948 950 0
886 945 951 0
882 945 886 0
887 952 949 0
888 887 949 0
948 888 949 0
948 885 888 0
889 951 953 0
886 951 889 0
887 954 952 0
890 954 887 0
892 953 955 0
889 953 892 0
890 956 954 0
894 956 890 0
957 896 897 0
892 955 958 0
897 892 958 0
957 897 958 0
960 956 894 0
959 960 894 0
898 959 894 0
961 959 899 0
899 959 898 0
962 957 963 0
962 961 957 0
961 896 957 0
899 896 961 0
957 958 963 0
959 965 960 0
964 965 959 0
964 959 961 0
966 964 961 0
967 966 961 0
961 962 967 0
970 968 969 0
964 971 968 0
965 964 968 0
970 965 968 0
966 971 964 0
972 971 966 0
969 968 973 0
968 974 973 0
971 974 968 0
971 972 974 0
976 900 975 0
901 900 976 0
977 901 976 0
902 901 977 0
978 902 977 0
903 902 978 0
979 903 978 0
904 903 979 0
906 905 980 0
981 975 900 0
981 900 906 0
981 906 980 0
907 979 982 0
904 979 907 0
909 908 983 0
980 984 985 0
980 905 984 0
905 983 984 0
909 983 905 0
985 981 980 0
910 982 986 0
907 982 910 0
988 911 987 0
912 911 988 0
912 988 989 0
912 989 983 0
912 983 908 0
989 984 983 0
913 986 990 0
910 986 913 0
992 914 991 0
915 914 992 0
915 992 911 0
911 992 987 0
916 990 993 0
913 990 916 0
995 917 994 0
918 917 995 0
918 995 914 0
914 995 991 0
919 993 996 0
916 993 919 0
917 997 994 0
920 997 917 0
998 921 922 0
919 996 999 0
922 919 999 0
998 922 999 0
1001 924 1000 0
925 924 1001 0
925 1001 920 0
920 1001 997 0
1002 927 921 0
1002 921 998 0
1002 998 1003 0
998 999 1003 0
924 1004 1000 0
928 1004 924 0
930 1002 1005 0
927 1002 930 0
928 1006 1004 0
931 1006 928 0
1007 932 1008 0
1008 932 933 0
1008 934 1009 0
933 934 1008 0
930 1009 934 0
1005 1009 930 0
931 1010 1006 0
935 1010 931 0
937 1007 1011 0
932 1007 937 0
1014 1012 1013 0
1010 935 938 0
1010 938 1012 0
1010 1012 1014 0
1015 939 1016 0
1016 939 940 0
1016 941 1017 0
940 941 1016 0
937 1017 941 0
1011 1017 937 0
1012 1019 1013 0
1018 1019 1012 0
938 942 1012 0
1012 942 1018 0
943 1015 1020 0
939 1015 943 0
1018 1022 1019 0
1021 1022 1018 0
942 944 1018 0
1018 944 1021 0
1023 945 1024 0
1024 945 946 0
1024 947 1025 0
946 947 1024 0
943 1025 947 0
1020 1025 943 0
949 1026 1022 0
950 949 1022 0
1021 950 1022 0
1021 944 950 0
951 1023 1027 0
945 1023 951 0
949 1028 1026 0
952 1028 949 0
953 1027 1029 0
951 1027 953 0
952 1030 1028 0
954 1030 952 0
955 1029 1031 0
953 1029 955 0
954 1032 1030 0
956 1032 954 0
958 1031 1033 0
955 1031 958 0
956 1034 1032 0
960 1034 956 0
1035 962 1036 0
1036 962 963 0
958 1036 963 0
1033 1036 958 0
960 1037 1034 0
965 1037 960 0
1038 966 967 0
962 1035 1039 0
967 962 1039 0
1038 967 1039 0
1041 969 1040 0
970 969 1041 0
970 1041 965 0
965 1041 1037 0
1042 972 966 0
1042 966 1038 0
1042 1038 1043 0
1038 1039 1043 0
1040 973 1044 0
969 973 1040 0
1044 974 1045 0
973 974 1044 0
972 1045 974 0
1042 1045 972 0
1047 975 1046 0
976 975 1047 0
1048 976 1047 0
977 976 1048 0
978 977 1048 0
1049 978 1048 0
1050 1049 1048 0
978 1049 979 0
975 1051 1046 0
981 1051 975 0
1052 1049 1050 0
1053 982 979 0
1052 1053 979 0
1049 1052 979 0
1055 984 1054 0
985 984 1055 0
985 1055 981 0
981 1055 1051 0
986 1053 1056 0
982 1053 986 0
988 987 1057 0
1059 989 988 0
1058 1059 988 0
1057 1058 988 0
989 1059 984 0
984 1059 1054 0
990 1056 1060 0
986 1056 990 0
1062 991 1061 0
992 991 1062 0
992 1062 1063 0
992 1063 1057 0
992 1057 987 0
1063 1058 1057 0
993 1060 1064 0
990 1060 993 0
1066 994 1065 0
995 994 1066 0
995 1066 991 0
991 1066 1061 0
996 993 1064 0
996 1064 1068 0
996 1068 1067 0
1069 1067 1068 0
994 1070 1065 0
997 1070 994 0
999 996 1071 0
1071 996 1067 0
1069 1071 1067 0
1072 1071 1069 0
1074 1000 1073 0
1001 1000 1074 0
1001 1074 997 0
997 1074 1070 0
1075 1002 1003 0
1071 1076 1075 0
1071 1075 1003 0
1071 1003 999 0
1072 1076 1071 0
1077 1076 1072 0
1000 1078 1073 0
1004 1078 1000 0
1005 1002 1079 0
1079 1002 1075 0
1079 1075 1076 0
1080 1079 1076 0
1081 1080 1076 0
1076 1077 1081 0
1004 1082 1078 0
1006 1082 1004 0
1083 1007 1084 0
1084 1007 1008 0
1084 1009 1085 0
1008 1009 1084 0
1086 1085 1009 0
1079 1086 1009 0
1005 1079 1009 0
1079 1080 1086 0
1089 1087 1088 0
1082 1006 1010 0
1082 1010 1087 0
1082 1087 1089 0
1011 1083 1090 0
1007 1083 1011 0
1013 1091 1088 0
1014 1013 1088 0
1087 1014 1088 0
1087 1010 1014 0
1092 1015 1016 0
1093 1092 1017 0
1017 1092 1016 0
1011 1090 1094 0
1017 1011 1094 0
1093 1017 1094 0
1013 1095 1091 0
1019 1095 1013 0
1020 1015 1096 0
1096 1015 1092 0
1096 1092 1093 0
1097 1096 1093 0
1098 1097 1093 0
1093 1094 1098 0
1019 1099 1095 0
1022 1099 1019 0
1100 1023 1024 0
1101 1100 1025 0
1025 1100 1024 0
1102 1096 1103 0
1102 1101 1096 0
1101 1020 1096 0
1025 1020 1101 0
1096 1097 1103 0
1022 1104 1099 0
1026 1104 1022 0
1105 1027 1023 0
1105 1023 1100 0
1105 1100 1106 0
1100 1107 1106 0
1101 1107 1100 0
1101 1102 1107 0
1026 1108 1104 0
1028 1108 1026 0
1029 1105 1109 0
1027 1105 1029 0
1028 1110 1108 0
1030 1110 1028 0
1031 1109 1111 0
1029 1109 1031 0
1030 1112 1110 0
1032 1112 1030 0
1033 1111 1113 0
1031 1111 1033 0
1032 1114 1112 0
1034 1114 1032 0
1115 1035 1036 0
1033 1113 1116 0
1036 1033 1116 0
1115 1036 1116 0
1034 1117 1114 0
1037 1117 1034 0
1039 1035 1118 0
1118 1035 1115 0
1116 1118 1115 0
1119 1118 1116 0
1041 1040 1120 0
1037 1122 1117 0
1037 1121 1122 0
1041 1121 1037 0
1120 1121 1041 0
1043 1123 1122 0
1043 1122 1121 0
1043 1121 1042 0
1124 1123 1043 0
1118 1124 1043 0
1039 1118 1043 0
1118 1119 1124 0
1120 1040 1044 0
1044 1121 1120 0
1045 1121 1044 0
1045 1042 1121 0
1047 1046 1125 0
1048 1125 1126 0
1047 1125 1048 0
1048 1126 1050 0
1046 1051 1127 0
1125 1046 1127 0
1128 1125 1127 0
1128 1129 1125 0
1125 1129 1126 0
1129 1130 1052 0
1129 1052 1050 0
1129 1050 1126 0
1131 1052 1130 0
1053 1052 1131 0
1133 1054 1132 0
1055 1054 1133 0
1055 1133 1051 0
1051 1133 1127 0
1056 1131 1134 0
1053 1131 1056 0
1136 1058 1135 0
1059 1058 1136 0
1059 1136 1054 0
1054 1136 1132 0
1060 1056 1134 0
1060 1134 1138 0
1060 1138 1137 0
1139 1137 1138 0
1062 1061 1140 0
1142 1063 1062 0
1141 1142 1062 0
1140 1141 1062 0
1063 1142 1058 0
1058 1142 1135 0
1064 1060 1143 0
1143 1060 1137 0
1139 1143 1137 0
1144 1143 1139 0
1066 1065 1145 0
1140 1146 1147 0
1140 1061 1146 0
1061 1145 1146 0
1066 1145 1061 0
1147 1141 1140 0
1068 1064 1143 0
1144 1148 1069 0
1143 1144 1069 0
1068 1143 1069 0
1065 1070 1149 0
1145 1065 1149 0
1150 1145 1149 0
1150 1146 1145 0
1072 1148 1151 0
1069 1148 1072 0
1153 1073 1152 0
1074 1073 1153 0
1074 1153 1070 0
1070 1153 1149 0
1077 1151 1154 0
1072 1151 1077 0
1073 1155 1152 0
1078 1155 1073 0
1156 1080 1157 0
1157 1080 1081 0
1077 1157 1081 0
1154 1157 1077 0
1078 1158 1155 0
1082 1158 1078 0
1159 1083 1084 0
1084 1085 1161 0
1084 1161 1160 0
1084 1160 1159 0
1161 1086 1162 0
1085 1086 1161 0
1080 1162 1086 0
1156 1162 1080 0
1164 1088 1163 0
1089 1088 1164 0
1089 1164 1082 0
1082 1164 1158 0
1090 1083 1165 0
1165 1083 1159 0
1160 1165 1159 0
1166 1165 1160 0
1088 1167 1163 0
1091 1167 1088 0
1168 1094 1090 0
1168 1090 1165 0
1168 1165 1169 0
1165 1166 1169 0
1091 1170 1167 0
1095 1170 1091 0
1171 1097 1098 0
1094 1168 1172 0
1098 1094 1172 0
1171 1098 1172 0
1095 1173 1170 0
1099 1173 1095 0
1174 1102 1175 0
1175 1102 1103 0
1176 1175 1103 0
1171 1176 1103 0
1097 1171 1103 0
1171 1172 1176 0
1099 1177 1173 0
1104 1177 1099 0
1178 1105 1179 0
1179 1105 1106 0
1179 1107 1180 0
1106 1107 1179 0
1102 1180 1107 0
1174 1180 1102 0
1104 1181 1177 0
1108 1181 1104 0
1109 1178 1182 0
1105 1178 1109 0
1108 1183 1181 0
1110 1183 1108 0
1111 1182 1184 0
1109 1182 1111 0
1110 1185 1183 0
1112 1185 1110 0
1113 1184 1186 0
1111 1184 1113 0
1112 1187 1185 0
1114 1187 1112 0
1116 1186 1188 0
1113 1186 1116 0
1114 1189 1187 0
1117 1189 1114 0
1119 1188 1190 0
1116 1188 1119 0
1192 1189 1117 0
1191 1192 1117 0
1122 1191 1117 0
1193 1191 1123 0
1123 1191 1122 0
1194 1193 1124 0
1124 1193 1123 0
1119 1190 1195 0
1124 1119 1195 0
1194 1124 1195 0
1198 1196 1197 0
1191 1199 1196 0
1192 1191 1196 0
1198 1192 1196 0
1200 1191 1193 0
1199 1191 1200 0
1200 1193 1194 0
1201 1200 1194 0
1202 1201 1194 0
1194 1195 1202 0
1196 1204 1197 0
1203 1204 1196 0
1205 1196 1199 0
1203 1196 1205 0
1205 1199 1200 0
1206 1205 1200 0
1207 1206 1200 0
1200 1201 1207 0
1204 1203 1208 0
1203 1205 1209 0
1208 1203 1209 0
1210 1208 1209 0
1206 1209 1205 0
1211 1209 1206 0
1210 1209 1212 0
1209 1211 1212 0
1128 1127 1213 0
1129 1213 1214 0
1128 1213 1129 0
1130 1214 1215 0
1129 1214 1130 0
1130 1215 1131 0
1133 1132 1216 0
1213 1217 1218 0
1213 1127 1217 0
1127 1216 1217 0
1133 1216 1127 0
1218 1219 1213 0
1213 1219 1214 0
1219 1220 1214 0
1214 1220 1215 0
1221 1134 1131 0
1220 1221 1131 0
1215 1220 1131 0
1223 1135 1222 0
1136 1135 1223 0
1136 1223 1224 0
1136 1224 1216 0
1136 1216 1132 0
1224 1217 1216 0
1225 1138 1221 0
1221 1138 1134 0
1226 1138 1225 0
1139 1138 1226 0
1228 1141 1227 0
1142 1141 1228 0
1142 1228 1135 0
1135 1228 1222 0
1144 1226 1229 0
1139 1226 1144 0
1231 1146 1230 0
1147 1146 1231 0
1147 1231 1141 0
1141 1231 1227 0
1148 1229 1232 0
1144 1229 1148 0
1234 1149 1233 0
1150 1149 1234 0
1150 1234 1146 0
1146 1234 1230 0
1151 1232 1235 0
1148 1232 1151 0
1237 1152 1236 0
1153 1152 1237 0
1153 1237 1149 0
1149 1237 1233 0
1154 1235 1238 0
1151 1235 1154 0
1152 1239 1236 0
1155 1239 1152 0
1240 1156 1157 0
1154 1238 1241 0
1157 1154 1241 0
1240 1157 1241 0
1155 1242 1239 0
1158 1242 1155 0
1243 1160 1161 0
1161 1162 1245 0
1161 1245 1244 0
1161 1244 1243 0
1246 1245 1162 0
1240 1246 1162 0
1156 1240 1162 0
1240 1241 1246 0
1248 1163 1247 0
1164 1163 1248 0
1164 1248 1158 0
1158 1248 1242 0
1249 1166 1160 0
1249 1160 1243 0
1249 1243 1250 0
1243 1244 1250 0
1163 1251 1247 0
1167 1251 1163 0
1252 1168 1253 0
1253 1168 1169 0
1166 1253 1169 0
1249 1253 1166 0
1167 1254 1251 0
1170 1254 1167 0
1172 1252 1255 0
1168 1252 1172 0
1170 1256 1254 0
1173 1256 1170 0
1257 1174 1175 0
1258 1257 1176 0
1176 1257 1175 0
1172 1255 1259 0
1176 1172 1259 0
1258 1176 1259 0
1173 1260 1256 0
1177 1260 1173 0
1261 1178 1179 0
1262 1261 1180 0
1180 1261 1179 0
1263 1257 1264 0
1263 1262 1257 0
1262 1174 1257 0
1180 1174 1262 0
1257 1265 1264 0
1258 1265 1257 0
1258 1259 1265 0
1177 1266 1260 0
1181 1266 1177 0
1182 1178 1267 0
1267 1178 1261 0
1268 1261 1262 0
1267 1261 1268 0
1263 1268 1262 0
1269 1268 1263 0
1181 1270 1266 0
1183 1270 1181 0
1271 1184 1182 0
1271 1182 1267 0
1271 1267 1272 0
1267 1273 1272 0
1268 1273 1267 0
1268 1269 1273 0
1183 1274 1270 0
1185 1274 1183 0
1186 1271 1275 0
1184 1271 1186 0
1185 1276 1274 0
1187 1276 1185 0
1188 1275 1277 0
1186 1275 1188 0
1187 1278 1276 0
1189 1278 1187 0
1190 1277 1279 0
1188 1277 1190 0
1282 1280 1281 0
1278 1189 1192 0
1278 1192 1280 0
1278 1280 1282 0
1195 1279 1283 0
1190 1279 1195 0
1197 1284 1281 0
1198 1197 1281 0
1280 1198 1281 0
1280 1192 1198 0
1285 1201 1286 0
1286 1201 1202 0
1195 1286 1202 0
1283 1286 1195 0
1197 1287 1284 0
1204 1287 1197 0
1288 1206 1289 0
1289 1206 1207 0
1201 1289 1207 0
1285 1289 1201 0
1291 1287 1204 0
1290 1291 1204 0
1208 1290 1204 0
1210 1290 1208 0
1211 1288 1292 0
1206 1288 1211 0
1290 1294 1291 0
1293 1294 1290 0
1295 1293 1290 0
1295 1290 1210 0
1295 1210 1212 0
1211 1292 1296 0
1212 1211 1296 0
1295 1212 1296 0
1294 1293 1297 0
1293 1298 1297 0
1295 1298 1293 0
1295 1296 1298 0
1300 1217 1299 0
1218 1217 1300 0
1301 1218 1300 0
1219 1218 1301 0
1302 1219 1301 0
1220 1219 1302 0
1303 1220 1302 0
1221 1220 1303 0
1223 1222 1304 0
1306 1224 1223 0
1305 1306 1223 0
1304 1305 1223 0
1224 1306 1217 0
1217 1306 1299 0
1307 1225 1303 0
1303 1225 1221 0
1308 1225 1307 0
1226 1225 1308 0
1310 1227 1309 0
1228 1227 1310 0
1228 1310 1311 0
1228 1311 1304 0
1228 1304 1222 0
1311 1305 1304 0
1229 1308 1312 0
1226 1308 1229 0
1314 1230 1313 0
1231 1230 1314 0
1231 1314 1227 0
1227 1314 1309 0
1232 1312 1315 0
1229 1312 1232 0
1317 1233 1316 0
1234 1233 1317 0
1234 1317 1230 0
1230 1317 1313 0
1235 1315 1318 0
1232 1315 1235 0
1237 1236 1319 0
1320 1316 1233 0
1320 1233 1237 0
1320 1237 1319 0
1238 1318 1321 0
1235 1318 1238 0
1236 1239 1322 0
1319 1236 1322 0
1323 1319 1322 0
1323 1320 1319 0
1325 1324 1326 0
1241 1238 1321 0
1324 1241 1321 0
1326 1324 1321 0
1239 1327 1322 0
1242 1327 1239 0
1328 1244 1245 0
1325 1329 1324 0
1329 1246 1324 0
1329 1328 1246 0
1328 1245 1246 0
1246 1241 1324 0
1331 1247 1330 0
1248 1247 1331 0
1248 1331 1242 0
1242 1331 1327 0
1332 1249 1333 0
1333 1249 1250 0
1334 1333 1250 0
1328 1334 1250 0
1244 1328 1250 0
1328 1329 1334 0
1247 1335 1330 0
1251 1335 1247 0
1336 1252 1337 0
1337 1252 1253 0
1249 1337 1253 0
1332 1337 1249 0
1251 1338 1335 0
1254 1338 1251 0
1255 1336 1339 0
1252 1336 1255 0
1254 1340 1338 0
1256 1340 1254 0
1342 1341 1343 0
1259 1255 1339 0
1341 1259 1339 0
1343 1341 1339 0
1256 1344 1340 0
1260 1344 1256 0
1345 1263 1346 0
1346 1263 1264 0
1346 1264 1265 0
1342 1346 1265 0
1341 1342 1265 0
1265 1259 1341 0
1349 1347 1348 0
1344 1260 1266 0
1344 1266 1347 0
1344 1347 1349 0
1269 1345 1350 0
1263 1345 1269 0
1347 1352 1348 0
1351 1352 1347 0
1266 1270 1347 0
1347 1270 1351 0
1353 1271 1354 0
1354 1271 1272 0
1354 1273 1355 0
1272 1273 1354 0
1269 1355 1273 0
1350 1355 1269 0
1351 1357 1352 0
1356 1357 1351 0
1270 1274 1351 0
1351 1274 1356 0
1275 1353 1358 0
1271 1353 1275 0
1356 1360 1357 0
1359 1360 1356 0
1274 1276 1356 0
1356 1276 1359 0
1277 1358 1361 0
1275 1358 1277 0
1359 1363 1360 0
1362 1363 1359 0
1276 1278 1359 0
1359 1278 1362 0
1279 1361 1364 0
1277 1361 1279 0
1281 1365 1363 0
1282 1281 1363 0
1362 1282 1363 0
1362 1278 1282 0
1283 1364 1366 0
1279 1364 1283 0
1281 1367 1365 0
1284 1367 1281 0
1368 1285 1369 0
1369 1285 1286 0
1283 1369 1286 0
1366 1369 1283 0
1284 1370 1367 0
1287 1370 1284 0
1371 1288 1289 0
1285 1368 1372 0
1289 1285 1372 0
1371 1289 1372 0
1287 1373 1370 0
1291 1373 1287 0
1292 1288 1374 0
1374 1288 1371 0
1372 1374 1371 0
1375 1374 1372 0
1373 1291 1294 0
1377 1373 1294 0
1376 1377 1294 0
1377 1376 1378 0
1296 1292 1379 0
1379 1292 1374 0
1375 1379 1374 0
1380 1379 1375 0
1376 1294 1297 0
1297 1298 1381 0
1376 1297 1381 0
1378 1376 1381 0
1381 1298 1383 0
1298 1382 1383 0
1298 1296 1382 0
1296 1379 1382 0
1384 1382 1379 0
1385 1384 1379 0
1380 1385 1379 0
1386 1384 1385 0
1382 1388 1383 0
1387 1388 1382 0
1389 1382 1384 0
1387 1382 1389 0
1386 1389 1384 0
1390 1389 1386 0
1388 1387 1391 0
1387 1392 1391 0
1389 1392 1387 0
1389 1390 1392 0
1394 1299 1393 0
1300 1299 1394 0
1395 1300 1394 0
1301 1300 1395 0
1396 1301 1395 0
1302 1301 1396 0
1397 1302 1396 0
1303 1302 1397 0
1399 1305 1398 0
1306 1305 1399 0
1306 1399 1299 0
1299 1399 1393 0
1400 1307 1397 0
1397 1307 1303 0
1401 1307 1400 0
1308 1307 1401 0
1310 1309 1402 0
1404 1311 1310 0
1403 1404 1310 0
1402 1403 1310 0
1311 1404 1305 0
1305 1404 1398 0
1312 1401 1405 0
1308 1401 1312 0
1314 1313 1406 0
1402 1407 1408 0
1402 1309 1407 0
1309 1406 1407 0
1314 1406 1309 0
1408 1403 1402 0
1315 1405 1409 0
1312 1405 1315 0
1317 1316 1410 0
1406 1411 1412 0
1406 1313 1411 0
1313 1410 1411 0
1317 1410 1313 0
1412 1407 1406 0
1318 1409 1413 0
1315 1409 1318 0
1316 1320 1414 0
1410 1316 1414 0
1415 1410 1414 0
1415 1411 1410 0
1321 1413 1416 0
1318 1413 1321 0
1418 1322 1417 0
1323 1322 1418 0
1323 1418 1320 0
1320 1418 1414 0
1419 1325 1420 0
1420 1325 1326 0
