#!ascii version of 
1336 2668
-0.500000  -25.000000  50.000000  0
4.500000  -25.000000  49.000000  0
-0.500000  -25.000000  49.000000  0
4.500000  -25.000000  48.000000  0
-0.500000  -25.000000  48.000000  0
5.000000  -25.500000  47.000000  0
4.500000  -25.000000  47.000000  0
0.000000  -25.500000  47.000000  0
-0.500000  -25.000000  47.000000  0
5.000000  -25.500000  46.000000  0
4.500000  -25.000000  46.000000  0
0.000000  -25.500000  46.000000  0
-0.500000  -25.000000  46.000000  0
5.500000  -25.000000  45.000000  0
5.000000  -25.000000  45.500000  0
0.500000  -25.000000  45.000000  0
0.000000  -25.000000  45.500000  0
5.500000  -25.000000  44.000000  0
0.500000  -25.000000  44.000000  0
5.500000  -25.000000  43.000000  0
0.500000  -25.000000  43.000000  0
5.500000  -25.000000  42.000000  0
0.500000  -25.000000  42.000000  0
5.500000  -25.000000  41.000000  0
0.500000  -25.000000  41.000000  0
5.500000  -25.000000  40.000000  0
0.500000  -25.000000  40.000000  0
5.500000  -25.000000  39.000000  0
0.500000  -25.000000  39.000000  0
5.500000  -25.000000  38.000000  0
0.500000  -25.000000  38.000000  0
5.500000  -25.000000  37.000000  0
0.500000  -25.000000  37.000000  0
5.500000  -25.000000  36.000000  0
0.500000  -25.000000  36.000000  0
5.500000  -25.000000  35.000000  0
0.500000  -25.000000  35.000000  0
5.500000  -25.000000  34.000000  0
0.500000  -25.000000  34.000000  0
5.500000  -25.000000  33.000000  0
0.500000  -25.000000  33.000000  0
5.500000  -25.000000  32.000000  0
0.500000  -25.000000  32.000000  0
5.500000  -25.000000  31.000000  0
0.500000  -25.000000  31.000000  0
5.500000  -25.000000  30.000000  0
0.500000  -25.000000  30.000000  0
5.000000  -25.000000  29.500000  0
4.000000  -25.500000  29.000000  0
4.500000  -25.000000  29.000000  0
0.500000  -25.000000  29.000000  0
4.000000  -25.000000  28.500000  0
3.500000  -25.000000  28.000000  0
0.500000  -25.000000  28.000000  0
3.000000  -25.000000  27.500000  0
2.000000  -25.000000  27.500000  0
1.000000  -25.000000  27.500000  0
4.500000  -24.000000  58.000000  0
4.000000  -24.000000  58.500000  0
3.000000  -24.000000  58.500000  0
2.000000  -24.500000  58.000000  0
2.000000  -24.000000  58.500000  0
1.000000  -24.500000  58.000000  0
1.000000  -24.000000  58.500000  0
0.000000  -24.500000  58.000000  0
0.000000  -24.000000  58.500000  0
-0.500000  -24.000000  58.000000  0
4.500000  -24.000000  57.000000  0
2.000000  -24.500000  57.000000  0
1.000000  -24.500000  57.000000  0
0.000000  -24.500000  57.000000  0
-0.500000  -24.000000  57.000000  0
4.500000  -24.000000  56.000000  0
-0.500000  -24.000000  56.000000  0
4.500000  -24.000000  55.000000  0
-0.500000  -24.000000  55.000000  0
4.500000  -24.000000  54.000000  0
-0.500000  -24.000000  54.000000  0
4.500000  -24.000000  53.000000  0
-0.500000  -24.000000  53.000000  0
4.500000  -24.000000  52.000000  0
-0.500000  -24.000000  52.000000  0
4.500000  -24.000000  51.000000  0
-0.500000  -24.000000  51.000000  0
4.500000  -24.000000  50.000000  0
-0.500000  -24.000000  50.000000  0
4.500000  -24.000000  49.000000  0
-0.500000  -24.000000  49.000000  0
4.500000  -24.000000  48.000000  0
-0.500000  -24.000000  48.000000  0
4.500000  -24.000000  47.000000  0
-0.500000  -24.000000  47.000000  0
4.500000  -24.000000  46.000000  0
-0.500000  -24.000000  46.000000  0
5.000000  -24.500000  45.000000  0
4.500000  -24.000000  45.000000  0
0.000000  -24.500000  45.000000  0
-0.500000  -24.000000  45.000000  0
5.500000  -24.000000  44.000000  0
5.000000  -24.000000  44.500000  0
0.500000  -24.000000  44.000000  0
0.000000  -24.000000  44.500000  0
5.500000  -24.000000  43.000000  0
0.500000  -24.000000  43.000000  0
5.500000  -24.000000  42.000000  0
0.500000  -24.000000  42.000000  0
5.500000  -24.000000  41.000000  0
0.500000  -24.000000  41.000000  0
5.500000  -24.000000  40.000000  0
0.500000  -24.000000  40.000000  0
5.500000  -24.000000  39.000000  0
0.500000  -24.000000  39.000000  0
5.500000  -24.000000  38.000000  0
0.500000  -24.000000  38.000000  0
5.500000  -24.000000  37.000000  0
0.500000  -24.000000  37.000000  0
5.000000  -24.500000  36.000000  0
5.000000  -24.000000  36.500000  0
4.000000  -24.500000  36.000000  0
4.000000  -24.000000  36.500000  0
3.000000  -24.500000  36.000000  0
3.000000  -24.000000  36.500000  0
2.000000  -24.500000  36.000000  0
2.000000  -24.000000  36.500000  0
1.000000  -24.500000  36.000000  0
1.000000  -24.000000  36.500000  0
5.000000  -24.500000  35.000000  0
4.000000  -24.500000  35.000000  0
3.000000  -24.500000  35.000000  0
2.000000  -24.500000  35.000000  0
1.000000  -24.500000  35.000000  0
5.000000  -24.500000  34.000000  0
4.000000  -24.500000  34.000000  0
3.000000  -24.500000  34.000000  0
2.000000  -24.500000  34.000000  0
1.000000  -24.500000  34.000000  0
5.000000  -24.500000  33.000000  0
4.000000  -24.500000  33.000000  0
3.000000  -24.500000  33.000000  0
2.000000  -24.500000  33.000000  0
1.000000  -24.500000  33.000000  0
5.000000  -24.500000  32.000000  0
4.000000  -24.500000  32.000000  0
3.000000  -24.500000  32.000000  0
2.000000  -24.500000  32.000000  0
1.000000  -24.500000  32.000000  0
5.000000  -24.500000  31.000000  0
4.000000  -24.500000  31.000000  0
3.000000  -24.500000  31.000000  0
2.000000  -24.500000  31.000000  0
1.000000  -24.500000  31.000000  0
5.000000  -24.500000  30.000000  0
4.000000  -24.500000  30.000000  0
3.000000  -24.500000  30.000000  0
2.000000  -24.500000  30.000000  0
1.000000  -24.500000  30.000000  0
4.000000  -24.500000  29.000000  0
3.000000  -24.500000  29.000000  0
2.000000  -24.500000  29.000000  0
1.000000  -24.500000  29.000000  0
3.000000  -24.500000  28.000000  0
2.000000  -24.500000  28.000000  0
1.000000  -24.500000  28.000000  0
4.000000  -23.500000  58.000000  0
3.000000  -23.500000  58.000000  0
2.500000  -23.000000  58.000000  0
2.000000  -23.000000  58.500000  0
1.000000  -23.000000  58.500000  0
0.000000  -23.000000  58.500000  0
-0.500000  -23.000000  58.000000  0
4.000000  -23.500000  57.000000  0
3.500000  -23.000000  57.000000  0
3.000000  -23.000000  57.500000  0
-0.500000  -23.000000  57.000000  0
4.500000  -23.000000  56.000000  0
4.000000  -23.000000  56.500000  0
-0.500000  -23.000000  56.000000  0
4.500000  -23.000000  55.000000  0
-0.500000  -23.000000  55.000000  0
4.500000  -23.000000  54.000000  0
-0.500000  -23.000000  54.000000  0
4.500000  -23.000000  53.000000  0
-0.500000  -23.000000  53.000000  0
4.500000  -23.000000  52.000000  0
-0.500000  -23.000000  52.000000  0
4.500000  -23.000000  51.000000  0
-0.500000  -23.000000  51.000000  0
4.500000  -23.000000  50.000000  0
-0.500000  -23.000000  50.000000  0
4.500000  -23.000000  49.000000  0
-0.500000  -23.000000  49.000000  0
4.500000  -23.000000  48.000000  0
-0.500000  -23.000000  48.000000  0
4.500000  -23.000000  47.000000  0
-0.500000  -23.000000  47.000000  0
4.000000  -23.500000  46.000000  0
4.000000  -23.000000  46.500000  0
3.000000  -23.500000  46.000000  0
3.000000  -23.000000  46.500000  0
2.000000  -23.500000  46.000000  0
2.000000  -23.000000  46.500000  0
1.000000  -23.500000  46.000000  0
1.000000  -23.000000  46.500000  0
0.000000  -23.500000  46.000000  0
0.000000  -23.000000  46.500000  0
4.000000  -23.500000  45.000000  0
3.000000  -23.500000  45.000000  0
2.000000  -23.500000  45.000000  0
1.000000  -23.500000  45.000000  0
0.000000  -23.500000  45.000000  0
5.000000  -23.500000  44.000000  0
4.000000  -23.500000  44.000000  0
3.000000  -23.500000  44.000000  0
2.000000  -23.500000  44.000000  0
1.000000  -23.500000  44.000000  0
5.000000  -23.500000  43.000000  0
4.000000  -23.500000  43.000000  0
3.000000  -23.500000  43.000000  0
2.000000  -23.500000  43.000000  0
1.000000  -23.500000  43.000000  0
5.000000  -23.500000  42.000000  0
4.000000  -23.500000  42.000000  0
3.000000  -23.500000  42.000000  0
2.000000  -23.500000  42.000000  0
1.000000  -23.500000  42.000000  0
5.000000  -23.500000  41.000000  0
4.000000  -23.500000  41.000000  0
3.000000  -23.500000  41.000000  0
2.000000  -23.500000  41.000000  0
1.000000  -23.500000  41.000000  0
5.000000  -23.500000  40.000000  0
4.000000  -23.500000  40.000000  0
3.000000  -23.500000  40.000000  0
2.000000  -23.500000  40.000000  0
1.000000  -23.500000  40.000000  0
5.000000  -23.500000  39.000000  0
4.000000  -23.500000  39.000000  0
3.000000  -23.500000  39.000000  0
2.000000  -23.500000  39.000000  0
1.000000  -23.500000  39.000000  0
5.000000  -23.500000  38.000000  0
4.000000  -23.500000  38.000000  0
3.000000  -23.500000  38.000000  0
2.000000  -23.500000  38.000000  0
1.000000  -23.500000  38.000000  0
5.000000  -23.500000  37.000000  0
4.000000  -23.500000  37.000000  0
3.000000  -23.500000  37.000000  0
2.000000  -23.500000  37.000000  0
1.000000  -23.500000  37.000000  0
2.000000  -22.500000  58.000000  0
1.000000  -22.500000  58.000000  0
0.500000  -22.000000  58.000000  0
0.000000  -22.000000  58.500000  0
-0.500000  -22.000000  58.000000  0
3.500000  -22.000000  57.000000  0
3.000000  -22.000000  57.500000  0
2.000000  -22.000000  57.500000  0
1.000000  -22.000000  57.500000  0
-0.500000  -22.000000  57.000000  0
4.000000  -22.500000  56.000000  0
3.000000  -22.500000  56.000000  0
3.000000  -22.000000  56.500000  0
2.000000  -22.500000  56.000000  0
2.000000  -22.000000  56.500000  0
1.000000  -22.500000  56.000000  0
1.000000  -22.000000  56.500000  0
0.000000  -22.500000  56.000000  0
0.000000  -22.000000  56.500000  0
4.000000  -22.500000  55.000000  0
3.000000  -22.500000  55.000000  0
2.000000  -22.500000  55.000000  0
1.000000  -22.500000  55.000000  0
0.000000  -22.500000  55.000000  0
4.000000  -22.500000  54.000000  0
3.000000  -22.500000  54.000000  0
2.000000  -22.500000  54.000000  0
1.000000  -22.500000  54.000000  0
0.000000  -22.500000  54.000000  0
4.000000  -22.500000  53.000000  0
3.000000  -22.500000  53.000000  0
2.000000  -22.500000  53.000000  0
1.000000  -22.500000  53.000000  0
0.000000  -22.500000  53.000000  0
4.000000  -22.500000  52.000000  0
3.000000  -22.500000  52.000000  0
2.000000  -22.500000  52.000000  0
1.000000  -22.500000  52.000000  0
0.000000  -22.500000  52.000000  0
4.000000  -22.500000  51.000000  0
3.000000  -22.500000  51.000000  0
2.000000  -22.500000  51.000000  0
1.000000  -22.500000  51.000000  0
0.000000  -22.500000  51.000000  0
4.000000  -22.500000  50.000000  0
3.000000  -22.500000  50.000000  0
2.000000  -22.500000  50.000000  0
1.000000  -22.500000  50.000000  0
0.000000  -22.500000  50.000000  0
4.000000  -22.500000  49.000000  0
3.000000  -22.500000  49.000000  0
2.000000  -22.500000  49.000000  0
1.000000  -22.500000  49.000000  0
0.000000  -22.500000  49.000000  0
4.000000  -22.500000  48.000000  0
3.000000  -22.500000  48.000000  0
2.000000  -22.500000  48.000000  0
1.000000  -22.500000  48.000000  0
0.000000  -22.500000  48.000000  0
4.000000  -22.500000  47.000000  0
3.000000  -22.500000  47.000000  0
2.000000  -22.500000  47.000000  0
1.000000  -22.500000  47.000000  0
0.000000  -22.500000  47.000000  0
0.000000  -21.500000  58.000000  0
3.000000  -21.500000  57.000000  0
2.000000  -21.500000  57.000000  0
1.000000  -21.500000  57.000000  0
0.000000  -21.500000  57.000000  0
2 0 1 0
3 0 2 0
0 5 1 0
4 5 0 0
6 4 0 0
7 6 0 0
3 7 0 0
8 6 7 0
4 10 5 0
9 10 4 0
11 4 6 0
9 4 11 0
12 11 6 0
13 12 6 0
8 13 6 0
13 14 12 0
15 14 13 0
16 14 15 0
9 18 10 0
17 18 9 0
19 9 11 0
17 9 19 0
20 11 12 0
19 11 20 0
20 12 14 0
21 20 14 0
22 21 14 0
14 16 22 0
17 24 18 0
23 24 17 0
25 17 19 0
23 17 25 0
26 19 20 0
25 19 26 0
21 26 20 0
27 26 21 0
23 29 24 0
28 29 23 0
30 23 25 0
28 23 30 0
31 25 26 0
30 25 31 0
27 31 26 0
32 31 27 0
28 34 29 0
33 34 28 0
35 28 30 0
33 28 35 0
36 30 31 0
35 30 36 0
32 36 31 0
37 36 32 0
34 33 38 0
33 39 38 0
35 39 33 0
35 40 39 0
36 40 35 0
36 37 40 0
43 41 42 0
44 41 43 0
41 46 42 0
45 46 41 0
44 45 41 0
47 45 44 0
46 45 48 0
45 47 48 0
51 49 50 0
52 49 51 0
49 54 50 0
53 54 49 0
52 53 49 0
55 53 52 0
1 56 54 0
2 1 54 0
53 2 54 0
55 57 3 0
53 55 3 0
2 53 3 0
1 58 56 0
5 58 1 0
59 7 57 0
57 7 3 0
7 59 61 0
8 7 61 0
60 8 61 0
62 60 61 0
5 63 58 0
10 63 5 0
13 8 60 0
64 15 13 0
64 13 60 0
64 60 62 0
15 64 66 0
16 15 66 0
65 16 66 0
67 65 66 0
10 68 63 0
18 68 10 0
69 21 22 0
65 70 69 0
65 69 22 0
65 22 16 0
67 70 65 0
71 70 67 0
18 72 68 0
24 72 18 0
27 21 73 0
73 21 69 0
74 69 70 0
73 69 74 0
71 74 70 0
75 74 71 0
24 76 72 0
29 76 24 0
32 27 77 0
77 27 73 0
78 73 74 0
77 73 78 0
75 78 74 0
79 78 75 0
29 80 76 0
34 80 29 0
37 32 81 0
81 32 77 0
82 77 78 0
81 77 82 0
79 82 78 0
83 82 79 0
85 80 34 0
84 85 34 0
38 84 34 0
86 84 39 0
39 84 38 0
87 86 40 0
40 86 39 0
81 88 87 0
81 87 40 0
81 40 37 0
89 81 82 0
88 81 89 0
83 89 82 0
90 89 83 0
84 92 85 0
91 92 84 0
93 84 86 0
91 84 93 0
94 86 87 0
93 86 94 0
95 87 88 0
94 87 95 0
96 88 89 0
95 88 96 0
90 96 89 0
97 96 90 0
91 99 92 0
98 99 91 0
100 91 93 0
98 91 100 0
101 93 94 0
100 93 101 0
102 94 95 0
101 94 102 0
103 95 96 0
102 95 103 0
97 103 96 0
104 103 97 0
98 106 99 0
105 106 98 0
107 98 100 0
105 98 107 0
108 100 101 0
107 100 108 0
109 101 102 0
108 101 109 0
109 102 103 0
109 103 43 0
109 43 42 0
104 110 44 0
103 104 44 0
43 103 44 0
105 112 106 0
111 112 105 0
113 105 107 0
111 105 113 0
114 107 108 0
113 107 114 0
115 108 109 0
114 108 115 0
42 46 109 0
109 46 115 0
47 110 116 0
44 110 47 0
111 118 112 0
117 118 111 0
119 111 113 0
117 111 119 0
120 113 114 0
119 113 120 0
121 114 115 0
120 114 121 0
122 121 115 0
122 115 46 0
122 46 48 0
47 116 123 0
48 47 123 0
122 48 123 0
118 117 124 0
117 125 124 0
119 125 117 0
119 126 125 0
120 126 119 0
120 127 126 0
121 127 120 0
121 122 128 0
127 121 128 0
129 127 128 0
123 128 122 0
130 128 123 0
129 128 131 0
128 130 131 0
133 50 132 0
51 50 133 0
134 51 133 0
52 51 134 0
50 135 132 0
54 135 50 0
55 52 134 0
55 134 137 0
55 137 136 0
138 136 137 0
54 139 135 0
56 139 54 0
57 55 140 0
140 55 136 0
141 140 136 0
142 141 136 0
138 142 136 0
143 141 142 0
56 144 139 0
58 144 56 0
59 57 140 0
140 141 59 0
59 141 61 0
143 145 62 0
141 143 62 0
61 141 62 0
58 146 144 0
63 146 58 0
147 64 145 0
145 64 62 0
148 64 147 0
66 64 148 0
149 66 148 0
67 66 149 0
63 150 146 0
68 150 63 0
71 149 151 0
67 149 71 0
68 152 150 0
72 152 68 0
75 151 153 0
71 151 75 0
72 154 152 0
76 154 72 0
79 153 155 0
75 153 79 0
76 156 154 0
80 156 76 0
83 155 157 0
79 155 83 0
80 158 156 0
85 158 80 0
90 157 159 0
83 157 90 0
85 160 158 0
92 160 85 0
97 159 161 0
90 159 97 0
92 162 160 0
99 162 92 0
104 161 163 0
97 161 104 0
99 164 162 0
106 164 99 0
110 163 165 0
104 163 110 0
106 166 164 0
112 166 106 0
116 165 167 0
110 165 116 0
112 168 166 0
118 168 112 0
123 167 169 0
116 167 123 0
171 168 118 0
170 171 118 0
124 170 118 0
172 170 125 0
125 170 124 0
173 172 126 0
126 172 125 0
174 173 127 0
127 173 126 0
129 174 127 0
130 169 175 0
123 169 130 0
170 177 171 0
176 177 170 0
178 170 172 0
176 170 178 0
179 172 173 0
178 172 179 0
180 173 174 0
179 173 180 0
181 180 174 0
181 174 129 0
181 129 131 0
130 175 182 0
131 130 182 0
181 131 182 0
177 176 183 0
176 184 183 0
178 184 176 0
178 185 184 0
179 185 178 0
179 186 185 0
180 186 179 0
180 181 187 0
186 180 187 0
188 186 187 0
182 187 181 0
189 187 182 0
188 187 190 0
187 189 190 0
192 132 191 0
133 132 192 0
193 133 192 0
134 133 193 0
132 194 191 0
135 194 132 0
195 137 193 0
193 137 134 0
196 137 195 0
138 137 196 0
135 197 194 0
139 197 135 0
198 142 196 0
196 142 138 0
142 198 200 0
143 142 200 0
199 143 200 0
200 201 199 0
202 201 200 0
203 201 202 0
139 204 197 0
144 204 139 0
145 143 205 0
205 143 199 0
206 199 201 0
205 199 206 0
203 206 201 0
207 206 203 0
144 208 204 0
146 208 144 0
147 145 205 0
205 206 147 0
147 206 148 0
207 209 149 0
206 207 149 0
148 206 149 0
146 210 208 0
150 210 146 0
151 209 211 0
149 209 151 0
150 212 210 0
152 212 150 0
153 211 213 0
151 211 153 0
152 214 212 0
154 214 152 0
155 213 215 0
153 213 155 0
154 216 214 0
156 216 154 0
157 215 217 0
155 215 157 0
156 218 216 0
158 218 156 0
159 217 219 0
157 217 159 0
158 220 218 0
160 220 158 0
161 219 221 0
159 219 161 0
160 222 220 0
162 222 160 0
163 221 223 0
161 221 163 0
162 224 222 0
164 224 162 0
165 223 225 0
163 223 165 0
164 226 224 0
166 226 164 0
167 225 227 0
165 225 167 0
166 228 226 0
168 228 166 0
169 227 229 0
167 227 169 0
168 230 228 0
171 230 168 0
175 229 231 0
169 229 175 0
171 232 230 0
177 232 171 0
182 231 233 0
175 231 182 0
235 232 177 0
234 235 177 0
183 234 177 0
236 234 184 0
184 234 183 0
237 236 185 0
185 236 184 0
238 237 186 0
186 237 185 0
188 238 186 0
189 233 239 0
182 233 189 0
234 241 235 0
240 241 234 0
240 234 236 0
242 240 236 0
243 242 236 0
236 244 243 0
237 244 236 0
237 245 244 0
238 245 237 0
245 246 247 0
245 238 246 0
238 190 246 0
188 190 238 0
189 239 248 0
190 189 248 0
246 190 248 0
241 240 249 0
240 242 249 0
246 251 247 0
250 251 246 0
248 250 246 0
252 250 248 0
251 250 253 0
250 252 253 0
256 254 255 0
257 254 256 0
260 258 259 0
260 261 258 0
262 261 260 0
262 263 261 0
264 263 262 0
264 265 263 0
266 265 264 0
254 267 265 0
255 254 265 0
266 255 265 0
257 267 254 0
268 267 257 0
191 269 259 0
192 191 259 0
258 192 259 0
258 261 270 0
258 270 193 0
258 193 192 0
271 261 263 0
270 261 271 0
272 263 265 0
271 263 272 0
273 265 267 0
272 265 273 0
268 273 267 0
274 273 268 0
191 275 269 0
194 275 191 0
195 193 270 0
270 271 276 0
270 276 196 0
270 196 195 0
277 271 272 0
276 271 277 0
278 272 273 0
277 272 278 0
274 278 273 0
279 278 274 0
194 280 275 0
197 280 194 0
198 196 276 0
276 277 198 0
198 277 200 0
277 278 200 0
200 278 202 0
279 281 203 0
278 279 203 0
202 278 203 0
197 282 280 0
204 282 197 0
207 281 283 0
203 281 207 0
204 284 282 0
208 284 204 0
209 283 285 0
207 283 209 0
208 286 284 0
210 286 208 0
211 285 287 0
209 285 211 0
210 288 286 0
212 288 210 0
213 287 289 0
211 287 213 0
212 290 288 0
214 290 212 0
215 289 291 0
213 289 215 0
214 292 290 0
216 292 214 0
217 291 293 0
215 291 217 0
216 294 292 0
218 294 216 0
219 293 295 0
217 293 219 0
218 296 294 0
220 296 218 0
221 295 297 0
219 295 221 0
220 298 296 0
222 298 220 0
223 297 299 0
221 297 223 0
222 300 298 0
224 300 222 0
225 299 301 0
223 299 225 0
224 302 300 0
226 302 224 0
227 301 303 0
225 301 227 0
226 304 302 0
228 304 226 0
229 303 305 0
227 303 229 0
228 306 304 0
230 306 228 0
231 305 307 0
229 305 231 0
230 308 306 0
232 308 230 0
233 307 309 0
231 307 233 0
232 310 308 0
235 310 232 0
239 309 311 0
233 309 239 0
235 312 310 0
241 312 235 0
313 242 243 0
314 313 244 0
244 313 243 0
315 314 245 0
245 314 244 0
247 315 245 0
248 311 316 0
239 311 248 0
312 249 317 0
241 249 312 0
318 317 249 0
313 318 249 0
242 313 249 0
313 319 318 0
314 319 313 0
314 320 319 0
315 320 314 0
247 251 321 0
247 321 320 0
247 320 315 0
252 316 322 0
248 316 252 0
321 253 323 0
251 253 321 0
252 323 253 0
322 323 252 0
326 324 325 0
326 327 324 0
328 327 326 0
328 329 327 0
330 329 328 0
330 331 329 0
332 331 330 0
332 333 256 0
331 332 256 0
255 331 256 0
334 256 333 0
257 256 334 0
259 335 325 0
260 259 325 0
324 260 325 0
324 327 260 0
260 327 262 0
327 329 262 0
262 329 264 0
329 331 264 0
264 331 266 0
331 255 266 0
268 334 336 0
257 334 268 0
259 337 335 0
269 337 259 0
274 336 338 0
268 336 274 0
269 339 337 0
275 339 269 0
279 338 340 0
274 338 279 0
275 341 339 0
280 341 275 0
281 340 342 0
279 340 281 0
280 343 341 0
282 343 280 0
283 342 344 0
281 342 283 0
282 345 343 0
284 345 282 0
285 344 346 0
283 344 285 0
284 347 345 0
286 347 284 0
287 346 348 0
285 346 287 0
286 349 347 0
288 349 286 0
289 348 350 0
287 348 289 0
288 351 349 0
290 351 288 0
291 350 352 0
289 350 291 0
290 353 351 0
292 353 290 0
293 352 354 0
291 352 293 0
292 355 353 0
294 355 292 0
295 354 356 0
293 354 295 0
294 357 355 0
296 357 294 0
297 356 358 0
295 356 297 0
296 359 357 0
298 359 296 0
299 358 360 0
297 358 299 0
298 361 359 0
300 361 298 0
301 360 362 0
299 360 301 0
300 363 361 0
302 363 300 0
303 362 364 0
301 362 303 0
302 365 363 0
304 365 302 0
305 364 366 0
303 364 305 0
304 367 365 0
306 367 304 0
307 366 368 0
305 366 307 0
306 369 367 0
308 369 306 0
309 368 370 0
307 368 309 0
308 371 369 0
310 371 308 0
311 370 372 0
309 370 311 0
310 373 371 0
312 373 310 0
316 372 374 0
311 372 316 0
376 373 312 0
375 376 312 0
317 375 312 0
377 375 318 0
318 375 317 0
378 377 319 0
319 377 318 0
379 378 320 0
320 378 319 0
321 379 320 0
322 374 380 0
316 374 322 0
375 382 376 0
381 382 375 0
383 375 377 0
381 375 383 0
384 377 378 0
383 377 384 0
385 378 379 0
384 378 385 0
379 386 385 0
379 387 386 0
321 387 379 0
323 387 321 0
322 387 323 0
380 387 322 0
382 381 388 0
381 389 388 0
383 389 381 0
383 390 389 0
384 390 383 0
384 391 390 0
385 391 384 0
385 386 391 0
394 392 393 0
395 392 394 0
325 396 393 0
326 325 393 0
392 326 393 0
397 328 326 0
397 326 392 0
397 392 395 0
398 328 397 0
330 328 398 0
399 330 398 0
332 330 399 0
400 332 399 0
333 332 400 0
401 333 400 0
334 333 401 0
325 402 396 0
335 402 325 0
336 401 403 0
334 401 336 0
335 404 402 0
337 404 335 0
338 403 405 0
336 403 338 0
337 406 404 0
339 406 337 0
340 405 407 0
338 405 340 0
339 408 406 0
341 408 339 0
342 407 409 0
340 407 342 0
341 410 408 0
343 410 341 0
344 409 411 0
342 409 344 0
343 412 410 0
345 412 343 0
346 411 413 0
344 411 346 0
345 414 412 0
347 414 345 0
348 413 415 0
346 413 348 0
347 416 414 0
349 416 347 0
350 415 417 0
348 415 350 0
349 418 416 0
351 418 349 0
352 417 419 0
350 417 352 0
351 420 418 0
353 420 351 0
354 419 421 0
352 419 354 0
353 422 420 0
355 422 353 0
356 421 423 0
354 421 356 0
355 424 422 0
357 424 355 0
358 423 425 0
356 423 358 0
357 426 424 0
359 426 357 0
360 425 427 0
358 425 360 0
359 428 426 0
361 428 359 0
362 427 429 0
360 427 362 0
361 430 428 0
363 430 361 0
364 429 431 0
362 429 364 0
363 432 430 0
365 432 363 0
366 431 433 0
364 431 366 0
365 434 432 0
367 434 365 0
368 433 435 0
366 433 368 0
367 436 434 0
369 436 367 0
370 435 437 0
368 435 370 0
369 438 436 0
371 438 369 0
372 437 439 0
370 437 372 0
371 440 438 0
373 440 371 0
374 439 441 0
372 439 374 0
373 442 440 0
376 442 373 0
380 441 443 0
374 441 380 0
376 444 442 0
382 444 376 0
445 386 387 0
380 443 446 0
387 380 446 0
445 387 446 0
444 388 447 0
382 388 444 0
447 388 389 0
447 389 448 0
447 448 449 0
450 448 390 0
390 448 389 0
451 450 391 0
391 450 390 0
452 445 453 0
452 451 445 0
451 386 445 0
391 386 451 0
445 446 453 0
449 448 454 0
448 455 454 0
450 455 448 0
450 456 455 0
451 456 450 0
451 452 456 0
459 457 458 0
460 457 459 0
462 393 461 0
394 393 462 0
463 394 462 0
395 394 463 0
457 465 458 0
464 465 457 0
460 464 457 0
466 464 460 0
393 467 461 0
396 467 393 0
468 397 463 0
463 397 395 0
469 397 468 0
398 397 469 0
470 398 469 0
399 398 470 0
400 399 470 0
400 470 465 0
400 465 464 0
466 471 401 0
464 466 401 0
400 464 401 0
396 472 467 0
402 472 396 0
403 471 473 0
401 471 403 0
402 474 472 0
404 474 402 0
405 473 475 0
403 473 405 0
404 476 474 0
406 476 404 0
407 475 477 0
405 475 407 0
406 478 476 0
408 478 406 0
409 477 479 0
407 477 409 0
408 480 478 0
410 480 408 0
411 479 481 0
409 479 411 0
410 482 480 0
412 482 410 0
413 481 483 0
411 481 413 0
412 484 482 0
414 484 412 0
415 483 485 0
413 483 415 0
414 486 484 0
416 486 414 0
417 485 487 0
415 485 417 0
416 488 486 0
418 488 416 0
419 487 489 0
417 487 419 0
418 490 488 0
420 490 418 0
421 489 491 0
419 489 421 0
420 492 490 0
422 492 420 0
423 491 493 0
421 491 423 0
422 494 492 0
424 494 422 0
425 493 495 0
423 493 425 0
424 496 494 0
426 496 424 0
427 495 497 0
425 495 427 0
426 498 496 0
428 498 426 0
429 497 499 0
427 497 429 0
428 500 498 0
430 500 428 0
431 499 501 0
429 499 431 0
430 502 500 0
432 502 430 0
433 501 503 0
431 501 433 0
432 504 502 0
434 504 432 0
435 503 505 0
433 503 435 0
434 506 504 0
436 506 434 0
437 505 507 0
435 505 437 0
436 508 506 0
438 508 436 0
439 507 509 0
437 507 439 0
438 510 508 0
440 510 438 0
441 509 511 0
439 509 441 0
440 512 510 0
442 512 440 0
443 511 513 0
441 511 443 0
442 514 512 0
444 514 442 0
446 513 515 0
443 513 446 0
517 514 444 0
516 517 444 0
447 516 444 0
449 516 447 0
518 452 453 0
446 515 519 0
453 446 519 0
518 453 519 0
516 521 517 0
520 521 516 0
516 522 520 0
516 523 522 0
449 523 516 0
454 523 449 0
523 455 524 0
454 455 523 0
524 456 525 0
455 456 524 0
526 525 456 0
518 526 456 0
452 518 456 0
518 519 526 0
521 520 527 0
520 522 527 0
529 458 528 0
459 458 529 0
459 529 531 0
460 459 531 0
530 460 531 0
532 530 531 0
534 461 533 0
462 461 534 0
462 534 536 0
463 462 536 0
535 463 536 0
536 537 535 0
538 537 536 0
538 539 537 0
540 539 538 0
528 458 465 0
528 465 539 0
528 539 540 0
541 466 460 0
541 460 530 0
541 530 542 0
530 532 542 0
461 543 533 0
467 543 461 0
468 463 535 0
535 537 468 0
468 537 469 0
537 539 469 0
469 539 470 0
539 465 470 0
471 541 544 0
466 541 471 0
467 545 543 0
472 545 467 0
473 544 546 0
471 544 473 0
472 547 545 0
474 547 472 0
475 546 548 0
473 546 475 0
474 549 547 0
476 549 474 0
477 548 550 0
475 548 477 0
476 551 549 0
478 551 476 0
479 550 552 0
477 550 479 0
478 553 551 0
480 553 478 0
481 552 554 0
479 552 481 0
480 555 553 0
482 555 480 0
483 554 556 0
481 554 483 0
482 557 555 0
484 557 482 0
485 556 558 0
483 556 485 0
484 559 557 0
486 559 484 0
487 558 560 0
485 558 487 0
486 561 559 0
488 561 486 0
489 560 562 0
487 560 489 0
488 563 561 0
490 563 488 0
491 562 564 0
489 562 491 0
490 565 563 0
492 565 490 0
493 564 566 0
491 564 493 0
492 567 565 0
494 567 492 0
495 566 568 0
493 566 495 0
494 569 567 0
496 569 494 0
497 568 570 0
495 568 497 0
496 571 569 0
498 571 496 0
499 570 572 0
497 570 499 0
498 573 571 0
500 573 498 0
501 572 574 0
499 572 501 0
500 575 573 0
502 575 500 0
503 574 576 0
501 574 503 0
502 577 575 0
504 577 502 0
505 576 578 0
503 576 505 0
504 579 577 0
506 579 504 0
507 578 580 0
505 578 507 0
506 581 579 0
508 581 506 0
509 580 582 0
507 580 509 0
508 583 581 0
510 583 508 0
511 582 584 0
509 582 511 0
510 585 583 0
512 585 510 0
513 584 586 0
511 584 513 0
512 587 585 0
514 587 512 0
515 586 588 0
513 586 515 0
514 589 587 0
517 589 514 0
519 588 590 0
515 588 519 0
517 591 589 0
521 591 517 0
592 522 523 0
593 592 524 0
524 592 523 0
524 525 595 0
524 595 594 0
524 594 593 0
595 526 596 0
525 526 595 0
519 596 526 0
590 596 519 0
598 591 521 0
597 598 521 0
527 597 521 0
592 599 597 0
592 597 527 0
592 527 522 0
599 592 593 0
600 599 593 0
601 600 593 0
593 594 601 0
598 597 602 0
597 603 602 0
599 603 597 0
599 600 603 0
606 604 605 0
606 607 604 0
608 607 606 0
608 609 607 0
610 609 608 0
610 611 609 0
612 611 610 0
612 613 611 0
614 613 612 0
615 613 614 0
604 617 605 0
616 617 604 0
618 604 607 0
616 604 618 0
619 607 609 0
618 607 619 0
619 609 611 0
619 611 529 0
619 529 528 0
611 613 529 0
529 613 531 0
615 620 532 0
613 615 532 0
531 613 532 0
534 533 621 0
622 617 621 0
617 534 621 0
617 616 534 0
616 536 534 0
616 618 536 0
536 618 538 0
618 619 538 0
538 619 540 0
619 528 540 0
623 541 542 0
532 620 624 0
542 532 624 0
623 542 624 0
533 543 625 0
621 533 625 0
626 621 625 0
626 622 621 0
627 544 541 0
627 541 623 0
627 623 628 0
623 624 628 0
543 629 625 0
545 629 543 0
546 627 630 0
544 627 546 0
545 631 629 0
547 631 545 0
548 630 632 0
546 630 548 0
547 633 631 0
549 633 547 0
550 632 634 0
548 632 550 0
549 635 633 0
551 635 549 0
552 634 636 0
550 634 552 0
551 637 635 0
553 637 551 0
554 636 638 0
552 636 554 0
553 639 637 0
555 639 553 0
556 638 640 0
554 638 556 0
555 641 639 0
557 641 555 0
558 640 642 0
556 640 558 0
557 643 641 0
559 643 557 0
560 642 644 0
558 642 560 0
559 645 643 0
561 645 559 0
562 644 646 0
560 644 562 0
561 647 645 0
563 647 561 0
564 646 648 0
562 646 564 0
563 649 647 0
565 649 563 0
566 648 650 0
564 648 566 0
565 651 649 0
567 651 565 0
568 650 652 0
566 650 568 0
567 653 651 0
569 653 567 0
570 652 654 0
568 652 570 0
569 655 653 0
571 655 569 0
572 654 656 0
570 654 572 0
571 657 655 0
573 657 571 0
574 656 658 0
572 656 574 0
573 659 657 0
575 659 573 0
576 658 660 0
574 658 576 0
575 661 659 0
577 661 575 0
578 660 662 0
576 660 578 0
577 663 661 0
579 663 577 0
580 662 664 0
578 662 580 0
579 665 663 0
581 665 579 0
582 664 666 0
580 664 582 0
581 667 665 0
583 667 581 0
584 666 668 0
582 666 584 0
583 669 667 0
585 669 583 0
586 668 670 0
584 668 586 0
585 671 669 0
587 671 585 0
588 670 672 0
586 670 588 0
587 673 671 0
589 673 587 0
590 672 674 0
588 672 590 0
589 675 673 0
591 675 589 0
677 676 678 0
595 679 678 0
595 678 676 0
595 676 594 0
679 596 680 0
595 596 679 0
590 680 596 0
674 680 590 0
591 681 675 0
598 681 591 0
683 682 684 0
682 677 684 0
682 600 677 0
600 676 677 0
601 676 600 0
601 594 676 0
681 602 685 0
598 602 681 0
685 602 603 0
683 685 603 0
682 683 603 0
603 600 682 0
688 686 687 0
689 686 688 0
605 690 687 0
606 605 687 0
686 606 687 0
691 608 606 0
691 606 686 0
691 686 689 0
692 608 691 0
610 608 692 0
693 610 692 0
612 610 693 0
694 612 693 0
614 612 694 0
695 614 694 0
615 614 695 0
605 696 690 0
617 696 605 0
620 695 697 0
615 695 620 0
617 698 696 0
622 698 617 0
624 697 699 0
620 697 624 0
626 625 700 0
701 698 622 0
701 622 626 0
701 626 700 0
702 627 628 0
624 699 703 0
628 624 703 0
702 628 703 0
704 625 629 0
700 625 704 0
700 704 701 0
701 704 705 0
630 627 706 0
706 627 702 0
703 706 702 0
707 706 703 0
629 631 708 0
704 629 708 0
709 704 708 0
709 705 704 0
710 632 630 0
710 630 706 0
710 706 711 0
706 707 711 0
631 712 708 0
633 712 631 0
634 710 713 0
632 710 634 0
633 714 712 0
635 714 633 0
636 713 715 0
634 713 636 0
635 716 714 0
637 716 635 0
638 715 717 0
636 715 638 0
637 718 716 0
639 718 637 0
640 717 719 0
638 717 640 0
639 720 718 0
641 720 639 0
642 719 721 0
640 719 642 0
641 722 720 0
643 722 641 0
644 721 723 0
642 721 644 0
643 724 722 0
645 724 643 0
646 723 725 0
644 723 646 0
645 726 724 0
647 726 645 0
648 725 727 0
646 725 648 0
647 728 726 0
649 728 647 0
650 727 729 0
648 727 650 0
649 730 728 0
651 730 649 0
652 729 731 0
650 729 652 0
651 732 730 0
653 732 651 0
654 731 733 0
652 731 654 0
653 734 732 0
655 734 653 0
656 733 735 0
654 733 656 0
655 736 734 0
657 736 655 0
658 735 737 0
656 735 658 0
657 738 736 0
659 738 657 0
660 737 739 0
658 737 660 0
659 740 738 0
661 740 659 0
662 739 741 0
660 739 662 0
661 742 740 0
663 742 661 0
664 741 743 0
662 741 664 0
663 744 742 0
665 744 663 0
666 743 745 0
664 743 666 0
665 746 744 0
667 746 665 0
668 745 747 0
666 745 668 0
667 748 746 0
669 748 667 0
670 747 749 0
668 747 670 0
669 750 748 0
671 750 669 0
672 749 751 0
670 749 672 0
671 752 750 0
673 752 671 0
674 751 753 0
672 751 674 0
673 754 752 0
675 754 673 0
755 677 756 0
756 677 678 0
756 679 757 0
678 679 756 0
757 680 758 0
679 680 757 0
674 758 680 0
753 758 674 0
754 675 681 0
760 754 681 0
759 760 681 0
684 761 760 0
684 760 759 0
684 759 683 0
677 761 684 0
755 761 677 0
759 681 685 0
685 683 759 0
763 687 762 0
688 687 763 0
764 688 763 0
689 688 764 0
687 765 762 0
690 765 687 0
766 691 764 0
764 691 689 0
767 691 766 0
692 691 767 0
768 692 767 0
693 692 768 0
769 693 768 0
694 693 769 0
770 694 769 0
695 694 770 0
690 771 765 0
696 771 690 0
697 770 772 0
695 770 697 0
696 773 771 0
698 773 696 0
699 772 774 0
697 772 699 0
698 775 773 0
701 775 698 0
703 774 776 0
699 774 703 0
701 777 775 0
705 777 701 0
707 776 778 0
703 776 707 0
709 708 779 0
780 777 705 0
780 705 709 0
780 709 779 0
781 710 711 0
707 778 782 0
711 707 782 0
781 711 782 0
708 712 783 0
779 708 783 0
784 779 783 0
784 780 779 0
785 713 710 0
785 710 781 0
785 781 786 0
781 782 786 0
712 787 783 0
714 787 712 0
715 785 788 0
713 785 715 0
714 789 787 0
716 789 714 0
717 788 790 0
715 788 717 0
716 791 789 0
718 791 716 0
719 790 792 0
717 790 719 0
718 793 791 0
720 793 718 0
721 792 794 0
719 792 721 0
720 795 793 0
722 795 720 0
723 794 796 0
721 794 723 0
722 797 795 0
724 797 722 0
725 796 798 0
723 796 725 0
724 799 797 0
726 799 724 0
727 798 800 0
725 798 727 0
726 801 799 0
728 801 726 0
729 800 802 0
727 800 729 0
728 803 801 0
730 803 728 0
731 802 804 0
729 802 731 0
730 805 803 0
732 805 730 0
733 804 806 0
731 804 733 0
732 807 805 0
734 807 732 0
735 806 808 0
733 806 735 0
734 809 807 0
736 809 734 0
737 808 810 0
735 808 737 0
736 811 809 0
738 811 736 0
739 810 812 0
737 810 739 0
738 813 811 0
740 813 738 0
741 812 814 0
739 812 741 0
740 815 813 0
742 815 740 0
743 814 816 0
741 814 743 0
742 817 815 0
744 817 742 0
745 816 818 0
743 816 745 0
744 819 817 0
746 819 744 0
747 818 820 0
745 818 747 0
746 821 819 0
748 821 746 0
749 820 822 0
747 820 749 0
748 823 821 0
750 823 748 0
751 822 824 0
749 822 751 0
750 825 823 0
752 825 750 0
753 824 826 0
751 824 753 0
825 752 754 0
828 825 754 0
827 828 754 0
827 829 828 0
828 829 830 0
756 831 830 0
756 830 829 0
756 829 755 0
831 757 832 0
756 757 831 0
832 758 833 0
757 758 832 0
753 833 758 0
826 833 753 0
827 754 760 0
760 829 827 0
761 829 760 0
761 755 829 0
835 762 834 0
763 762 835 0
836 763 835 0
764 763 836 0
762 837 834 0
765 837 762 0
838 766 836 0
836 766 764 0
839 766 838 0
767 766 839 0
840 767 839 0
768 767 840 0
841 768 840 0
769 768 841 0
842 769 841 0
770 769 842 0
765 843 837 0
771 843 765 0
772 842 844 0
770 842 772 0
771 845 843 0
773 845 771 0
774 844 846 0
772 844 774 0
773 847 845 0
775 847 773 0
776 846 848 0
774 846 776 0
775 849 847 0
777 849 775 0
778 848 850 0
776 848 778 0
777 851 849 0
780 851 777 0
782 850 852 0
778 850 782 0
784 783 853 0
854 851 780 0
854 780 784 0
854 784 853 0
855 785 786 0
782 852 856 0
786 782 856 0
855 786 856 0
857 783 787 0
853 783 857 0
853 857 854 0
854 857 858 0
788 785 859 0
859 785 855 0
856 859 855 0
860 859 856 0
787 789 861 0
857 787 861 0
862 857 861 0
862 858 857 0
863 790 788 0
863 788 859 0
863 859 864 0
859 860 864 0
789 865 861 0
791 865 789 0
792 863 866 0
790 863 792 0
791 867 865 0
793 867 791 0
794 866 868 0
792 866 794 0
793 869 867 0
795 869 793 0
796 868 870 0
794 868 796 0
795 871 869 0
797 871 795 0
798 870 872 0
796 870 798 0
797 873 871 0
799 873 797 0
800 872 874 0
798 872 800 0
799 875 873 0
801 875 799 0
802 874 876 0
800 874 802 0
801 877 875 0
803 877 801 0
804 876 878 0
802 876 804 0
803 879 877 0
805 879 803 0
806 878 880 0
804 878 806 0
805 881 879 0
807 881 805 0
808 880 882 0
806 880 808 0
807 883 881 0
809 883 807 0
810 882 884 0
808 882 810 0
809 885 883 0
811 885 809 0
812 884 886 0
810 884 812 0
811 887 885 0
813 887 811 0
814 886 888 0
812 886 814 0
813 889 887 0
815 889 813 0
816 888 890 0
814 888 816 0
815 891 889 0
817 891 815 0
818 890 892 0
816 890 818 0
817 893 891 0
819 893 817 0
820 892 894 0
818 892 820 0
819 895 893 0
821 895 819 0
822 894 896 0
820 894 822 0
821 897 895 0
823 897 821 0
824 896 898 0
822 896 824 0
823 899 897 0
825 899 823 0
826 898 900 0
824 898 826 0
899 828 901 0
825 828 899 0
901 830 902 0
828 830 901 0
902 830 831 0
902 831 903 0
902 903 904 0
905 903 832 0
832 903 831 0
906 905 833 0
833 905 832 0
826 900 907 0
833 826 907 0
906 833 907 0
904 903 908 0
903 905 909 0
908 903 909 0
910 908 909 0
909 905 906 0
911 909 906 0
912 911 906 0
906 907 912 0
910 909 913 0
909 911 913 0
916 914 915 0
917 914 916 0
834 918 915 0
835 834 915 0
914 835 915 0
917 919 836 0
914 917 836 0
835 914 836 0
834 920 918 0
837 920 834 0
921 838 919 0
919 838 836 0
922 838 921 0
839 838 922 0
923 839 922 0
840 839 923 0
924 840 923 0
841 840 924 0
925 841 924 0
842 841 925 0
837 926 920 0
843 926 837 0
844 925 927 0
842 925 844 0
843 928 926 0
845 928 843 0
846 927 929 0
844 927 846 0
845 930 928 0
847 930 845 0
848 929 931 0
846 929 848 0
847 932 930 0
849 932 847 0
850 931 933 0
848 931 850 0
849 934 932 0
851 934 849 0
852 933 935 0
850 933 852 0
851 936 934 0
854 936 851 0
856 935 937 0
852 935 856 0
854 938 936 0
858 938 854 0
860 937 939 0
856 937 860 0
862 861 940 0
941 938 858 0
941 858 862 0
941 862 940 0
942 863 864 0
860 939 943 0
864 860 943 0
942 864 943 0
861 865 944 0
940 861 944 0
945 940 944 0
945 941 940 0
946 866 863 0
946 863 942 0
946 942 947 0
942 943 947 0
865 948 944 0
867 948 865 0
868 946 949 0
866 946 868 0
867 950 948 0
869 950 867 0
870 949 951 0
868 949 870 0
869 952 950 0
871 952 869 0
872 951 953 0
870 951 872 0
871 954 952 0
873 954 871 0
874 953 955 0
872 953 874 0
873 956 954 0
875 956 873 0
876 955 957 0
874 955 876 0
875 958 956 0
877 958 875 0
878 957 959 0
876 957 878 0
877 960 958 0
879 960 877 0
880 959 961 0
878 959 880 0
879 962 960 0
881 962 879 0
882 961 963 0
880 961 882 0
881 964 962 0
883 964 881 0
884 963 965 0
882 963 884 0
883 966 964 0
885 966 883 0
886 965 967 0
884 965 886 0
885 968 966 0
887 968 885 0
888 967 969 0
886 967 888 0
887 970 968 0
889 970 887 0
890 969 971 0
888 969 890 0
889 972 970 0
891 972 889 0
892 971 973 0
890 971 892 0
891 974 972 0
893 974 891 0
894 973 975 0
892 973 894 0
893 976 974 0
895 976 893 0
896 975 977 0
894 975 896 0
895 978 976 0
897 978 895 0
898 977 979 0
896 977 898 0
897 980 978 0
899 980 897 0
900 979 981 0
898 979 900 0
980 901 982 0
899 901 980 0
982 902 983 0
901 902 982 0
983 902 984 0
984 902 904 0
907 981 985 0
900 981 907 0
987 984 904 0
986 987 904 0
908 986 904 0
910 986 908 0
988 911 912 0
907 985 989 0
912 907 989 0
988 912 989 0
987 986 990 0
913 991 990 0
910 913 990 0
986 910 990 0
992 991 913 0
988 992 913 0
911 988 913 0
988 989 992 0
994 915 993 0
916 915 994 0
916 994 996 0
917 916 996 0
995 917 996 0
997 995 996 0
915 998 993 0
918 998 915 0
919 917 999 0
999 917 995 0
997 999 995 0
1000 999 997 0
918 1001 998 0
920 1001 918 0
921 919 999 0
1002 922 921 0
1002 921 999 0
1002 999 1000 0
1003 922 1002 0
923 922 1003 0
1004 923 1003 0
924 923 1004 0
1005 924 1004 0
925 924 1005 0
920 1006 1001 0
926 1006 920 0
927 1005 1007 0
925 1005 927 0
926 1008 1006 0
928 1008 926 0
929 1007 1009 0
927 1007 929 0
928 1010 1008 0
930 1010 928 0
931 1009 1011 0
929 1009 931 0
930 1012 1010 0
932 1012 930 0
933 1011 1013 0
931 1011 933 0
932 1014 1012 0
934 1014 932 0
935 1013 1015 0
933 1013 935 0
934 1016 1014 0
936 1016 934 0
937 1015 1017 0
935 1015 937 0
936 1018 1016 0
938 1018 936 0
939 1017 1019 0
937 1017 939 0
938 1020 1018 0
941 1020 938 0
943 1019 1021 0
939 1019 943 0
945 944 1022 0
1023 1020 941 0
1023 941 945 0
1023 945 1022 0
1024 946 947 0
943 1021 1025 0
947 943 1025 0
1024 947 1025 0
1026 944 948 0
1022 944 1026 0
1022 1026 1023 0
1023 1026 1027 0
949 946 1028 0
1028 946 1024 0
1025 1028 1024 0
1029 1028 1025 0
948 950 1030 0
1026 948 1030 0
1031 1026 1030 0
1031 1027 1026 0
1032 951 949 0
1032 949 1028 0
1032 1028 1033 0
1028 1029 1033 0
950 1034 1030 0
952 1034 950 0
953 1032 1035 0
951 1032 953 0
952 1036 1034 0
954 1036 952 0
955 1035 1037 0
953 1035 955 0
954 1038 1036 0
956 1038 954 0
957 1037 1039 0
955 1037 957 0
956 1040 1038 0
958 1040 956 0
959 1039 1041 0
957 1039 959 0
958 1042 1040 0
960 1042 958 0
961 1041 1043 0
959 1041 961 0
960 1044 1042 0
962 1044 960 0
963 1043 1045 0
961 1043 963 0
962 1046 1044 0
964 1046 962 0
965 1045 1047 0
963 1045 965 0
964 1048 1046 0
966 1048 964 0
967 1047 1049 0
965 1047 967 0
966 1050 1048 0
968 1050 966 0
969 1049 1051 0
967 1049 969 0
968 1052 1050 0
970 1052 968 0
971 1051 1053 0
969 1051 971 0
970 1054 1052 0
972 1054 970 0
973 1053 1055 0
971 1053 973 0
972 1056 1054 0
974 1056 972 0
975 1055 1057 0
973 1055 975 0
974 1058 1056 0
976 1058 974 0
977 1057 1059 0
975 1057 977 0
976 1060 1058 0
978 1060 976 0
979 1059 1061 0
977 1059 979 0
978 1062 1060 0
980 1062 978 0
981 1061 1063 0
979 1061 981 0
1062 982 1064 0
980 982 1062 0
1064 982 983 0
1064 983 1065 0
1064 1065 1066 0
984 1065 983 0
985 1063 1067 0
981 1063 985 0
1066 1065 1068 0
984 987 1069 0
984 1069 1068 0
984 1068 1065 0
989 1067 1070 0
985 1067 989 0
1069 990 1071 0
987 990 1069 0
1071 991 1072 0
990 991 1071 0
1072 992 1073 0
991 992 1072 0
989 1073 992 0
1070 1073 989 0
1075 993 1074 0
994 993 1075 0
1076 994 1075 0
996 994 1076 0
996 1076 1078 0
997 996 1078 0
1077 997 1078 0
1078 1079 1077 0
1080 1079 1078 0
1080 1081 1079 0
1082 1081 1080 0
1083 1081 1082 0
993 1084 1074 0
998 1084 993 0
1000 997 1085 0
1085 997 1077 0
1086 1077 1079 0
1085 1077 1086 0
1087 1079 1081 0
1086 1079 1087 0
1083 1087 1081 0
1088 1087 1083 0
998 1089 1084 0
1001 1089 998 0
1002 1000 1085 0
1085 1086 1002 0
1002 1086 1003 0
1086 1087 1003 0
1003 1087 1004 0
1088 1090 1005 0
1087 1088 1005 0
1004 1087 1005 0
1001 1091 1089 0
1006 1091 1001 0
1007 1090 1092 0
1005 1090 1007 0
1006 1093 1091 0
1008 1093 1006 0
1009 1092 1094 0
1007 1092 1009 0
1008 1095 1093 0
1010 1095 1008 0
1011 1094 1096 0
1009 1094 1011 0
1010 1097 1095 0
1012 1097 1010 0
1013 1096 1098 0
1011 1096 1013 0
1012 1099 1097 0
1014 1099 1012 0
1015 1098 1100 0
1013 1098 1015 0
1014 1101 1099 0
1016 1101 1014 0
1017 1100 1102 0
1015 1100 1017 0
1016 1103 1101 0
1018 1103 1016 0
1019 1102 1104 0
1017 1102 1019 0
1018 1105 1103 0
1020 1105 1018 0
1021 1104 1106 0
1019 1104 1021 0
1020 1107 1105 0
1023 1107 1020 0
1025 1106 1108 0
1021 1106 1025 0
1023 1109 1107 0
1027 1109 1023 0
1029 1108 1110 0
1025 1108 1029 0
1031 1030 1111 0
1112 1109 1027 0
1112 1027 1031 0
1112 1031 1111 0
1113 1032 1033 0
1029 1110 1114 0
1033 1029 1114 0
1113 1033 1114 0
1030 1034 1115 0
1111 1030 1115 0
1116 1111 1115 0
1116 1112 1111 0
1117 1035 1032 0
1117 1032 1113 0
1117 1113 1118 0
1113 1114 1118 0
1034 1119 1115 0
1036 1119 1034 0
1037 1117 1120 0
1035 1117 1037 0
1036 1121 1119 0
1038 1121 1036 0
1039 1120 1122 0
1037 1120 1039 0
1038 1123 1121 0
1040 1123 1038 0
1041 1122 1124 0
1039 1122 1041 0
1040 1125 1123 0
1042 1125 1040 0
1043 1124 1126 0
1041 1124 1043 0
1042 1127 1125 0
1044 1127 1042 0
1045 1126 1128 0
1043 1126 1045 0
1044 1129 1127 0
1046 1129 1044 0
1047 1128 1130 0
1045 1128 1047 0
1046 1131 1129 0
1048 1131 1046 0
1049 1130 1132 0
1047 1130 1049 0
1131 1048 1050 0
1134 1131 1050 0
1133 1134 1050 0
1133 1135 1134 0
1134 1135 1136 0
1135 1137 1136 0
1136 1137 1138 0
1137 1139 1138 0
1138 1139 1140 0
1139 1141 1140 0
1140 1141 1142 0
1051 1049 1132 0
1141 1051 1132 0
1142 1141 1132 0
1143 1050 1052 0
1133 1050 1143 0
1143 1135 1133 0
1144 1135 1143 0
1144 1137 1135 0
1145 1137 1144 0
1145 1139 1137 0
1146 1139 1145 0
1146 1141 1139 0
1147 1141 1146 0
1141 1053 1051 0
1147 1053 1141 0
1148 1052 1054 0
1143 1052 1148 0
1148 1144 1143 0
1149 1144 1148 0
1149 1145 1144 0
1150 1145 1149 0
1150 1146 1145 0
1151 1146 1150 0
1151 1147 1146 0
1152 1147 1151 0
1147 1055 1053 0
1152 1055 1147 0
1153 1054 1056 0
1148 1054 1153 0
1153 1149 1148 0
1154 1149 1153 0
1154 1150 1149 0
1155 1150 1154 0
1155 1151 1150 0
1156 1151 1155 0
1156 1152 1151 0
1157 1152 1156 0
1152 1057 1055 0
1157 1057 1152 0
1158 1056 1058 0
1153 1056 1158 0
1158 1154 1153 0
1159 1154 1158 0
1159 1155 1154 0
1160 1155 1159 0
1160 1156 1155 0
1161 1156 1160 0
1161 1157 1156 0
1162 1157 1161 0
1157 1059 1057 0
1162 1059 1157 0
1163 1058 1060 0
1158 1058 1163 0
1163 1159 1158 0
1164 1159 1163 0
1164 1160 1159 0
1165 1160 1164 0
1165 1161 1160 0
1166 1161 1165 0
1166 1162 1161 0
1167 1162 1166 0
1162 1061 1059 0
1167 1061 1162 0
1168 1060 1062 0
1163 1060 1168 0
1168 1164 1163 0
1169 1164 1168 0
1169 1165 1164 0
1170 1165 1169 0
1170 1166 1165 0
1171 1166 1170 0
1171 1167 1166 0
1172 1167 1171 0
1167 1063 1061 0
1172 1063 1167 0
1168 1062 1064 0
1173 1169 1168 0
1066 1173 1168 0
1064 1066 1168 0
1173 1170 1169 0
1174 1170 1173 0
1174 1171 1170 0
1175 1171 1174 0
1175 1172 1171 0
1176 1172 1175 0
1172 1067 1063 0
1176 1067 1172 0
1173 1066 1068 0
1177 1174 1173 0
1069 1177 1173 0
1068 1069 1173 0
1177 1175 1174 0
1178 1175 1177 0
1178 1176 1175 0
1179 1176 1178 0
1176 1070 1067 0
1179 1070 1176 0
1177 1069 1071 0
1071 1178 1177 0
1072 1178 1071 0
1072 1179 1178 0
1073 1179 1072 0
1073 1070 1179 0
1075 1074 1180 0
1076 1180 1181 0
1075 1180 1076 0
1183 1078 1076 0
1182 1183 1076 0
1181 1182 1076 0
1184 1078 1183 0
1080 1078 1184 0
1185 1080 1184 0
1082 1080 1185 0
1186 1082 1185 0
1083 1082 1186 0
1187 1074 1084 0
1180 1074 1187 0
1181 1180 1187 0
1181 1187 1188 0
1181 1188 1189 0
1189 1182 1181 0
1088 1186 1190 0
1083 1186 1088 0
1084 1089 1191 0
1187 1084 1191 0
1192 1187 1191 0
1192 1188 1187 0
1090 1190 1193 0
1088 1190 1090 0
1089 1194 1191 0
1091 1194 1089 0
1092 1193 1195 0
1090 1193 1092 0
1091 1196 1194 0
1093 1196 1091 0
1094 1195 1197 0
1092 1195 1094 0
1093 1198 1196 0
1095 1198 1093 0
1096 1197 1199 0
1094 1197 1096 0
1095 1200 1198 0
1097 1200 1095 0
1098 1199 1201 0
1096 1199 1098 0
1097 1202 1200 0
1099 1202 1097 0
1100 1201 1203 0
1098 1201 1100 0
1099 1204 1202 0
1101 1204 1099 0
1102 1203 1205 0
1100 1203 1102 0
1101 1206 1204 0
1103 1206 1101 0
1104 1205 1207 0
1102 1205 1104 0
1103 1208 1206 0
1105 1208 1103 0
1106 1207 1209 0
1104 1207 1106 0
1105 1210 1208 0
1107 1210 1105 0
1108 1209 1211 0
1106 1209 1108 0
1210 1107 1109 0
1213 1210 1109 0
1212 1213 1109 0
1212 1214 1213 0
1213 1214 1215 0
1214 1216 1215 0
1215 1216 1217 0
1216 1218 1217 0
1217 1218 1219 0
1218 1220 1219 0
1219 1220 1221 0
1110 1108 1211 0
1220 1110 1211 0
1221 1220 1211 0
1222 1109 1112 0
1212 1109 1222 0
1222 1214 1212 0
1223 1214 1222 0
1223 1216 1214 0
1224 1216 1223 0
1224 1218 1216 0
1225 1218 1224 0
1225 1220 1218 0
1226 1220 1225 0
1220 1114 1110 0
1226 1114 1220 0
1116 1115 1227 0
1227 1228 1222 0
1116 1227 1222 0
1112 1116 1222 0
1228 1223 1222 0
1229 1223 1228 0
1229 1224 1223 0
1230 1224 1229 0
1230 1225 1224 0
1231 1225 1230 0
1226 1225 1231 0
1118 1226 1231 0
1117 1118 1231 0
1118 1114 1226 0
1232 1115 1119 0
1227 1115 1232 0
1232 1228 1227 0
1233 1228 1232 0
1233 1229 1228 0
1234 1229 1233 0
1234 1230 1229 0
1235 1230 1234 0
1235 1231 1230 0
1236 1231 1235 0
1231 1120 1117 0
1236 1120 1231 0
1237 1119 1121 0
1232 1119 1237 0
1237 1233 1232 0
1238 1233 1237 0
1238 1234 1233 0
1239 1234 1238 0
1239 1235 1234 0
1240 1235 1239 0
1240 1236 1235 0
1241 1236 1240 0
1236 1122 1120 0
1241 1122 1236 0
1242 1121 1123 0
1237 1121 1242 0
1242 1238 1237 0
1243 1238 1242 0
1243 1239 1238 0
1244 1239 1243 0
1244 1240 1239 0
1245 1240 1244 0
1245 1241 1240 0
1246 1241 1245 0
1241 1124 1122 0
1246 1124 1241 0
1247 1123 1125 0
1242 1123 1247 0
1247 1243 1242 0
1248 1243 1247 0
1248 1244 1243 0
1249 1244 1248 0
1249 1245 1244 0
1250 1245 1249 0
1250 1246 1245 0
1251 1246 1250 0
1246 1126 1124 0
1251 1126 1246 0
1252 1125 1127 0
1247 1125 1252 0
1252 1248 1247 0
1253 1248 1252 0
1253 1249 1248 0
1254 1249 1253 0
1254 1250 1249 0
1255 1250 1254 0
1255 1251 1250 0
1256 1251 1255 0
1251 1128 1126 0
1256 1128 1251 0
1257 1127 1129 0
1252 1127 1257 0
1257 1253 1252 0
1258 1253 1257 0
1258 1254 1253 0
1259 1254 1258 0
1259 1255 1254 0
1260 1255 1259 0
1260 1256 1255 0
1261 1256 1260 0
1256 1130 1128 0
1261 1130 1256 0
1262 1129 1131 0
1257 1129 1262 0
1262 1258 1257 0
1263 1258 1262 0
1263 1259 1258 0
1264 1259 1263 0
1264 1260 1259 0
1265 1260 1264 0
1265 1261 1260 0
1266 1261 1265 0
1261 1132 1130 0
1266 1132 1261 0
1262 1131 1134 0
1134 1263 1262 0
1136 1263 1134 0
1136 1264 1263 0
1138 1264 1136 0
1138 1265 1264 0
1140 1265 1138 0
1140 1266 1265 0
1142 1266 1140 0
1142 1132 1266 0
1183 1182 1267 0
1184 1267 1268 0
1183 1267 1184 0
1270 1185 1184 0
1269 1270 1184 0
1268 1269 1184 0
1271 1185 1270 0
1186 1185 1271 0
1273 1188 1272 0
1189 1188 1273 0
1189 1273 1274 0
1189 1274 1267 0
1189 1267 1182 0
1274 1275 1267 0
1267 1275 1268 0
1275 1269 1268 0
1190 1271 1276 0
1186 1271 1190 0
1192 1191 1277 0
1188 1279 1272 0
1188 1278 1279 0
1192 1278 1188 0
1277 1278 1192 0
1278 1280 1279 0
1279 1280 1281 0
1280 1282 1281 0
1281 1282 1283 0
1282 1284 1283 0
1283 1284 1285 0
1193 1190 1276 0
1284 1193 1276 0
1285 1284 1276 0
1286 1191 1194 0
1277 1191 1286 0
1286 1278 1277 0
1287 1278 1286 0
1287 1280 1278 0
1288 1280 1287 0
1288 1282 1280 0
1289 1282 1288 0
1289 1284 1282 0
1290 1284 1289 0
1284 1195 1193 0
1290 1195 1284 0
1291 1194 1196 0
1286 1194 1291 0
1291 1287 1286 0
1292 1287 1291 0
1292 1288 1287 0
1293 1288 1292 0
1293 1289 1288 0
1294 1289 1293 0
1294 1290 1289 0
1295 1290 1294 0
1290 1197 1195 0
1295 1197 1290 0
