#!ascii version of 
1368 2736
-1.000000  19.500000  29.000000  0
-0.500000  20.000000  29.000000  0
-1.500000  20.000000  29.000000  0
-1.000000  19.500000  28.000000  0
-0.500000  20.000000  28.000000  0
-1.500000  20.000000  28.000000  0
-1.000000  20.000000  27.500000  0
1.000000  20.500000  53.000000  0
0.000000  20.500000  53.000000  0
1.500000  21.000000  52.000000  0
1.000000  21.000000  52.500000  0
0.000000  21.000000  52.500000  0
-1.000000  21.000000  52.500000  0
-2.000000  20.500000  52.000000  0
-1.500000  21.000000  52.000000  0
2.500000  21.000000  51.000000  0
2.000000  21.000000  51.500000  0
-2.000000  21.000000  51.500000  0
-2.500000  21.000000  51.000000  0
3.000000  20.500000  50.000000  0
2.500000  21.000000  50.000000  0
-2.500000  21.000000  50.000000  0
3.000000  20.500000  49.000000  0
2.500000  21.000000  49.000000  0
-2.000000  20.500000  49.000000  0
-2.500000  21.000000  49.000000  0
3.500000  21.000000  48.000000  0
3.000000  21.000000  48.500000  0
-1.500000  21.000000  48.000000  0
-2.000000  21.000000  48.500000  0
3.500000  21.000000  47.000000  0
-1.500000  21.000000  47.000000  0
3.500000  21.000000  46.000000  0
-1.500000  21.000000  46.000000  0
3.500000  21.000000  45.000000  0
-1.500000  21.000000  45.000000  0
3.000000  21.000000  44.500000  0
2.000000  20.500000  44.000000  0
2.500000  21.000000  44.000000  0
-1.500000  21.000000  44.000000  0
2.000000  21.000000  43.500000  0
1.500000  21.000000  43.000000  0
-1.000000  20.500000  43.000000  0
-1.500000  21.000000  43.000000  0
1.500000  21.000000  42.000000  0
0.000000  20.500000  42.000000  0
-0.500000  21.000000  42.000000  0
-1.000000  21.000000  42.500000  0
1.000000  20.500000  41.000000  0
1.500000  21.000000  41.000000  0
0.000000  20.500000  41.000000  0
-0.500000  21.000000  41.000000  0
1.000000  21.000000  40.500000  0
0.000000  21.000000  40.500000  0
0.000000  20.500000  35.000000  0
0.500000  21.000000  35.000000  0
0.000000  21.000000  35.500000  0
-0.500000  21.000000  35.000000  0
1.500000  21.000000  34.000000  0
1.000000  21.000000  34.500000  0
-1.000000  20.500000  34.000000  0
-1.000000  21.000000  34.500000  0
-1.500000  21.000000  34.000000  0
1.500000  21.000000  33.000000  0
-1.500000  21.000000  33.000000  0
1.500000  21.000000  32.000000  0
-1.500000  21.000000  32.000000  0
1.500000  21.000000  31.000000  0
-1.500000  21.000000  31.000000  0
2.000000  20.500000  30.000000  0
2.500000  21.000000  30.000000  0
2.000000  21.000000  30.500000  0
-1.500000  21.000000  30.000000  0
3.000000  20.500000  29.000000  0
3.500000  21.000000  29.000000  0
3.000000  21.000000  29.500000  0
2.000000  20.500000  29.000000  0
1.000000  20.500000  29.000000  0
0.000000  20.500000  29.000000  0
-1.500000  21.000000  29.000000  0
3.000000  20.500000  28.000000  0
3.500000  21.000000  28.000000  0
2.500000  21.000000  28.000000  0
2.000000  21.000000  28.500000  0
1.000000  21.000000  28.500000  0
0.000000  21.000000  28.500000  0
-0.500000  21.000000  28.000000  0
-1.500000  21.000000  28.000000  0
3.000000  21.000000  27.500000  0
-1.000000  21.000000  27.500000  0
-1.000000  21.500000  53.000000  0
-0.500000  22.000000  53.000000  0
-1.000000  22.000000  53.500000  0
-1.500000  22.000000  53.000000  0
1.500000  22.000000  52.000000  0
1.000000  22.000000  52.500000  0
0.000000  22.000000  52.500000  0
-1.500000  22.000000  52.000000  0
2.000000  21.500000  51.000000  0
1.500000  22.000000  51.000000  0
-2.000000  22.000000  51.500000  0
-2.500000  22.000000  51.000000  0
2.500000  22.000000  50.000000  0
2.000000  22.000000  50.500000  0
-2.500000  22.000000  50.000000  0
2.500000  22.000000  49.000000  0
-2.500000  22.000000  49.000000  0
3.000000  21.500000  48.000000  0
2.500000  22.000000  48.000000  0
-2.000000  21.500000  48.000000  0
-2.500000  22.000000  48.000000  0
3.500000  22.000000  47.000000  0
3.000000  22.000000  47.500000  0
-2.000000  21.500000  47.000000  0
-2.500000  22.000000  47.000000  0
3.500000  22.000000  46.000000  0
-1.500000  22.000000  46.000000  0
-2.000000  22.000000  46.500000  0
3.500000  22.000000  45.000000  0
-1.500000  22.000000  45.000000  0
3.000000  21.500000  44.000000  0
3.500000  22.000000  44.000000  0
-1.500000  22.000000  44.000000  0
3.000000  22.000000  43.500000  0
2.000000  21.500000  43.000000  0
2.500000  22.000000  43.000000  0
-1.500000  22.000000  43.000000  0
2.000000  22.000000  42.500000  0
1.500000  22.000000  42.000000  0
-0.500000  22.000000  42.000000  0
-1.000000  22.000000  42.500000  0
1.500000  22.000000  41.000000  0
-0.500000  22.000000  41.000000  0
1.000000  22.000000  40.500000  0
0.000000  22.000000  40.500000  0
1.000000  21.500000  35.000000  0
1.500000  22.000000  35.000000  0
1.000000  22.000000  35.500000  0
0.000000  22.000000  35.500000  0
-0.500000  22.000000  35.000000  0
1.500000  22.000000  34.000000  0
-1.000000  22.000000  34.500000  0
-1.500000  22.000000  34.000000  0
1.500000  22.000000  33.000000  0
-1.500000  22.000000  33.000000  0
1.500000  22.000000  32.000000  0
-1.500000  22.000000  32.000000  0
2.000000  21.500000  31.000000  0
2.500000  22.000000  31.000000  0
2.000000  22.000000  31.500000  0
-1.500000  22.000000  31.000000  0
3.000000  21.500000  30.000000  0
3.500000  22.000000  30.000000  0
3.000000  22.000000  30.500000  0
-1.500000  22.000000  30.000000  0
3.500000  22.000000  29.000000  0
-1.500000  22.000000  29.000000  0
3.500000  22.000000  28.000000  0
2.500000  22.000000  28.000000  0
2.000000  22.000000  28.500000  0
1.000000  22.000000  28.500000  0
0.000000  22.000000  28.500000  0
-0.500000  22.000000  28.000000  0
-1.500000  22.000000  28.000000  0
3.000000  21.500000  27.000000  0
3.500000  22.000000  27.000000  0
2.500000  22.000000  27.000000  0
-1.000000  22.000000  27.500000  0
3.000000  22.000000  26.500000  0
-1.000000  22.500000  53.000000  0
1.000000  22.500000  52.000000  0
0.000000  22.500000  52.000000  0
-1.000000  22.500000  52.000000  0
1.500000  23.000000  51.000000  0
1.000000  23.000000  51.500000  0
0.000000  23.000000  51.500000  0
-1.000000  23.000000  51.500000  0
-2.000000  23.000000  51.500000  0
-2.500000  23.000000  51.000000  0
2.500000  23.000000  50.000000  0
2.000000  23.000000  50.500000  0
-2.500000  23.000000  50.000000  0
2.500000  23.000000  49.000000  0
-2.500000  23.000000  49.000000  0
2.500000  23.000000  48.000000  0
-2.500000  23.000000  48.000000  0
3.000000  22.500000  47.000000  0
2.500000  23.000000  47.000000  0
-2.500000  23.000000  47.000000  0
3.000000  22.500000  46.000000  0
2.500000  23.000000  46.000000  0
-2.000000  22.500000  46.000000  0
-2.500000  23.000000  46.000000  0
3.500000  23.000000  45.000000  0
3.000000  23.000000  45.500000  0
-1.500000  23.000000  45.000000  0
-2.000000  23.000000  45.500000  0
3.500000  23.000000  44.000000  0
-1.500000  23.000000  44.000000  0
3.000000  22.500000  43.000000  0
3.500000  23.000000  43.000000  0
-1.500000  23.000000  43.000000  0
3.000000  23.000000  42.500000  0
2.000000  22.500000  42.000000  0
2.500000  23.000000  42.000000  0
-1.000000  22.500000  42.000000  0
-1.500000  23.000000  42.000000  0
2.000000  23.000000  41.500000  0
1.500000  23.000000  41.000000  0
-1.000000  22.500000  41.000000  0
-1.500000  23.000000  41.000000  0
1.000000  23.000000  40.500000  0
0.000000  22.500000  40.000000  0
0.500000  23.000000  40.000000  0
-0.500000  23.000000  40.000000  0
-1.000000  23.000000  40.500000  0
0.000000  23.000000  39.500000  0
1.000000  22.500000  36.000000  0
1.500000  23.000000  36.000000  0
1.000000  23.000000  36.500000  0
0.000000  22.500000  36.000000  0
0.000000  23.000000  36.500000  0
-0.500000  23.000000  36.000000  0
1.500000  23.000000  35.000000  0
-1.000000  22.500000  35.000000  0
-1.000000  23.000000  35.500000  0
-1.500000  23.000000  35.000000  0
2.000000  22.500000  34.000000  0
2.500000  23.000000  34.000000  0
2.000000  23.000000  34.500000  0
-1.500000  23.000000  34.000000  0
2.000000  22.500000  33.000000  0
2.500000  23.000000  33.000000  0
-1.500000  23.000000  33.000000  0
2.000000  22.500000  32.000000  0
2.500000  23.000000  32.000000  0
-1.500000  23.000000  32.000000  0
2.500000  23.000000  31.000000  0
-1.500000  23.000000  31.000000  0
3.500000  23.000000  30.000000  0
3.000000  23.000000  30.500000  0
-1.500000  23.000000  30.000000  0
3.500000  23.000000  29.000000  0
-1.500000  23.000000  29.000000  0
3.500000  23.000000  28.000000  0
2.000000  22.500000  28.000000  0
1.000000  22.500000  28.000000  0
0.000000  22.500000  28.000000  0
-1.500000  23.000000  28.000000  0
3.500000  23.000000  27.000000  0
2.500000  23.000000  27.000000  0
2.000000  23.000000  27.500000  0
1.000000  23.000000  27.500000  0
0.000000  23.000000  27.500000  0
-1.000000  23.000000  27.500000  0
3.000000  23.000000  26.500000  0
1.500000  24.000000  51.000000  0
1.000000  24.000000  51.500000  0
0.000000  24.000000  51.500000  0
-1.000000  24.000000  51.500000  0
-2.000000  23.500000  51.000000  0
-1.500000  24.000000  51.000000  0
2.500000  24.000000  50.000000  0
2.000000  24.000000  50.500000  0
-2.000000  24.000000  50.500000  0
-2.500000  24.000000  50.000000  0
2.500000  24.000000  49.000000  0
-2.500000  24.000000  49.000000  0
2.500000  24.000000  48.000000  0
-2.500000  24.000000  48.000000  0
2.500000  24.000000  47.000000  0
-2.500000  24.000000  47.000000  0
2.500000  24.000000  46.000000  0
-2.500000  24.000000  46.000000  0
3.000000  23.500000  45.000000  0
2.500000  24.000000  45.000000  0
-2.000000  23.500000  45.000000  0
-2.500000  24.000000  45.000000  0
3.000000  23.500000  44.000000  0
2.500000  24.000000  44.000000  0
-2.000000  23.500000  44.000000  0
-2.500000  24.000000  44.000000  0
3.500000  24.000000  43.000000  0
3.000000  24.000000  43.500000  0
-1.500000  24.000000  43.000000  0
-2.000000  24.000000  43.500000  0
3.000000  24.000000  42.500000  0
2.500000  24.000000  42.000000  0
-1.500000  24.000000  42.000000  0
2.000000  23.500000  41.000000  0
2.500000  24.000000  41.000000  0
-1.500000  24.000000  41.000000  0
2.000000  24.000000  40.500000  0
1.000000  23.500000  40.000000  0
1.500000  24.000000  40.000000  0
-1.000000  23.500000  40.000000  0
-1.500000  24.000000  40.000000  0
1.000000  23.500000  39.000000  0
1.500000  24.000000  39.000000  0
0.000000  23.500000  39.000000  0
-0.500000  24.000000  39.000000  0
-1.000000  24.000000  39.500000  0
1.000000  23.500000  38.000000  0
1.500000  24.000000  38.000000  0
0.000000  23.500000  38.000000  0
-0.500000  24.000000  38.000000  0
1.000000  23.500000  37.000000  0
1.500000  24.000000  37.000000  0
0.000000  23.500000  37.000000  0
-0.500000  24.000000  37.000000  0
1.500000  24.000000  36.000000  0
-1.000000  23.500000  36.000000  0
-1.000000  24.000000  36.500000  0
-1.500000  24.000000  36.000000  0
1.500000  24.000000  35.000000  0
-1.500000  24.000000  35.000000  0
2.000000  23.500000  34.000000  0
1.000000  23.500000  34.000000  0
1.000000  24.000000  34.500000  0
0.000000  23.500000  34.000000  0
0.000000  24.000000  34.500000  0
-1.000000  23.500000  34.000000  0
-1.000000  24.000000  34.500000  0
2.000000  23.500000  33.000000  0
1.000000  23.500000  33.000000  0
0.000000  23.500000  33.000000  0
-1.000000  23.500000  33.000000  0
2.000000  23.500000  32.000000  0
1.000000  23.500000  32.000000  0
0.000000  23.500000  32.000000  0
-1.000000  23.500000  32.000000  0
2.000000  23.500000  31.000000  0
1.000000  23.500000  31.000000  0
0.000000  23.500000  31.000000  0
-1.000000  23.500000  31.000000  0
3.000000  23.500000  30.000000  0
2.000000  23.500000  30.000000  0
1.000000  23.500000  30.000000  0
0.000000  23.500000  30.000000  0
-1.000000  23.500000  30.000000  0
3.000000  23.500000  29.000000  0
2.000000  23.500000  29.000000  0
1.000000  23.500000  29.000000  0
0.000000  23.500000  29.000000  0
-1.000000  23.500000  29.000000  0
3.000000  23.500000  28.000000  0
2.000000  23.500000  28.000000  0
1.000000  23.500000  28.000000  0
0.000000  23.500000  28.000000  0
-1.000000  23.500000  28.000000  0
3.000000  23.500000  27.000000  0
1.500000  25.000000  51.000000  0
1.000000  25.000000  51.500000  0
0.000000  25.000000  51.500000  0
-1.000000  25.000000  51.500000  0
-1.500000  25.000000  51.000000  0
2.500000  25.000000  50.000000  0
2.000000  25.000000  50.500000  0
-2.000000  25.000000  50.500000  0
-2.500000  25.000000  50.000000  0
2.500000  25.000000  49.000000  0
-2.500000  25.000000  49.000000  0
2.500000  25.000000  48.000000  0
-2.500000  25.000000  48.000000  0
2.500000  25.000000  47.000000  0
-2.500000  25.000000  47.000000  0
2.500000  25.000000  46.000000  0
-2.500000  25.000000  46.000000  0
2.500000  25.000000  45.000000  0
-2.500000  25.000000  45.000000  0
2.000000  24.500000  44.000000  0
2.000000  25.000000  44.500000  0
1.000000  24.500000  44.000000  0
1.000000  25.000000  44.500000  0
0.000000  24.500000  44.000000  0
0.000000  25.000000  44.500000  0
-1.000000  24.500000  44.000000  0
-1.000000  25.000000  44.500000  0
-2.000000  24.500000  44.000000  0
-2.000000  25.000000  44.500000  0
3.000000  24.500000  43.000000  0
2.000000  24.500000  43.000000  0
1.000000  24.500000  43.000000  0
0.000000  24.500000  43.000000  0
-1.000000  24.500000  43.000000  0
2.000000  24.500000  42.000000  0
1.000000  24.500000  42.000000  0
0.000000  24.500000  42.000000  0
-1.000000  24.500000  42.000000  0
2.000000  24.500000  41.000000  0
1.000000  24.500000  41.000000  0
0.000000  24.500000  41.000000  0
-1.000000  24.500000  41.000000  0
1.000000  24.500000  40.000000  0
0.000000  24.500000  40.000000  0
-1.000000  24.500000  40.000000  0
1.000000  24.500000  39.000000  0
0.000000  24.500000  39.000000  0
1.000000  24.500000  38.000000  0
0.000000  24.500000  38.000000  0
1.000000  24.500000  37.000000  0
0.000000  24.500000  37.000000  0
1.000000  24.500000  36.000000  0
0.000000  24.500000  36.000000  0
-1.000000  24.500000  36.000000  0
1.000000  24.500000  35.000000  0
0.000000  24.500000  35.000000  0
-1.000000  24.500000  35.000000  0
1.000000  25.500000  51.000000  0
0.000000  25.500000  51.000000  0
-1.000000  25.500000  51.000000  0
2.000000  25.500000  50.000000  0
1.000000  25.500000  50.000000  0
0.000000  25.500000  50.000000  0
-1.000000  25.500000  50.000000  0
-2.000000  25.500000  50.000000  0
2.000000  25.500000  49.000000  0
1.000000  25.500000  49.000000  0
0.000000  25.500000  49.000000  0
-1.000000  25.500000  49.000000  0
-2.000000  25.500000  49.000000  0
2.000000  25.500000  48.000000  0
1.000000  25.500000  48.000000  0
0.000000  25.500000  48.000000  0
-1.000000  25.500000  48.000000  0
-2.000000  25.500000  48.000000  0
2.000000  25.500000  47.000000  0
1.000000  25.500000  47.000000  0
0.000000  25.500000  47.000000  0
-1.000000  25.500000  47.000000  0
-2.000000  25.500000  47.000000  0
2.000000  25.500000  46.000000  0
1.000000  25.500000  46.000000  0
0.000000  25.500000  46.000000  0
-1.000000  25.500000  46.000000  0
-2.000000  25.500000  46.000000  0
2.000000  25.500000  45.000000  0
1.000000  25.500000  45.000000  0
0.000000  25.500000  45.000000  0
-1.000000  25.500000  45.000000  0
-2.000000  25.500000  45.000000  0
2 0 1 0
2 3 0 0
4 3 2 0
4 5 3 0
6 5 4 0
7 5 6 0
0 9 1 0
8 9 0 0
10 0 3 0
8 0 10 0
11 3 5 0
10 3 11 0
7 11 5 0
12 11 7 0
8 14 9 0
13 14 8 0
15 8 10 0
13 8 15 0
16 10 11 0
15 10 16 0
12 16 11 0
17 16 12 0
14 13 18 0
13 15 19 0
18 13 19 0
20 18 19 0
21 15 16 0
19 15 21 0
17 21 16 0
22 21 17 0
20 19 23 0
19 24 23 0
21 24 19 0
21 22 24 0
27 25 26 0
27 28 25 0
29 28 27 0
30 28 29 0
25 32 26 0
31 32 25 0
33 25 28 0
31 25 33 0
30 33 28 0
34 33 30 0
31 36 32 0
35 36 31 0
37 31 33 0
35 31 37 0
34 37 33 0
38 37 34 0
35 40 36 0
39 40 35 0
41 35 37 0
39 35 41 0
38 41 37 0
42 41 38 0
39 44 40 0
43 44 39 0
45 39 41 0
43 39 45 0
42 45 41 0
46 45 42 0
43 48 44 0
47 48 43 0
49 43 45 0
47 43 49 0
50 49 45 0
51 50 45 0
46 51 45 0
52 50 51 0
47 54 48 0
53 54 47 0
55 47 49 0
53 47 55 0
56 49 50 0
55 49 56 0
52 56 50 0
57 56 52 0
53 59 54 0
58 59 53 0
60 53 55 0
58 53 60 0
61 55 56 0
60 55 61 0
57 61 56 0
62 61 57 0
58 64 59 0
63 64 58 0
65 58 60 0
63 58 65 0
66 60 61 0
65 60 66 0
62 66 61 0
67 66 62 0
63 69 64 0
68 69 63 0
70 63 65 0
68 63 70 0
71 65 66 0
70 65 71 0
67 71 66 0
72 71 67 0
1 73 69 0
2 1 69 0
68 2 69 0
68 70 2 0
2 70 4 0
70 71 4 0
4 71 6 0
72 74 7 0
71 72 7 0
6 71 7 0
1 75 73 0
9 75 1 0
12 74 76 0
7 74 12 0
9 77 75 0
14 77 9 0
17 76 78 0
12 76 17 0
77 18 79 0
14 18 77 0
79 18 80 0
80 18 20 0
22 78 81 0
17 78 22 0
83 80 20 0
82 83 20 0
23 82 20 0
84 82 24 0
24 82 23 0
22 81 85 0
24 22 85 0
84 24 85 0
88 86 87 0
82 89 86 0
83 82 86 0
88 83 86 0
89 82 84 0
90 89 84 0
91 90 84 0
84 85 91 0
86 93 87 0
92 93 86 0
94 86 89 0
92 86 94 0
90 94 89 0
95 94 90 0
98 96 97 0
92 99 96 0
93 92 96 0
98 93 96 0
100 92 94 0
99 92 100 0
95 100 94 0
101 100 95 0
96 103 97 0
102 103 96 0
104 96 99 0
102 96 104 0
105 99 100 0
104 99 105 0
101 105 100 0
106 105 101 0
103 102 107 0
102 108 107 0
104 108 102 0
104 105 109 0
108 104 109 0
110 108 109 0
106 109 105 0
111 109 106 0
110 109 112 0
109 111 112 0
115 113 114 0
115 116 113 0
117 116 115 0
118 116 117 0
121 119 120 0
121 122 119 0
123 122 121 0
123 124 122 0
125 124 123 0
113 126 124 0
114 113 124 0
125 114 124 0
127 113 116 0
126 113 127 0
118 127 116 0
128 127 118 0
119 130 120 0
129 130 119 0
131 119 122 0
129 119 131 0
132 122 124 0
131 122 132 0
133 124 126 0
132 124 133 0
134 126 127 0
133 126 134 0
128 134 127 0
135 134 128 0
129 137 130 0
136 137 129 0
138 129 131 0
136 129 138 0
139 131 132 0
138 131 139 0
140 132 133 0
139 132 140 0
141 133 134 0
140 133 141 0
135 141 134 0
142 141 135 0
136 144 137 0
143 144 136 0
145 136 138 0
143 136 145 0
146 138 139 0
145 138 146 0
147 139 140 0
146 139 147 0
148 140 141 0
147 140 148 0
142 148 141 0
149 148 142 0
143 151 144 0
150 151 143 0
152 143 145 0
150 143 152 0
153 145 146 0
152 145 153 0
154 146 147 0
153 146 154 0
155 147 148 0
154 147 155 0
149 155 148 0
156 155 149 0
150 158 151 0
157 158 150 0
159 150 152 0
157 150 159 0
160 152 153 0
159 152 160 0
161 153 154 0
160 153 161 0
162 154 155 0
161 154 162 0
156 162 155 0
163 162 156 0
157 165 158 0
164 165 157 0
166 157 159 0
164 157 166 0
167 159 160 0
166 159 167 0
168 160 161 0
167 160 168 0
169 161 162 0
168 161 169 0
163 169 162 0
170 169 163 0
165 164 171 0
164 166 172 0
171 164 172 0
173 171 172 0
174 166 167 0
172 166 174 0
175 167 168 0
174 167 175 0
176 168 169 0
175 168 176 0
170 176 169 0
177 176 170 0
173 172 178 0
172 174 179 0
178 172 179 0
180 178 179 0
181 174 175 0
179 174 181 0
181 175 176 0
182 181 176 0
183 182 176 0
176 177 183 0
26 184 180 0
27 26 180 0
179 27 180 0
179 181 27 0
27 181 29 0
182 185 30 0
181 182 30 0
29 181 30 0
26 186 184 0
32 186 26 0
34 185 187 0
30 185 34 0
32 188 186 0
36 188 32 0
38 187 189 0
34 187 38 0
36 190 188 0
40 190 36 0
42 189 191 0
38 189 42 0
40 192 190 0
44 192 40 0
46 191 193 0
42 191 46 0
44 194 192 0
48 194 44 0
195 51 193 0
193 51 46 0
196 51 195 0
52 51 196 0
48 197 194 0
54 197 48 0
57 196 198 0
52 196 57 0
54 199 197 0
59 199 54 0
62 198 200 0
57 198 62 0
59 201 199 0
64 201 59 0
67 200 202 0
62 200 67 0
64 203 201 0
69 203 64 0
72 202 204 0
67 202 72 0
69 205 203 0
73 205 69 0
74 204 206 0
72 204 74 0
73 207 205 0
75 207 73 0
76 206 208 0
74 206 76 0
75 209 207 0
77 209 75 0
78 208 210 0
76 208 78 0
212 209 77 0
211 212 77 0
79 211 77 0
80 211 79 0
81 210 213 0
78 210 81 0
211 215 212 0
214 215 211 0
80 83 211 0
211 83 214 0
85 213 216 0
81 213 85 0
87 217 215 0
88 87 215 0
214 88 215 0
214 83 88 0
218 90 91 0
85 216 219 0
91 85 219 0
218 91 219 0
87 220 217 0
93 220 87 0
95 90 221 0
221 90 218 0
219 221 218 0
222 221 219 0
224 97 223 0
98 97 224 0
98 224 93 0
93 224 220 0
225 101 95 0
225 95 221 0
225 221 226 0
221 222 226 0
97 227 223 0
103 227 97 0
106 225 228 0
101 225 106 0
230 227 103 0
229 230 103 0
107 229 103 0
231 229 108 0
108 229 107 0
110 231 108 0
111 228 232 0
106 228 111 0
230 229 233 0
229 234 233 0
231 234 229 0
112 235 234 0
110 112 234 0
231 110 234 0
111 235 112 0
232 235 111 0
238 236 237 0
238 239 236 0
240 239 238 0
240 241 115 0
239 240 115 0
114 239 115 0
242 115 241 0
117 115 242 0
243 117 242 0
118 117 243 0
121 120 244 0
245 237 244 0
237 121 244 0
237 236 121 0
236 123 121 0
236 239 123 0
123 239 125 0
239 114 125 0
128 243 246 0
118 243 128 0
120 130 247 0
244 120 247 0
248 244 247 0
248 245 244 0
135 246 249 0
128 246 135 0
130 250 247 0
137 250 130 0
142 249 251 0
135 249 142 0
137 252 250 0
144 252 137 0
149 251 253 0
142 251 149 0
144 254 252 0
151 254 144 0
156 253 255 0
149 253 156 0
151 256 254 0
158 256 151 0
163 255 257 0
156 255 163 0
158 258 256 0
165 258 158 0
170 257 259 0
163 257 170 0
258 171 260 0
165 171 258 0
260 171 261 0
261 171 173 0
177 259 262 0
170 259 177 0
261 178 263 0
173 178 261 0
263 178 264 0
264 178 180 0
265 182 183 0
177 262 266 0
183 177 266 0
265 183 266 0
180 267 264 0
184 267 180 0
268 185 182 0
268 182 265 0
268 265 269 0
265 266 269 0
184 270 267 0
186 270 184 0
187 268 271 0
185 268 187 0
186 272 270 0
188 272 186 0
189 271 273 0
187 271 189 0
188 274 272 0
190 274 188 0
191 273 275 0
189 273 191 0
190 276 274 0
192 276 190 0
193 275 277 0
191 275 193 0
192 278 276 0
194 278 192 0
193 277 280 0
193 280 279 0
193 279 195 0
195 279 196 0
194 281 278 0
197 281 194 0
280 283 279 0
279 283 282 0
279 198 196 0
282 198 279 0
197 284 281 0
199 284 197 0
285 282 283 0
286 200 198 0
285 286 198 0
282 285 198 0
199 287 284 0
201 287 199 0
202 286 288 0
200 286 202 0
201 289 287 0
203 289 201 0
204 288 290 0
202 288 204 0
203 291 289 0
205 291 203 0
206 290 292 0
204 290 206 0
205 293 291 0
207 293 205 0
208 292 294 0
206 292 208 0
207 295 293 0
209 295 207 0
210 294 296 0
208 294 210 0
209 297 295 0
212 297 209 0
213 296 298 0
210 296 213 0
212 299 297 0
215 299 212 0
216 298 300 0
213 298 216 0
215 301 299 0
217 301 215 0
219 300 302 0
216 300 219 0
217 303 301 0
220 303 217 0
222 302 304 0
219 302 222 0
224 223 305 0
306 303 220 0
306 220 224 0
306 224 305 0
307 225 226 0
222 304 308 0
226 222 308 0
307 226 308 0
223 227 309 0
305 223 309 0
310 305 309 0
310 306 305 0
311 228 225 0
311 225 307 0
311 307 312 0
307 308 312 0
227 313 309 0
230 313 227 0
232 311 314 0
228 311 232 0
313 233 315 0
230 233 313 0
315 234 316 0
233 234 315 0
316 235 317 0
234 235 316 0
232 317 235 0
314 317 232 0
319 237 318 0
238 237 319 0
320 238 319 0
240 238 320 0
321 240 320 0
241 240 321 0
322 241 321 0
242 241 322 0
323 242 322 0
243 242 323 0
237 324 318 0
245 324 237 0
246 323 325 0
243 323 246 0
327 247 326 0
248 247 327 0
248 327 245 0
245 327 324 0
249 325 328 0
246 325 249 0
247 329 326 0
250 329 247 0
251 328 330 0
249 328 251 0
250 331 329 0
252 331 250 0
253 330 332 0
251 330 253 0
252 333 331 0
254 333 252 0
255 332 334 0
253 332 255 0
254 335 333 0
256 335 254 0
257 334 336 0
255 334 257 0
256 337 335 0
258 337 256 0
259 336 338 0
257 336 259 0
340 337 258 0
339 340 258 0
260 339 258 0
261 339 260 0
262 338 341 0
259 338 262 0
340 339 342 0
263 343 342 0
261 263 342 0
339 261 342 0
343 263 344 0
344 263 264 0
266 341 345 0
262 341 266 0
264 346 344 0
267 346 264 0
347 268 348 0
348 268 269 0
266 348 269 0
345 348 266 0
267 349 346 0
270 349 267 0
271 347 350 0
268 347 271 0
270 351 349 0
272 351 270 0
273 350 352 0
271 350 273 0
272 353 351 0
274 353 272 0
275 352 354 0
273 352 275 0
274 355 353 0
276 355 274 0
277 354 356 0
275 354 277 0
276 357 355 0
278 357 276 0
280 356 358 0
277 356 280 0
278 359 357 0
281 359 278 0
283 358 360 0
280 358 283 0
281 361 359 0
284 361 281 0
283 360 363 0
283 363 362 0
283 362 285 0
285 362 286 0
284 364 361 0
287 364 284 0
365 362 363 0
366 288 286 0
365 366 286 0
362 365 286 0
287 367 364 0
289 367 287 0
290 366 368 0
288 366 290 0
289 369 367 0
291 369 289 0
292 368 370 0
290 368 292 0
291 371 369 0
293 371 291 0
294 370 372 0
292 370 294 0
293 373 371 0
295 373 293 0
296 372 374 0
294 372 296 0
295 375 373 0
297 375 295 0
298 374 376 0
296 374 298 0
297 377 375 0
299 377 297 0
300 376 378 0
298 376 300 0
299 379 377 0
301 379 299 0
302 378 380 0
300 378 302 0
301 381 379 0
303 381 301 0
304 380 382 0
302 380 304 0
303 383 381 0
306 383 303 0
308 382 384 0
304 382 308 0
310 309 385 0
386 383 306 0
386 306 310 0
386 310 385 0
387 311 312 0
308 384 388 0
312 308 388 0
387 312 388 0
389 309 313 0
385 309 389 0
385 389 386 0
386 389 390 0
314 311 391 0
391 311 387 0
388 391 387 0
392 391 388 0
389 313 315 0
315 316 393 0
389 315 393 0
390 389 393 0
393 317 394 0
316 317 393 0
395 394 317 0
391 395 317 0
314 391 317 0
391 392 395 0
319 318 396 0
398 320 319 0
397 398 319 0
396 397 319 0
399 320 398 0
321 320 399 0
322 321 399 0
400 322 399 0
401 400 399 0
322 400 323 0
318 324 402 0
396 318 402 0
403 396 402 0
403 397 396 0
404 400 401 0
405 325 323 0
404 405 323 0
400 404 323 0
407 326 406 0
327 326 407 0
327 407 324 0
324 407 402 0
328 405 408 0
325 405 328 0
326 409 406 0
329 409 326 0
330 408 410 0
328 408 330 0
329 411 409 0
331 411 329 0
332 410 412 0
330 410 332 0
331 413 411 0
333 413 331 0
334 412 414 0
332 412 334 0
333 415 413 0
335 415 333 0
336 414 416 0
334 414 336 0
335 417 415 0
337 417 335 0
338 416 418 0
336 416 338 0
337 419 417 0
340 419 337 0
341 418 420 0
338 418 341 0
419 342 421 0
340 342 419 0
421 342 343 0
421 343 422 0
421 422 423 0
344 422 343 0
345 420 424 0
341 420 345 0
423 422 425 0
344 346 426 0
344 426 425 0
344 425 422 0
427 347 428 0
428 347 348 0
345 428 348 0
424 428 345 0
346 429 426 0
349 429 346 0
350 427 430 0
347 427 350 0
349 431 429 0
351 431 349 0
352 430 432 0
350 430 352 0
351 433 431 0
353 433 351 0
354 432 434 0
352 432 354 0
353 435 433 0
355 435 353 0
356 434 436 0
354 434 356 0
355 437 435 0
357 437 355 0
358 436 438 0
356 436 358 0
357 439 437 0
359 439 357 0
360 438 440 0
358 438 360 0
359 441 439 0
361 441 359 0
363 440 442 0
360 440 363 0
361 443 441 0
364 443 361 0
363 442 445 0
363 445 444 0
363 444 365 0
365 444 366 0
364 446 443 0
367 446 364 0
447 444 445 0
448 368 366 0
447 448 366 0
444 447 366 0
367 449 446 0
369 449 367 0
370 448 450 0
368 448 370 0
369 451 449 0
371 451 369 0
372 450 452 0
370 450 372 0
371 453 451 0
373 453 371 0
374 452 454 0
372 452 374 0
373 455 453 0
375 455 373 0
376 454 456 0
374 454 376 0
375 457 455 0
377 457 375 0
378 456 458 0
376 456 378 0
377 459 457 0
379 459 377 0
380 458 460 0
378 458 380 0
379 461 459 0
381 461 379 0
382 460 462 0
380 460 382 0
381 463 461 0
383 463 381 0
384 462 464 0
382 462 384 0
383 465 463 0
386 465 383 0
388 464 466 0
384 464 388 0
386 467 465 0
390 467 386 0
392 466 468 0
388 466 392 0
467 393 469 0
390 393 467 0
469 393 394 0
469 394 470 0
469 470 471 0
472 470 395 0
395 470 394 0
392 468 473 0
395 392 473 0
472 395 473 0
470 475 471 0
474 475 470 0
474 470 472 0
476 474 472 0
477 476 472 0
472 473 477 0
475 474 478 0
474 476 478 0
480 397 479 0
398 397 480 0
481 398 480 0
399 398 481 0
482 399 481 0
401 399 482 0
484 402 483 0
403 402 484 0
403 484 397 0
397 484 479 0
485 404 482 0
482 404 401 0
486 404 485 0
405 404 486 0
488 406 487 0
407 406 488 0
407 488 402 0
402 488 483 0
408 486 489 0
405 486 408 0
406 490 487 0
409 490 406 0
410 489 491 0
408 489 410 0
409 492 490 0
411 492 409 0
412 491 493 0
410 491 412 0
411 494 492 0
413 494 411 0
414 493 495 0
412 493 414 0
413 496 494 0
415 496 413 0
416 495 497 0
414 495 416 0
415 498 496 0
417 498 415 0
418 497 499 0
416 497 418 0
417 500 498 0
419 500 417 0
420 499 501 0
418 499 420 0
500 421 502 0
419 421 500 0
502 421 503 0
503 421 423 0
424 501 504 0
420 501 424 0
503 425 505 0
423 425 503 0
505 425 506 0
506 425 426 0
507 427 508 0
508 427 428 0
424 508 428 0
504 508 424 0
426 509 506 0
429 509 426 0
430 507 510 0
427 507 430 0
509 429 431 0
512 509 431 0
511 512 431 0
511 513 512 0
512 513 514 0
432 430 510 0
513 432 510 0
514 513 510 0
515 431 433 0
511 431 515 0
515 513 511 0
516 513 515 0
513 434 432 0
516 434 513 0
517 433 435 0
515 433 517 0
517 516 515 0
518 516 517 0
516 436 434 0
518 436 516 0
519 435 437 0
517 435 519 0
519 518 517 0
520 518 519 0
518 438 436 0
520 438 518 0
437 439 521 0
519 437 521 0
522 519 521 0
522 523 519 0
519 523 520 0
524 440 438 0
523 524 438 0
520 523 438 0
439 525 521 0
441 525 439 0
442 524 526 0
440 524 442 0
441 527 525 0
443 527 441 0
445 526 528 0
442 526 445 0
443 529 527 0
446 529 443 0
445 528 531 0
445 531 530 0
445 530 447 0
447 530 448 0
446 532 529 0
449 532 446 0
533 530 531 0
534 450 448 0
533 534 448 0
530 533 448 0
449 535 532 0
451 535 449 0
452 534 536 0
450 534 452 0
451 537 535 0
453 537 451 0
454 536 538 0
452 536 454 0
453 539 537 0
455 539 453 0
456 538 540 0
454 538 456 0
455 541 539 0
457 541 455 0
458 540 542 0
456 540 458 0
457 543 541 0
459 543 457 0
460 542 544 0
458 542 460 0
459 545 543 0
461 545 459 0
462 544 546 0
460 544 462 0
461 547 545 0
463 547 461 0
464 546 548 0
462 546 464 0
547 463 465 0
550 547 465 0
549 550 465 0
549 551 550 0
550 551 552 0
552 551 553 0
466 548 554 0
464 548 466 0
555 465 467 0
549 465 555 0
555 551 549 0
556 551 555 0
551 556 553 0
553 556 557 0
468 554 558 0
466 554 468 0
555 467 469 0
559 556 555 0
471 559 555 0
469 471 555 0
556 559 560 0
556 560 561 0
556 561 557 0
473 468 558 0
560 473 558 0
561 560 558 0
562 471 475 0
559 471 562 0
560 559 562 0
477 560 562 0
476 477 562 0
477 473 560 0
562 475 478 0
478 476 562 0
480 479 563 0
481 563 564 0
480 563 481 0
481 564 482 0
566 483 565 0
484 483 566 0
484 566 567 0
484 567 563 0
484 563 479 0
567 568 563 0
563 568 564 0
568 482 564 0
568 570 482 0
570 485 482 0
569 485 570 0
485 569 486 0
572 487 571 0
488 487 572 0
488 572 483 0
483 572 565 0
573 569 570 0
574 489 486 0
573 574 486 0
569 573 486 0
487 575 571 0
490 575 487 0
491 574 576 0
489 574 491 0
490 577 575 0
492 577 490 0
493 576 578 0
491 576 493 0
492 579 577 0
494 579 492 0
495 578 580 0
493 578 495 0
494 581 579 0
496 581 494 0
497 580 582 0
495 580 497 0
496 583 581 0
498 583 496 0
499 582 584 0
497 582 499 0
498 585 583 0
500 585 498 0
501 584 586 0
499 584 501 0
585 502 587 0
500 502 585 0
587 502 588 0
588 502 503 0
504 586 589 0
501 586 504 0
588 505 590 0
503 505 588 0
590 505 591 0
591 505 506 0
592 507 508 0
504 589 593 0
508 504 593 0
592 508 593 0
506 594 591 0
509 594 506 0
595 510 507 0
595 507 592 0
595 592 596 0
592 593 596 0
594 512 597 0
509 512 594 0
597 514 598 0
512 514 597 0
510 598 514 0
595 598 510 0
600 521 599 0
522 521 600 0
523 522 600 0
601 523 600 0
602 601 600 0
523 601 524 0
521 603 599 0
525 603 521 0
604 601 602 0
605 526 524 0
604 605 524 0
601 604 524 0
525 606 603 0
527 606 525 0
528 605 607 0
526 605 528 0
527 608 606 0
529 608 527 0
531 607 609 0
528 607 531 0
529 610 608 0
532 610 529 0
531 609 612 0
531 612 611 0
531 611 533 0
533 611 534 0
532 613 610 0
535 613 532 0
614 611 612 0
615 536 534 0
614 615 534 0
611 614 534 0
535 616 613 0
537 616 535 0
538 615 617 0
536 615 538 0
537 618 616 0
539 618 537 0
540 617 619 0
538 617 540 0
539 620 618 0
541 620 539 0
542 619 621 0
540 619 542 0
541 622 620 0
543 622 541 0
544 621 623 0
542 621 544 0
543 624 622 0
545 624 543 0
546 623 625 0
544 623 546 0
545 626 624 0
547 626 545 0
548 625 627 0
546 625 548 0
626 550 628 0
547 550 626 0
628 552 629 0
550 552 628 0
629 552 630 0
630 552 553 0
554 627 631 0
548 627 554 0
630 553 557 0
633 630 557 0
632 633 557 0
558 554 631 0
632 558 631 0
633 632 631 0
632 557 561 0
561 558 632 0
635 565 634 0
566 565 635 0
636 566 635 0
567 566 636 0
637 567 636 0
568 567 637 0
638 568 637 0
570 568 638 0
640 571 639 0
572 571 640 0
572 640 565 0
565 640 634 0
641 573 638 0
638 573 570 0
642 573 641 0
574 573 642 0
571 643 639 0
575 643 571 0
576 642 644 0
574 642 576 0
575 645 643 0
577 645 575 0
578 644 646 0
576 644 578 0
577 647 645 0
579 647 577 0
580 646 648 0
578 646 580 0
579 649 647 0
581 649 579 0
582 648 650 0
580 648 582 0
581 651 649 0
583 651 581 0
584 650 652 0
582 650 584 0
583 653 651 0
585 653 583 0
586 652 654 0
584 652 586 0
653 587 655 0
585 587 653 0
655 587 656 0
656 587 588 0
589 654 657 0
586 654 589 0
656 590 658 0
588 590 656 0
658 590 659 0
659 590 591 0
593 657 660 0
589 657 593 0
591 661 659 0
594 661 591 0
662 595 663 0
663 595 596 0
593 663 596 0
660 663 593 0
661 597 664 0
594 597 661 0
664 598 665 0
597 598 664 0
595 665 598 0
662 665 595 0
600 599 666 0
600 666 602 0
667 599 603 0
666 599 667 0
666 667 668 0
602 666 668 0
604 602 668 0
604 668 605 0
669 603 606 0
667 603 669 0
669 668 667 0
670 668 669 0
668 607 605 0
670 607 668 0
606 608 671 0
669 606 671 0
672 669 671 0
672 673 669 0
669 673 670 0
674 609 607 0
673 674 607 0
670 673 607 0
608 675 671 0
610 675 608 0
612 674 676 0
609 674 612 0
610 677 675 0
613 677 610 0
612 676 679 0
612 679 678 0
612 678 614 0
614 678 615 0
613 680 677 0
616 680 613 0
681 678 679 0
682 617 615 0
681 682 615 0
678 681 615 0
616 683 680 0
618 683 616 0
619 682 684 0
617 682 619 0
618 685 683 0
620 685 618 0
621 684 686 0
619 684 621 0
620 687 685 0
622 687 620 0
623 686 688 0
621 686 623 0
687 622 624 0
690 687 624 0
689 690 624 0
689 691 690 0
690 691 692 0
691 693 692 0
692 693 694 0
625 623 688 0
693 625 688 0
694 693 688 0
695 624 626 0
689 624 695 0
695 691 689 0
696 691 695 0
696 693 691 0
697 693 696 0
693 627 625 0
697 627 693 0
695 626 628 0
628 696 695 0
629 696 628 0
698 697 696 0
630 698 696 0
629 630 696 0
697 631 627 0
698 631 697 0
698 630 633 0
633 631 698 0
700 634 699 0
635 634 700 0
701 635 700 0
636 635 701 0
702 636 701 0
637 636 702 0
703 637 702 0
638 637 703 0
705 639 704 0
640 639 705 0
640 705 634 0
634 705 699 0
706 641 703 0
703 641 638 0
707 641 706 0
642 641 707 0
639 708 704 0
643 708 639 0
644 707 709 0
642 707 644 0
643 710 708 0
645 710 643 0
646 709 711 0
644 709 646 0
645 712 710 0
647 712 645 0
648 711 713 0
646 711 648 0
647 714 712 0
649 714 647 0
650 713 715 0
648 713 650 0
649 716 714 0
651 716 649 0
652 715 717 0
650 715 652 0
651 718 716 0
653 718 651 0
654 717 719 0
652 717 654 0
721 718 653 0
720 721 653 0
655 720 653 0
656 720 655 0
657 719 722 0
654 719 657 0
721 720 723 0
658 724 723 0
656 658 723 0
720 656 723 0
724 658 725 0
725 658 659 0
660 722 726 0
657 722 660 0
659 727 725 0
661 727 659 0
728 662 729 0
729 662 663 0
660 729 663 0
726 729 660 0
727 664 730 0
661 664 727 0
730 665 731 0
664 665 730 0
662 731 665 0
728 731 662 0
733 671 732 0
672 671 733 0
673 672 733 0
734 673 733 0
735 734 733 0
673 734 674 0
671 736 732 0
675 736 671 0
737 734 735 0
738 676 674 0
737 738 674 0
734 737 674 0
675 739 736 0
677 739 675 0
679 738 740 0
676 738 679 0
677 741 739 0
680 741 677 0
742 681 740 0
740 681 679 0
743 681 742 0
682 681 743 0
680 744 741 0
683 744 680 0
684 743 745 0
682 743 684 0
683 746 744 0
685 746 683 0
686 745 747 0
684 745 686 0
685 748 746 0
687 748 685 0
688 747 749 0
686 747 688 0
748 690 750 0
687 690 748 0
750 692 751 0
690 692 750 0
751 694 752 0
692 694 751 0
688 752 694 0
749 752 688 0
700 699 753 0
755 701 700 0
754 755 700 0
753 754 700 0
756 701 755 0
702 701 756 0
757 702 756 0
703 702 757 0
705 704 758 0
753 759 760 0
753 699 759 0
699 758 759 0
705 758 699 0
760 754 753 0
761 706 757 0
757 706 703 0
706 761 763 0
707 706 763 0
762 707 763 0
764 762 763 0
765 704 708 0
758 704 765 0
758 765 759 0
759 765 766 0
767 709 707 0
767 707 762 0
767 762 768 0
762 764 768 0
708 710 769 0
765 708 769 0
770 765 769 0
770 766 765 0
711 767 771 0
709 767 711 0
710 772 769 0
712 772 710 0
713 771 773 0
711 771 713 0
712 774 772 0
714 774 712 0
715 773 775 0
713 773 715 0
714 776 774 0
716 776 714 0
717 775 777 0
715 775 717 0
716 778 776 0
718 778 716 0
719 777 779 0
717 777 719 0
718 780 778 0
721 780 718 0
722 779 781 0
719 779 722 0
780 723 782 0
721 723 780 0
782 724 783 0
723 724 782 0
783 724 784 0
784 724 725 0
726 781 785 0
722 781 726 0
725 786 784 0
727 786 725 0
787 728 729 0
726 785 788 0
729 726 788 0
787 729 788 0
786 730 789 0
727 730 786 0
789 731 790 0
730 731 789 0
791 790 731 0
787 791 731 0
728 787 731 0
787 788 791 0
733 732 792 0
733 792 735 0
793 732 736 0
792 732 793 0
792 793 794 0
735 792 794 0
737 735 794 0
737 794 738 0
736 739 795 0
793 736 795 0
796 793 795 0
796 797 793 0
793 797 794 0
798 740 738 0
797 798 738 0
794 797 738 0
739 799 795 0
741 799 739 0
800 742 798 0
798 742 740 0
801 742 800 0
743 742 801 0
741 802 799 0
744 802 741 0
745 801 803 0
743 801 745 0
744 804 802 0
746 804 744 0
747 803 805 0
745 803 747 0
746 806 804 0
748 806 746 0
749 805 807 0
747 805 749 0
806 750 808 0
748 750 806 0
808 751 809 0
750 751 808 0
809 752 810 0
751 752 809 0
749 810 752 0
807 810 749 0
755 754 811 0
756 811 812 0
755 811 756 0
756 812 757 0
760 759 813 0
811 814 815 0
811 754 814 0
754 813 814 0
760 813 754 0
815 816 811 0
811 816 812 0
816 757 812 0
816 818 757 0
818 761 757 0
817 761 818 0
763 817 819 0
761 817 763 0
763 819 764 0
820 759 766 0
813 759 820 0
813 820 814 0
814 820 821 0
822 817 818 0
822 767 817 0
822 824 767 0
824 823 767 0
817 767 819 0
819 767 768 0
825 823 824 0
764 819 768 0
827 769 826 0
770 769 827 0
770 827 828 0
770 828 820 0
770 820 766 0
828 821 820 0
829 771 767 0
829 767 823 0
829 823 830 0
823 825 830 0
769 831 826 0
772 831 769 0
773 829 832 0
771 829 773 0
772 833 831 0
774 833 772 0
775 832 834 0
773 832 775 0
774 835 833 0
776 835 774 0
777 834 836 0
775 834 777 0
776 837 835 0
778 837 776 0
779 836 838 0
777 836 779 0
778 839 837 0
780 839 778 0
781 838 840 0
779 838 781 0
839 782 841 0
780 782 839 0
841 782 783 0
841 783 842 0
841 842 843 0
784 842 783 0
785 840 844 0
781 840 785 0
843 842 845 0
784 786 846 0
784 846 845 0
784 845 842 0
788 844 847 0
785 844 788 0
846 789 848 0
786 789 846 0
848 789 790 0
848 790 849 0
848 849 850 0
790 791 852 0
790 852 851 0
790 851 849 0
788 852 791 0
847 852 788 0
850 849 853 0
849 851 853 0
855 795 854 0
796 795 855 0
856 796 855 0
797 796 856 0
857 797 856 0
798 797 857 0
795 858 854 0
799 858 795 0
859 800 857 0
857 800 798 0
860 800 859 0
801 800 860 0
799 861 858 0
802 861 799 0
803 860 862 0
801 860 803 0
802 863 861 0
804 863 802 0
805 862 864 0
803 862 805 0
804 865 863 0
806 865 804 0
807 864 866 0
805 864 807 0
865 808 867 0
806 808 865 0
867 809 868 0
808 809 867 0
868 810 869 0
809 810 868 0
807 869 810 0
866 869 807 0
871 814 870 0
815 814 871 0
872 815 871 0
816 815 872 0
873 816 872 0
818 816 873 0
814 874 870 0
821 874 814 0
875 822 873 0
873 822 818 0
876 822 875 0
824 822 876 0
877 824 876 0
825 824 877 0
827 826 878 0
880 828 827 0
879 880 827 0
878 879 827 0
828 880 821 0
821 880 874 0
881 829 830 0
825 877 882 0
830 825 882 0
881 830 882 0
826 831 883 0
878 826 883 0
884 878 883 0
884 879 878 0
832 829 885 0
885 829 881 0
882 885 881 0
886 885 882 0
831 887 883 0
833 887 831 0
888 834 832 0
888 832 885 0
888 885 889 0
885 886 889 0
833 890 887 0
835 890 833 0
836 888 891 0
834 888 836 0
835 892 890 0
837 892 835 0
838 891 893 0
836 891 838 0
837 894 892 0
839 894 837 0
840 893 895 0
838 893 840 0
897 894 839 0
896 897 839 0
841 896 839 0
843 896 841 0
844 895 898 0
840 895 844 0
897 896 899 0
845 900 899 0
843 845 899 0
896 843 899 0
900 845 901 0
901 845 846 0
847 898 902 0
844 898 847 0
904 901 846 0
903 904 846 0
848 903 846 0
850 903 848 0
905 851 906 0
906 851 852 0
847 906 852 0
902 906 847 0
903 908 904 0
907 908 903 0
903 909 907 0
903 910 909 0
850 910 903 0
853 910 850 0
851 910 853 0
905 910 851 0
908 907 911 0
907 909 911 0
913 854 912 0
855 854 913 0
914 855 913 0
856 855 914 0
915 856 914 0
857 856 915 0
854 916 912 0
858 916 854 0
917 859 915 0
915 859 857 0
918 859 917 0
860 859 918 0
858 919 916 0
861 919 858 0
862 918 920 0
860 918 862 0
861 921 919 0
863 921 861 0
864 920 922 0
862 920 864 0
863 923 921 0
865 923 863 0
866 922 924 0
864 922 866 0
923 867 925 0
865 867 923 0
925 868 926 0
867 868 925 0
926 868 869 0
926 869 927 0
926 927 928 0
866 924 929 0
869 866 929 0
927 869 929 0
927 931 928 0
930 931 927 0
929 930 927 0
932 930 929 0
931 930 933 0
930 932 933 0
871 870 934 0
872 934 935 0
871 934 872 0
872 935 873 0
870 874 936 0
934 870 936 0
937 934 936 0
937 938 934 0
934 938 935 0
938 939 875 0
938 875 873 0
938 873 935 0
876 875 939 0
940 876 939 0
941 940 939 0
876 940 877 0
943 879 942 0
880 879 943 0
880 943 874 0
874 943 936 0
944 940 941 0
945 882 877 0
944 945 877 0
940 944 877 0
884 883 946 0
947 942 879 0
947 879 884 0
947 884 946 0
886 945 948 0
882 945 886 0
949 883 887 0
946 883 949 0
946 949 947 0
947 949 950 0
951 888 889 0
886 948 952 0
889 886 952 0
951 889 952 0
887 890 953 0
949 887 953 0
954 949 953 0
954 950 949 0
955 891 888 0
955 888 951 0
955 951 956 0
951 952 956 0
890 957 953 0
892 957 890 0
893 955 958 0
891 955 893 0
892 959 957 0
894 959 892 0
895 958 960 0
893 958 895 0
894 961 959 0
897 961 894 0
898 960 962 0
895 960 898 0
961 899 963 0
897 899 961 0
963 899 900 0
963 900 964 0
963 964 965 0
901 964 900 0
902 962 966 0
898 962 902 0
965 964 967 0
901 904 968 0
901 968 967 0
901 967 964 0
969 905 906 0
902 966 970 0
906 902 970 0
969 906 970 0
904 971 968 0
908 971 904 0
972 909 910 0
973 969 974 0
973 972 969 0
972 905 969 0
910 905 972 0
969 970 974 0
976 971 908 0
975 976 908 0
911 975 908 0
972 977 975 0
972 975 911 0
972 911 909 0
973 977 972 0
978 977 973 0
976 975 979 0
975 980 979 0
977 980 975 0
977 978 980 0
983 981 982 0
984 981 983 0
986 912 985 0
913 912 986 0
914 913 986 0
914 986 982 0
914 982 981 0
988 981 984 0
988 987 981 0
987 914 981 0
915 914 987 0
989 987 988 0
912 990 985 0
916 990 912 0
917 915 987 0
989 991 918 0
987 989 918 0
917 987 918 0
916 992 990 0
919 992 916 0
920 991 993 0
918 991 920 0
919 994 992 0
921 994 919 0
922 993 995 0
920 993 922 0
998 996 997 0
994 921 923 0
994 923 996 0
994 996 998 0
924 995 999 0
922 995 924 0
1002 1000 1001 0
996 1003 1000 0
997 996 1000 0
1002 997 1000 0
1004 1003 996 0
1004 996 923 0
1004 923 925 0
1005 1004 926 0
926 1004 925 0
928 1005 926 0
929 999 1006 0
924 999 929 0
1000 1008 1001 0
1007 1008 1000 0
1007 1000 1003 0
1009 1007 1003 0
1010 1009 1003 0
1003 1011 1010 0
1004 1011 1003 0
1004 1012 1011 0
1005 1012 1004 0
928 931 1013 0
928 1013 1012 0
928 1012 1005 0
932 1006 1014 0
929 1006 932 0
1008 1007 1015 0
1007 1009 1015 0
1013 933 1016 0
931 933 1013 0
932 1016 933 0
1014 1016 932 0
1019 1017 1018 0
1020 1017 1019 0
1022 936 1021 0
937 936 1022 0
1023 937 1022 0
938 937 1023 0
939 938 1023 0
939 1023 1018 0
939 1018 1017 0
1020 1024 941 0
1017 1020 941 0
939 1017 941 0
943 942 1025 0
1026 1021 936 0
1026 936 943 0
1026 943 1025 0
1027 944 1024 0
1024 944 941 0
1028 944 1027 0
945 944 1028 0
942 947 1029 0
1025 942 1029 0
1030 1025 1029 0
1030 1026 1025 0
948 1028 1031 0
945 1028 948 0
947 1032 1029 0
950 1032 947 0
952 1031 1033 0
948 1031 952 0
954 953 1034 0
1035 1032 950 0
1035 950 954 0
1035 954 1034 0
1036 955 956 0
952 1033 1037 0
956 952 1037 0
1036 956 1037 0
953 957 1038 0
1034 953 1038 0
1039 1034 1038 0
1039 1035 1034 0
958 955 1040 0
1040 955 1036 0
1037 1040 1036 0
1041 1040 1037 0
957 1042 1038 0
959 1042 957 0
1043 960 958 0
1043 958 1040 0
1043 1040 1044 0
1040 1041 1044 0
959 1045 1042 0
961 1045 959 0
962 1043 1046 0
960 1043 962 0
1048 1045 961 0
1047 1048 961 0
963 1047 961 0
965 1047 963 0
966 1046 1049 0
962 1046 966 0
1048 1047 1050 0
1050 1051 1052 0
1050 1047 1051 0
1047 967 1051 0
965 967 1047 0
968 1051 967 0
970 1049 1053 0
966 1049 970 0
1052 1051 1054 0
968 971 1055 0
968 1055 1054 0
968 1054 1051 0
1056 973 1057 0
1057 973 974 0
970 1057 974 0
1053 1057 970 0
971 1058 1055 0
976 1058 971 0
978 1056 1059 0
973 1056 978 0
1058 979 1060 0
976 979 1058 0
1060 980 1061 0
979 980 1060 0
978 1061 980 0
1059 1061 978 0
1064 1062 1063 0
1064 1065 983 0
1062 1064 983 0
982 1062 983 0
1066 983 1065 0
984 983 1066 0
985 1067 1063 0
986 985 1063 0
1062 986 1063 0
1062 982 986 0
1068 988 1066 0
1066 988 984 0
1069 988 1068 0
989 988 1069 0
985 1070 1067 0
990 1070 985 0
991 1069 1071 0
989 1069 991 0
990 1072 1070 0
992 1072 990 0
993 1071 1073 0
991 1071 993 0
1076 1074 1075 0
1072 992 994 0
1072 994 1074 0
1072 1074 1076 0
995 1073 1077 0
993 1073 995 0
1080 1078 1079 0
1075 1078 1080 0
1075 1074 1078 0
1074 997 1078 0
998 997 1074 0
1074 994 998 0
999 1077 1081 0
995 1077 999 0
1001 1082 1079 0
1002 1001 1079 0
1078 1002 1079 0
1078 997 1002 0
1006 1081 1083 0
999 1081 1006 0
1001 1084 1082 0
1008 1084 1001 0
1085 1009 1086 0
1086 1009 1010 0
1086 1011 1087 0
1010 1011 1086 0
1087 1012 1088 0
1011 1012 1087 0
1088 1012 1089 0
1089 1012 1013 0
1014 1083 1090 0
1006 1083 1014 0
1092 1084 1008 0
1091 1092 1008 0
1015 1091 1008 0
1009 1085 1093 0
1015 1009 1093 0
1091 1015 1093 0
1089 1016 1094 0
1013 1016 1089 0
1014 1094 1016 0
1090 1094 1014 0
1092 1091 1095 0
1091 1093 1095 0
1019 1018 1096 0
1019 1096 1020 0
1022 1021 1097 0
1023 1097 1098 0
1022 1097 1023 0
1098 1099 1096 0
1023 1098 1096 0
1018 1023 1096 0
1096 1024 1020 0
1099 1024 1096 0
1021 1026 1100 0
1097 1021 1100 0
1101 1097 1100 0
1101 1102 1097 0
1097 1102 1098 0
1102 1103 1098 0
1098 1103 1099 0
1103 1104 1027 0
1103 1027 1024 0
1103 1024 1099 0
1105 1027 1104 0
1028 1027 1105 0
1107 1029 1106 0
1030 1029 1107 0
1030 1107 1026 0
1026 1107 1100 0
1031 1105 1108 0
1028 1105 1031 0
1029 1109 1106 0
1032 1109 1029 0
1033 1108 1110 0
1031 1108 1033 0
1032 1111 1109 0
1035 1111 1032 0
1037 1110 1112 0
1033 1110 1037 0
1039 1038 1113 0
1114 1111 1035 0
1114 1035 1039 0
1114 1039 1113 0
1041 1112 1115 0
1037 1112 1041 0
1116 1038 1042 0
1113 1038 1116 0
1113 1116 1114 0
1114 1116 1117 0
1118 1043 1044 0
1041 1115 1119 0
1044 1041 1119 0
1118 1044 1119 0
1042 1045 1120 0
1116 1042 1120 0
1121 1116 1120 0
1121 1117 1116 0
1122 1046 1043 0
1122 1043 1118 0
1122 1118 1123 0
1118 1119 1123 0
1045 1124 1120 0
1048 1124 1045 0
1049 1122 1125 0
1046 1122 1049 0
1127 1124 1048 0
1126 1127 1048 0
1050 1126 1048 0
1052 1126 1050 0
1053 1125 1128 0
1049 1125 1053 0
1127 1126 1129 0
1129 1130 1131 0
1129 1126 1130 0
1126 1054 1130 0
1052 1054 1126 0
1055 1130 1054 0
1132 1056 1057 0
1053 1128 1133 0
1057 1053 1133 0
1132 1057 1133 0
1131 1130 1134 0
1055 1058 1135 0
1055 1135 1134 0
1055 1134 1130 0
1059 1056 1136 0
1136 1056 1132 0
1133 1136 1132 0
1137 1136 1133 0
1135 1060 1138 0
1058 1060 1135 0
1138 1060 1061 0
1138 1061 1139 0
1138 1139 1140 0
1141 1136 1142 0
1141 1139 1136 0
1139 1059 1136 0
1061 1059 1139 0
1136 1137 1142 0
1140 1139 1143 0
1139 1141 1143 0
1146 1144 1145 0
1146 1147 1144 0
1148 1147 1146 0
1149 1147 1148 0
1063 1150 1145 0
1064 1063 1145 0
1144 1064 1145 0
1144 1147 1064 0
1064 1147 1065 0
1152 1147 1149 0
1152 1151 1147 0
1151 1065 1147 0
1066 1065 1151 0
1153 1151 1152 0
1156 1154 1155 0
1150 1063 1067 0
1150 1067 1154 0
1150 1154 1156 0
1068 1066 1151 0
1153 1157 1069 0
1151 1153 1069 0
1068 1151 1069 0
1154 1159 1155 0
1158 1159 1154 0
1067 1070 1154 0
1154 1070 1158 0
1071 1157 1160 0
1069 1157 1071 0
1158 1162 1159 0
1161 1162 1158 0
1070 1072 1158 0
1158 1072 1161 0
1073 1160 1163 0
1071 1160 1073 0
1075 1164 1162 0
1076 1075 1162 0
1161 1076 1162 0
1161 1072 1076 0
1077 1163 1165 0
1073 1163 1077 0
1167 1079 1166 0
1080 1079 1167 0
1080 1167 1075 0
1075 1167 1164 0
1081 1165 1168 0
1077 1165 1081 0
1079 1169 1166 0
1082 1169 1079 0
1083 1168 1170 0
1081 1168 1083 0
1082 1171 1169 0
1084 1171 1082 0
1172 1085 1086 0
1173 1172 1087 0
1087 1172 1086 0
1174 1173 1088 0
1088 1173 1087 0
1089 1174 1088 0
1090 1170 1175 0
1083 1170 1090 0
1084 1176 1171 0
1092 1176 1084 0
1177 1093 1085 0
1177 1085 1172 0
1177 1172 1178 0
1172 1179 1178 0
1173 1179 1172 0
1173 1180 1179 0
1174 1180 1173 0
1094 1181 1180 0
1089 1094 1180 0
1174 1089 1180 0
1090 1181 1094 0
1175 1181 1090 0
1176 1095 1182 0
1092 1095 1176 0
1093 1182 1095 0
1177 1182 1093 0
1184 1100 1183 0
1101 1100 1184 0
1185 1101 1184 0
1102 1101 1185 0
1186 1102 1185 0
1103 1102 1186 0
1104 1103 1186 0
1187 1104 1186 0
1188 1187 1186 0
1104 1187 1105 0
1190 1106 1189 0
1107 1106 1190 0
1107 1190 1100 0
1100 1190 1183 0
1191 1187 1188 0
1192 1108 1105 0
1191 1192 1105 0
1187 1191 1105 0
1106 1193 1189 0
1109 1193 1106 0
1110 1192 1194 0
