#!ascii version of 
3274 6548
-7.000000  -2.500000  10.000000  0
-7.000000  -2.000000  10.500000  0
-8.000000  -2.500000  10.000000  0
-8.000000  -2.000000  10.500000  0
-9.000000  -2.500000  10.000000  0
-9.000000  -2.000000  10.500000  0
-10.000000  -2.500000  10.000000  0
-4.000000  -2.500000  9.000000  0
-5.000000  -2.500000  9.000000  0
-6.000000  -2.500000  9.000000  0
-7.000000  -2.500000  9.000000  0
0.000000  -1.500000  25.000000  0
-1.000000  -1.500000  25.000000  0
-2.000000  -1.500000  25.000000  0
-3.000000  -1.500000  25.000000  0
-4.000000  -1.500000  25.000000  0
-5.000000  -1.500000  25.000000  0
0.500000  -1.000000  24.000000  0
0.000000  -1.000000  24.500000  0
-1.000000  -1.000000  24.500000  0
-2.000000  -1.000000  24.500000  0
-3.000000  -1.000000  24.500000  0
-4.000000  -1.000000  24.500000  0
-5.000000  -1.000000  24.500000  0
-6.000000  -1.000000  24.500000  0
-6.500000  -1.000000  24.000000  0
0.500000  -1.000000  23.000000  0
-5.500000  -1.000000  23.000000  0
-6.000000  -1.000000  23.500000  0
1.500000  -1.000000  22.000000  0
1.000000  -1.000000  22.500000  0
-5.500000  -1.000000  22.000000  0
-9.000000  -1.500000  22.000000  0
-10.000000  -1.500000  22.000000  0
-11.000000  -1.500000  22.000000  0
1.500000  -1.000000  21.000000  0
-5.500000  -1.000000  21.000000  0
-7.000000  -1.500000  21.000000  0
-8.000000  -1.500000  21.000000  0
-9.000000  -1.500000  21.000000  0
-10.000000  -1.500000  21.000000  0
-11.000000  -1.500000  21.000000  0
1.500000  -1.000000  20.000000  0
-6.000000  -1.000000  20.500000  0
-7.000000  -1.000000  20.500000  0
-8.000000  -1.000000  20.500000  0
-9.000000  -1.000000  20.500000  0
-10.000000  -1.000000  20.500000  0
-11.000000  -1.000000  20.500000  0
-12.000000  -1.000000  20.500000  0
-13.000000  -1.000000  20.500000  0
-14.000000  -1.000000  20.500000  0
-15.000000  -1.000000  20.500000  0
-16.000000  -1.000000  20.500000  0
-17.000000  -1.500000  20.000000  0
-17.000000  -1.000000  20.500000  0
-18.000000  -1.500000  20.000000  0
-18.000000  -1.000000  20.500000  0
-18.500000  -1.000000  20.000000  0
1.000000  -1.500000  19.000000  0
1.500000  -1.000000  19.000000  0
-15.000000  -1.500000  19.000000  0
-14.500000  -1.000000  19.000000  0
-15.000000  -1.000000  19.500000  0
-16.000000  -1.500000  19.000000  0
-16.000000  -1.000000  19.500000  0
-17.000000  -1.000000  19.500000  0
-18.000000  -1.000000  19.500000  0
1.000000  -1.500000  18.000000  0
1.500000  -1.000000  18.000000  0
-14.000000  -1.500000  18.000000  0
-13.500000  -1.000000  18.000000  0
-14.000000  -1.000000  18.500000  0
1.000000  -1.000000  17.500000  0
0.000000  -1.500000  17.000000  0
0.500000  -1.000000  17.000000  0
-13.000000  -1.500000  17.000000  0
-12.500000  -1.000000  17.000000  0
-13.000000  -1.000000  17.500000  0
0.500000  -1.000000  16.000000  0
-12.000000  -1.500000  16.000000  0
-11.500000  -1.000000  16.000000  0
-12.000000  -1.000000  16.500000  0
-13.000000  -1.500000  16.000000  0
0.000000  -1.000000  15.500000  0
-0.500000  -1.000000  15.000000  0
-11.500000  -1.000000  15.000000  0
-1.000000  -1.000000  14.500000  0
-1.500000  -1.000000  14.000000  0
-10.000000  -1.500000  14.000000  0
-9.500000  -1.000000  14.000000  0
-10.000000  -1.000000  14.500000  0
-11.000000  -1.500000  14.000000  0
-11.000000  -1.000000  14.500000  0
-2.000000  -1.500000  13.000000  0
-2.000000  -1.000000  13.500000  0
-2.500000  -1.000000  13.000000  0
-9.500000  -1.000000  13.000000  0
-3.000000  -1.500000  12.000000  0
-3.000000  -1.000000  12.500000  0
-4.000000  -1.500000  12.000000  0
-4.000000  -1.000000  12.500000  0
-4.500000  -1.000000  12.000000  0
-9.500000  -1.000000  12.000000  0
-3.000000  -1.500000  11.000000  0
-4.000000  -1.500000  11.000000  0
-4.500000  -1.000000  11.000000  0
-9.500000  -1.000000  11.000000  0
-5.000000  -1.000000  10.500000  0
-6.000000  -1.000000  10.500000  0
-7.000000  -1.000000  10.500000  0
-8.000000  -1.000000  10.500000  0
-9.000000  -1.000000  10.500000  0
0.500000  0.000000  24.000000  0
0.000000  0.000000  24.500000  0
-1.000000  0.000000  24.500000  0
-2.000000  0.000000  24.500000  0
-3.000000  0.000000  24.500000  0
-4.000000  0.000000  24.500000  0
-5.000000  0.000000  24.500000  0
-6.000000  0.000000  24.500000  0
-6.500000  0.000000  24.000000  0
0.500000  0.000000  23.000000  0
-5.500000  0.000000  23.000000  0
-6.000000  0.000000  23.500000  0
1.000000  -0.500000  22.000000  0
0.500000  0.000000  22.000000  0
-5.500000  0.000000  22.000000  0
1.500000  0.000000  21.000000  0
1.000000  0.000000  21.500000  0
-5.500000  0.000000  21.000000  0
1.500000  0.000000  20.000000  0
-6.000000  0.000000  20.500000  0
-7.000000  0.000000  20.500000  0
-8.000000  0.000000  20.500000  0
-9.000000  0.000000  20.500000  0
-10.000000  0.000000  20.500000  0
-11.000000  0.000000  20.500000  0
-12.000000  0.000000  20.500000  0
-13.000000  0.000000  20.500000  0
-14.000000  0.000000  20.500000  0
-15.000000  0.000000  20.500000  0
-16.000000  0.000000  20.500000  0
-17.000000  -0.500000  20.000000  0
-16.500000  0.000000  20.000000  0
-18.000000  -0.500000  20.000000  0
1.500000  0.000000  19.000000  0
-14.500000  0.000000  19.000000  0
-15.000000  0.000000  19.500000  0
-16.000000  0.000000  19.500000  0
1.500000  0.000000  18.000000  0
-13.500000  0.000000  18.000000  0
-14.000000  0.000000  18.500000  0
1.000000  -0.500000  17.000000  0
1.500000  0.000000  17.000000  0
-12.000000  -0.500000  17.000000  0
-11.500000  0.000000  17.000000  0
-12.000000  0.000000  17.500000  0
-13.000000  0.000000  17.500000  0
1.000000  -0.500000  16.000000  0
1.500000  0.000000  16.000000  0
-10.000000  -0.500000  16.000000  0
-9.500000  0.000000  16.000000  0
-10.000000  0.000000  16.500000  0
-11.000000  -0.500000  16.000000  0
-11.000000  0.000000  16.500000  0
1.000000  0.000000  15.500000  0
0.000000  0.000000  15.500000  0
-0.500000  0.000000  15.000000  0
-10.000000  -0.500000  15.000000  0
-9.500000  0.000000  15.000000  0
-11.000000  -0.500000  15.000000  0
-1.000000  0.000000  14.500000  0
-2.000000  -0.500000  14.000000  0
-2.000000  0.000000  14.500000  0
-3.000000  -0.500000  14.000000  0
-3.000000  0.000000  14.500000  0
-4.000000  -0.500000  14.000000  0
-4.000000  0.000000  14.500000  0
-4.500000  0.000000  14.000000  0
-8.000000  -0.500000  14.000000  0
-7.500000  0.000000  14.000000  0
-8.000000  0.000000  14.500000  0
-9.000000  -0.500000  14.000000  0
-9.000000  0.000000  14.500000  0
-3.000000  -0.500000  13.000000  0
-4.000000  -0.500000  13.000000  0
-4.500000  0.000000  13.000000  0
-8.000000  -0.500000  13.000000  0
-7.500000  0.000000  13.000000  0
-9.000000  -0.500000  13.000000  0
-4.000000  -0.500000  12.000000  0
-3.500000  0.000000  12.000000  0
-4.000000  0.000000  12.500000  0
-8.000000  -0.500000  12.000000  0
-7.500000  0.000000  12.000000  0
-8.500000  0.000000  12.000000  0
-9.000000  0.000000  12.500000  0
-9.500000  0.000000  12.000000  0
-4.000000  -0.500000  11.000000  0
-3.500000  0.000000  11.000000  0
-8.000000  -0.500000  11.000000  0
-7.500000  0.000000  11.000000  0
-9.000000  -0.500000  11.000000  0
-9.000000  0.000000  11.500000  0
-4.000000  0.000000  10.500000  0
-5.000000  -0.500000  10.000000  0
-4.500000  0.000000  10.000000  0
-5.500000  0.000000  10.000000  0
-6.000000  0.000000  10.500000  0
-7.000000  0.000000  10.500000  0
-5.000000  0.000000  9.500000  0
-6.000000  0.500000  25.000000  0
-5.500000  1.000000  25.000000  0
-6.000000  1.000000  25.500000  0
-7.000000  0.500000  25.000000  0
-7.000000  1.000000  25.500000  0
-7.500000  1.000000  25.000000  0
0.500000  1.000000  24.000000  0
0.000000  1.000000  24.500000  0
-1.000000  1.000000  24.500000  0
-2.000000  1.000000  24.500000  0
-3.000000  1.000000  24.500000  0
-4.000000  1.000000  24.500000  0
-5.000000  1.000000  24.500000  0
-7.000000  0.500000  24.000000  0
-7.500000  1.000000  24.000000  0
0.500000  1.000000  23.000000  0
-6.000000  0.500000  23.000000  0
-7.000000  0.500000  23.000000  0
-7.500000  1.000000  23.000000  0
0.500000  1.000000  22.000000  0
-6.000000  0.500000  22.000000  0
-6.500000  1.000000  22.000000  0
-7.000000  1.000000  22.500000  0
1.500000  1.000000  21.000000  0
1.000000  1.000000  21.500000  0
-6.000000  0.500000  21.000000  0
-7.000000  0.500000  21.000000  0
-7.000000  1.000000  21.500000  0
-7.500000  1.000000  21.000000  0
1.500000  1.000000  20.000000  0
-8.000000  1.000000  20.500000  0
-9.000000  1.000000  20.500000  0
-10.000000  1.000000  20.500000  0
-11.000000  1.000000  20.500000  0
-12.000000  1.000000  20.500000  0
-13.000000  1.000000  20.500000  0
-14.000000  1.000000  20.500000  0
-15.000000  1.000000  20.500000  0
-16.000000  0.500000  20.000000  0
-15.500000  1.000000  20.000000  0
1.500000  1.000000  19.000000  0
-14.500000  1.000000  19.000000  0
-15.000000  1.000000  19.500000  0
1.500000  1.000000  18.000000  0
-12.000000  0.500000  18.000000  0
-11.500000  1.000000  18.000000  0
-12.000000  1.000000  18.500000  0
-13.000000  0.500000  18.000000  0
-13.000000  1.000000  18.500000  0
-14.000000  1.000000  18.500000  0
1.500000  1.000000  17.000000  0
-11.500000  1.000000  17.000000  0
1.500000  1.000000  16.000000  0
-9.500000  1.000000  16.000000  0
-10.000000  1.000000  16.500000  0
-11.000000  1.000000  16.500000  0
1.000000  0.500000  15.000000  0
1.500000  1.000000  15.000000  0
0.000000  0.500000  15.000000  0
-8.000000  0.500000  15.000000  0
-7.500000  1.000000  15.000000  0
-8.000000  1.000000  15.500000  0
-9.000000  0.500000  15.000000  0
-9.000000  1.000000  15.500000  0
1.000000  1.000000  14.500000  0
0.000000  1.000000  14.500000  0
-1.000000  1.000000  14.500000  0
-2.000000  1.000000  14.500000  0
-3.000000  1.000000  14.500000  0
-4.000000  1.000000  14.500000  0
-5.000000  0.500000  14.000000  0
-5.000000  1.000000  14.500000  0
-6.000000  0.500000  14.000000  0
-6.000000  1.000000  14.500000  0
-6.500000  1.000000  14.000000  0
-7.500000  1.000000  14.000000  0
-5.000000  0.500000  13.000000  0
-6.000000  0.500000  13.000000  0
-7.000000  0.500000  13.000000  0
-7.000000  1.000000  13.500000  0
-4.000000  0.500000  12.000000  0
-5.000000  0.500000  12.000000  0
-6.000000  0.500000  12.000000  0
-7.000000  0.500000  12.000000  0
-9.000000  0.500000  12.000000  0
-4.000000  0.500000  11.000000  0
-5.000000  0.500000  11.000000  0
-6.000000  0.500000  11.000000  0
-7.000000  0.500000  11.000000  0
-5.000000  0.500000  10.000000  0
-4.000000  1.500000  25.000000  0
-3.500000  2.000000  25.000000  0
-4.000000  2.000000  25.500000  0
-5.000000  1.500000  25.000000  0
-5.000000  2.000000  25.500000  0
-6.000000  2.000000  25.500000  0
-7.000000  2.000000  25.500000  0
-7.500000  2.000000  25.000000  0
0.000000  1.500000  24.000000  0
-0.500000  2.000000  24.000000  0
-1.000000  2.000000  24.500000  0
-2.000000  2.000000  24.500000  0
-3.000000  2.000000  24.500000  0
-7.500000  2.000000  24.000000  0
0.000000  1.500000  23.000000  0
-0.500000  2.000000  23.000000  0
-7.500000  2.000000  23.000000  0
0.000000  1.500000  22.000000  0
-0.500000  2.000000  22.000000  0
-7.000000  1.500000  22.000000  0
-7.500000  2.000000  22.000000  0
1.000000  1.500000  21.000000  0
0.500000  2.000000  21.000000  0
0.000000  2.000000  21.500000  0
-7.500000  2.000000  21.000000  0
1.500000  2.000000  20.000000  0
1.000000  2.000000  20.500000  0
-8.000000  2.000000  20.500000  0
-9.000000  2.000000  20.500000  0
-10.000000  2.000000  20.500000  0
-11.000000  2.000000  20.500000  0
-12.000000  2.000000  20.500000  0
-13.000000  2.000000  20.500000  0
-14.000000  2.000000  20.500000  0
-15.000000  1.500000  20.000000  0
-14.500000  2.000000  20.000000  0
1.500000  2.000000  19.000000  0
-14.000000  1.500000  19.000000  0
-13.500000  2.000000  19.000000  0
-14.000000  2.000000  19.500000  0
1.500000  2.000000  18.000000  0
-11.500000  2.000000  18.000000  0
-12.000000  2.000000  18.500000  0
-13.000000  2.000000  18.500000  0
1.500000  2.000000  17.000000  0
-11.500000  2.000000  17.000000  0
1.500000  2.000000  16.000000  0
-8.000000  1.500000  16.000000  0
-7.500000  2.000000  16.000000  0
-8.000000  2.000000  16.500000  0
-9.000000  1.500000  16.000000  0
-9.000000  2.000000  16.500000  0
-10.000000  2.000000  16.500000  0
-11.000000  2.000000  16.500000  0
1.500000  2.000000  15.000000  0
-2.000000  1.500000  15.000000  0
-1.500000  2.000000  15.000000  0
-2.000000  2.000000  15.500000  0
-3.000000  1.500000  15.000000  0
-3.000000  2.000000  15.500000  0
-4.000000  1.500000  15.000000  0
-4.000000  2.000000  15.500000  0
-5.000000  1.500000  15.000000  0
-5.000000  2.000000  15.500000  0
-6.000000  1.500000  15.000000  0
-6.000000  2.000000  15.500000  0
-7.000000  1.500000  15.000000  0
-7.000000  2.000000  15.500000  0
1.000000  2.000000  14.500000  0
0.000000  2.000000  14.500000  0
-1.000000  2.000000  14.500000  0
-7.000000  1.500000  14.000000  0
-3.000000  2.500000  25.000000  0
-2.500000  3.000000  25.000000  0
-3.000000  3.000000  25.500000  0
-4.000000  3.000000  25.500000  0
-5.000000  3.000000  25.500000  0
-6.000000  3.000000  25.500000  0
-7.000000  3.000000  25.500000  0
-7.500000  3.000000  25.000000  0
-0.500000  3.000000  24.000000  0
-1.000000  3.000000  24.500000  0
-2.000000  3.000000  24.500000  0
-7.500000  3.000000  24.000000  0
-0.500000  3.000000  23.000000  0
-7.500000  3.000000  23.000000  0
-0.500000  3.000000  22.000000  0
-7.000000  2.500000  22.000000  0
-6.500000  3.000000  22.000000  0
-7.000000  3.000000  22.500000  0
0.000000  2.500000  21.000000  0
-0.500000  3.000000  21.000000  0
-7.000000  2.500000  21.000000  0
-6.500000  3.000000  21.000000  0
1.000000  2.500000  20.000000  0
0.500000  3.000000  20.000000  0
0.000000  3.000000  20.500000  0
-7.000000  3.000000  20.500000  0
-8.000000  3.000000  20.500000  0
-9.000000  3.000000  20.500000  0
-10.000000  3.000000  20.500000  0
-11.000000  3.000000  20.500000  0
-12.000000  3.000000  20.500000  0
-13.000000  3.000000  20.500000  0
-14.000000  3.000000  20.500000  0
-15.000000  2.500000  20.000000  0
-15.000000  3.000000  20.500000  0
-15.500000  3.000000  20.000000  0
1.000000  2.500000  19.000000  0
0.500000  3.000000  19.000000  0
-13.500000  3.000000  19.000000  0
-14.000000  3.000000  19.500000  0
-15.000000  3.000000  19.500000  0
1.500000  3.000000  18.000000  0
1.000000  3.000000  18.500000  0
-11.500000  3.000000  18.000000  0
-12.000000  3.000000  18.500000  0
-13.000000  3.000000  18.500000  0
1.500000  3.000000  17.000000  0
-11.500000  3.000000  17.000000  0
1.500000  3.000000  16.000000  0
-4.000000  2.500000  16.000000  0
-3.500000  3.000000  16.000000  0
-4.000000  3.000000  16.500000  0
-5.000000  2.500000  16.000000  0
-5.000000  3.000000  16.500000  0
-5.500000  3.000000  16.000000  0
-8.000000  2.500000  16.000000  0
-8.500000  3.000000  16.000000  0
-9.000000  3.000000  16.500000  0
-10.000000  3.000000  16.500000  0
-11.000000  3.000000  16.500000  0
1.000000  2.500000  15.000000  0
1.000000  3.000000  15.500000  0
0.000000  2.500000  15.000000  0
0.000000  3.000000  15.500000  0
-1.000000  2.500000  15.000000  0
-1.000000  3.000000  15.500000  0
-2.000000  3.000000  15.500000  0
-3.000000  3.000000  15.500000  0
-6.000000  3.000000  15.500000  0
-7.000000  3.000000  15.500000  0
-8.000000  3.000000  15.500000  0
-1.000000  3.500000  25.000000  0
-0.500000  4.000000  25.000000  0
-1.000000  4.000000  25.500000  0
-2.000000  3.500000  25.000000  0
-2.000000  4.000000  25.500000  0
-3.000000  4.000000  25.500000  0
-4.000000  4.000000  25.500000  0
-5.000000  4.000000  25.500000  0
-6.000000  4.000000  25.500000  0
-7.000000  4.000000  25.500000  0
-7.500000  4.000000  25.000000  0
-0.500000  4.000000  24.000000  0
-7.500000  4.000000  24.000000  0
-0.500000  4.000000  23.000000  0
-6.000000  3.500000  23.000000  0
-5.500000  4.000000  23.000000  0
-6.000000  4.000000  23.500000  0
-7.000000  3.500000  23.000000  0
-7.000000  4.000000  23.500000  0
-0.500000  4.000000  22.000000  0
-6.000000  3.500000  22.000000  0
-5.500000  4.000000  22.000000  0
-0.500000  4.000000  21.000000  0
-6.000000  3.500000  21.000000  0
-5.500000  4.000000  21.000000  0
0.000000  3.500000  20.000000  0
-0.500000  4.000000  20.000000  0
-6.000000  4.000000  20.500000  0
-7.000000  4.000000  20.500000  0
-8.000000  4.000000  20.500000  0
-9.000000  4.000000  20.500000  0
-10.000000  4.000000  20.500000  0
-11.000000  4.000000  20.500000  0
-12.000000  4.000000  20.500000  0
-13.000000  4.000000  20.500000  0
-14.000000  4.000000  20.500000  0
-15.000000  4.000000  20.500000  0
-15.500000  4.000000  20.000000  0
0.000000  3.500000  19.000000  0
-0.500000  4.000000  19.000000  0
-13.500000  4.000000  19.000000  0
-14.000000  4.000000  19.500000  0
-15.000000  4.000000  19.500000  0
1.000000  3.500000  18.000000  0
0.500000  4.000000  18.000000  0
0.000000  4.000000  18.500000  0
-11.500000  4.000000  18.000000  0
-12.000000  4.000000  18.500000  0
-13.000000  4.000000  18.500000  0
1.000000  3.500000  17.000000  0
0.500000  4.000000  17.000000  0
-11.500000  4.000000  17.000000  0
1.500000  4.000000  16.000000  0
1.000000  4.000000  16.500000  0
-3.000000  3.500000  16.000000  0
-2.500000  4.000000  16.000000  0
-3.000000  4.000000  16.500000  0
-4.000000  4.000000  16.500000  0
-5.000000  4.000000  16.500000  0
-6.000000  3.500000  16.000000  0
-6.000000  4.000000  16.500000  0
-6.500000  4.000000  16.000000  0
-9.000000  3.500000  16.000000  0
-9.500000  4.000000  16.000000  0
-10.000000  4.000000  16.500000  0
-11.000000  4.000000  16.500000  0
1.000000  4.000000  15.500000  0
0.000000  4.000000  15.500000  0
-1.000000  4.000000  15.500000  0
-2.000000  4.000000  15.500000  0
-7.000000  4.000000  15.500000  0
-8.000000  4.000000  15.500000  0
-9.000000  4.000000  15.500000  0
-1.000000  4.500000  26.000000  0
-0.500000  5.000000  26.000000  0
-1.000000  5.000000  26.500000  0
-2.000000  4.500000  26.000000  0
-2.000000  5.000000  26.500000  0
-2.500000  5.000000  26.000000  0
-0.500000  5.000000  25.000000  0
-3.000000  5.000000  25.500000  0
-4.000000  5.000000  25.500000  0
-5.000000  5.000000  25.500000  0
-6.000000  4.500000  25.000000  0
-5.500000  5.000000  25.000000  0
-7.000000  4.500000  25.000000  0
-0.500000  5.000000  24.000000  0
-6.000000  4.500000  24.000000  0
-5.500000  5.000000  24.000000  0
-7.000000  4.500000  24.000000  0
-0.500000  5.000000  23.000000  0
-5.500000  5.000000  23.000000  0
-0.500000  5.000000  22.000000  0
-5.500000  5.000000  22.000000  0
-0.500000  5.000000  21.000000  0
-5.500000  5.000000  21.000000  0
-0.500000  5.000000  20.000000  0
-6.000000  5.000000  20.500000  0
-7.000000  5.000000  20.500000  0
-8.000000  5.000000  20.500000  0
-9.000000  5.000000  20.500000  0
-10.000000  5.000000  20.500000  0
-11.000000  5.000000  20.500000  0
-12.000000  5.000000  20.500000  0
-13.000000  4.500000  20.000000  0
-12.500000  5.000000  20.000000  0
-14.000000  4.500000  20.000000  0
-15.000000  4.500000  20.000000  0
-0.500000  5.000000  19.000000  0
-13.000000  4.500000  19.000000  0
-12.500000  5.000000  19.000000  0
0.500000  5.000000  18.000000  0
0.000000  5.000000  18.500000  0
-12.000000  4.500000  18.000000  0
-12.500000  5.000000  18.000000  0
0.500000  5.000000  17.000000  0
-11.500000  5.000000  17.000000  0
-12.000000  5.000000  17.500000  0
1.000000  4.500000  16.000000  0
0.500000  5.000000  16.000000  0
-3.000000  4.500000  16.000000  0
-3.500000  5.000000  16.000000  0
-4.000000  5.000000  16.500000  0
-5.000000  5.000000  16.500000  0
-6.000000  5.000000  16.500000  0
-6.500000  5.000000  16.000000  0
-10.000000  4.500000  16.000000  0
-10.500000  5.000000  16.000000  0
-11.000000  5.000000  16.500000  0
1.000000  4.500000  15.000000  0
1.500000  5.000000  15.000000  0
1.000000  5.000000  15.500000  0
0.000000  4.500000  15.000000  0
-0.500000  5.000000  15.000000  0
-1.000000  5.000000  15.500000  0
-2.000000  5.000000  15.500000  0
-3.000000  5.000000  15.500000  0
-7.000000  5.000000  15.500000  0
-8.000000  5.000000  15.500000  0
-9.000000  5.000000  15.500000  0
-10.000000  5.000000  15.500000  0
1.000000  5.000000  14.500000  0
0.000000  5.000000  14.500000  0
-0.500000  6.000000  26.000000  0
-1.000000  6.000000  26.500000  0
-2.000000  6.000000  26.500000  0
-2.500000  6.000000  26.000000  0
-0.500000  6.000000  25.000000  0
-3.000000  6.000000  25.500000  0
-4.000000  6.000000  25.500000  0
-5.000000  6.000000  25.500000  0
-5.500000  6.000000  25.000000  0
-0.500000  6.000000  24.000000  0
-5.500000  6.000000  24.000000  0
-0.500000  6.000000  23.000000  0
-5.500000  6.000000  23.000000  0
-0.500000  6.000000  22.000000  0
-5.500000  6.000000  22.000000  0
-0.500000  6.000000  21.000000  0
-5.500000  6.000000  21.000000  0
-0.500000  6.000000  20.000000  0
-6.000000  6.000000  20.500000  0
-7.000000  6.000000  20.500000  0
-8.000000  6.000000  20.500000  0
-9.000000  6.000000  20.500000  0
-10.000000  6.000000  20.500000  0
-11.000000  6.000000  20.500000  0
-12.000000  6.000000  20.500000  0
-12.500000  6.000000  20.000000  0
0.000000  5.500000  19.000000  0
0.500000  6.000000  19.000000  0
0.000000  6.000000  19.500000  0
-12.500000  6.000000  19.000000  0
0.500000  6.000000  18.000000  0
-12.500000  6.000000  18.000000  0
0.500000  6.000000  17.000000  0
-11.500000  6.000000  17.000000  0
-12.000000  6.000000  17.500000  0
0.500000  6.000000  16.000000  0
-4.000000  5.500000  16.000000  0
-5.000000  5.500000  16.000000  0
-6.000000  5.500000  16.000000  0
-10.500000  6.000000  16.000000  0
-11.000000  6.000000  16.500000  0
1.500000  6.000000  15.000000  0
1.000000  6.000000  15.500000  0
-1.000000  5.500000  15.000000  0
-2.000000  5.500000  15.000000  0
-2.500000  6.000000  15.000000  0
-3.000000  6.000000  15.500000  0
-4.000000  6.000000  15.500000  0
-5.000000  6.000000  15.500000  0
-6.000000  5.500000  15.000000  0
-5.500000  6.000000  15.000000  0
-7.000000  5.500000  15.000000  0
-7.500000  6.000000  15.000000  0
-8.000000  6.000000  15.500000  0
-9.000000  6.000000  15.500000  0
-10.000000  6.000000  15.500000  0
1.000000  6.000000  14.500000  0
0.000000  6.000000  14.500000  0
-1.000000  6.000000  14.500000  0
-2.000000  6.000000  14.500000  0
-6.000000  6.000000  14.500000  0
-7.000000  6.000000  14.500000  0
-0.500000  7.000000  26.000000  0
-1.000000  7.000000  26.500000  0
-2.000000  7.000000  26.500000  0
-3.000000  6.500000  26.000000  0
-3.000000  7.000000  26.500000  0
-4.000000  6.500000  26.000000  0
-4.000000  7.000000  26.500000  0
-5.000000  6.500000  26.000000  0
-5.000000  7.000000  26.500000  0
-5.500000  7.000000  26.000000  0
-0.500000  7.000000  25.000000  0
-5.500000  7.000000  25.000000  0
-0.500000  7.000000  24.000000  0
-5.500000  7.000000  24.000000  0
-0.500000  7.000000  23.000000  0
-5.500000  7.000000  23.000000  0
-0.500000  7.000000  22.000000  0
-5.500000  7.000000  22.000000  0
-0.500000  7.000000  21.000000  0
-5.500000  7.000000  21.000000  0
-0.500000  7.000000  20.000000  0
-6.000000  7.000000  20.500000  0
-7.000000  7.000000  20.500000  0
-8.000000  7.000000  20.500000  0
-9.000000  6.500000  20.000000  0
-8.500000  7.000000  20.000000  0
-10.000000  6.500000  20.000000  0
-11.000000  6.500000  20.000000  0
-12.000000  6.500000  20.000000  0
0.000000  6.500000  19.000000  0
-0.500000  7.000000  19.000000  0
-9.000000  6.500000  19.000000  0
-8.500000  7.000000  19.000000  0
-10.000000  6.500000  19.000000  0
-11.000000  6.500000  19.000000  0
-12.000000  6.500000  19.000000  0
0.500000  7.000000  18.000000  0
0.000000  7.000000  18.500000  0
-8.000000  6.500000  18.000000  0
-7.500000  7.000000  18.000000  0
-8.000000  7.000000  18.500000  0
-9.000000  6.500000  18.000000  0
-10.000000  6.500000  18.000000  0
-11.000000  6.500000  18.000000  0
-12.000000  6.500000  18.000000  0
0.500000  7.000000  17.000000  0
-8.000000  6.500000  17.000000  0
-7.500000  7.000000  17.000000  0
-9.000000  6.500000  17.000000  0
-10.000000  6.500000  17.000000  0
-11.000000  6.500000  17.000000  0
0.500000  7.000000  16.000000  0
-8.000000  6.500000  16.000000  0
-7.500000  7.000000  16.000000  0
-9.000000  6.500000  16.000000  0
-10.000000  6.500000  16.000000  0
1.500000  7.000000  15.000000  0
1.000000  7.000000  15.500000  0
-3.000000  6.500000  15.000000  0
-4.000000  6.500000  15.000000  0
-5.000000  6.500000  15.000000  0
-7.500000  7.000000  15.000000  0
1.000000  6.500000  14.000000  0
1.500000  7.000000  14.000000  0
0.000000  6.500000  14.000000  0
-1.000000  6.500000  14.000000  0
-2.000000  6.500000  14.000000  0
-3.000000  6.500000  14.000000  0
-3.500000  7.000000  14.000000  0
-4.000000  7.000000  14.500000  0
-5.000000  7.000000  14.500000  0
-6.000000  7.000000  14.500000  0
-7.000000  7.000000  14.500000  0
1.000000  7.000000  13.500000  0
0.000000  7.000000  13.500000  0
-1.000000  7.000000  13.500000  0
-2.000000  7.000000  13.500000  0
-3.000000  7.000000  13.500000  0
-1.000000  7.500000  26.000000  0
-2.000000  7.500000  26.000000  0
-3.000000  7.500000  26.000000  0
-4.000000  7.500000  26.000000  0
-5.000000  7.500000  26.000000  0
-0.500000  8.000000  25.000000  0
-1.000000  8.000000  25.500000  0
-2.000000  8.000000  25.500000  0
-3.000000  8.000000  25.500000  0
-4.000000  8.000000  25.500000  0
-5.000000  8.000000  25.500000  0
-5.500000  8.000000  25.000000  0
-0.500000  8.000000  24.000000  0
-5.500000  8.000000  24.000000  0
-0.500000  8.000000  23.000000  0
-5.500000  8.000000  23.000000  0
-0.500000  8.000000  22.000000  0
-5.500000  8.000000  22.000000  0
-0.500000  8.000000  21.000000  0
-5.500000  8.000000  21.000000  0
-0.500000  8.000000  20.000000  0
-6.000000  8.000000  20.500000  0
-7.000000  8.000000  20.500000  0
-8.000000  8.000000  20.500000  0
-8.500000  8.000000  20.000000  0
-0.500000  8.000000  19.000000  0
-8.500000  8.000000  19.000000  0
0.000000  7.500000  18.000000  0
-0.500000  8.000000  18.000000  0
-7.500000  8.000000  18.000000  0
-8.000000  8.000000  18.500000  0
0.000000  7.500000  17.000000  0
-0.500000  8.000000  17.000000  0
-7.500000  8.000000  17.000000  0
0.500000  8.000000  16.000000  0
0.000000  8.000000  16.500000  0
-7.500000  8.000000  16.000000  0
1.500000  8.000000  15.000000  0
1.000000  8.000000  15.500000  0
-7.500000  8.000000  15.000000  0
1.500000  8.000000  14.000000  0
-4.000000  7.500000  14.000000  0
-5.000000  7.500000  14.000000  0
-6.000000  7.500000  14.000000  0
-6.500000  8.000000  14.000000  0
-7.000000  8.000000  14.500000  0
1.000000  7.500000  13.000000  0
1.500000  8.000000  13.000000  0
0.000000  7.500000  13.000000  0
-0.500000  8.000000  13.000000  0
-1.000000  8.000000  13.500000  0
-2.000000  8.000000  13.500000  0
-3.000000  8.000000  13.500000  0
-4.000000  8.000000  13.500000  0
-5.000000  8.000000  13.500000  0
-6.000000  8.000000  13.500000  0
1.000000  7.500000  12.000000  0
1.500000  8.000000  12.000000  0
0.000000  7.500000  12.000000  0
-0.500000  8.000000  12.000000  0
1.000000  8.000000  11.500000  0
0.000000  8.000000  11.500000  0
-0.500000  9.000000  25.000000  0
-1.000000  9.000000  25.500000  0
-2.000000  9.000000  25.500000  0
-3.000000  9.000000  25.500000  0
-4.000000  9.000000  25.500000  0
-5.000000  9.000000  25.500000  0
-5.500000  9.000000  25.000000  0
-0.500000  9.000000  24.000000  0
-5.500000  9.000000  24.000000  0
-0.500000  9.000000  23.000000  0
-5.500000  9.000000  23.000000  0
-0.500000  9.000000  22.000000  0
-5.500000  9.000000  22.000000  0
-0.500000  9.000000  21.000000  0
-5.500000  9.000000  21.000000  0
-0.500000  9.000000  20.000000  0
-6.000000  8.500000  20.000000  0
-5.500000  9.000000  20.000000  0
-7.000000  8.500000  20.000000  0
-8.000000  8.500000  20.000000  0
-0.500000  9.000000  19.000000  0
-6.000000  8.500000  19.000000  0
-5.500000  9.000000  19.000000  0
-7.000000  8.500000  19.000000  0
-8.000000  8.500000  19.000000  0
-0.500000  9.000000  18.000000  0
-6.000000  8.500000  18.000000  0
-5.500000  9.000000  18.000000  0
-7.000000  8.500000  18.000000  0
-0.500000  9.000000  17.000000  0
-6.000000  8.500000  17.000000  0
-5.500000  9.000000  17.000000  0
-7.000000  8.500000  17.000000  0
0.500000  9.000000  16.000000  0
0.000000  9.000000  16.500000  0
-6.000000  8.500000  16.000000  0
-5.500000  9.000000  16.000000  0
-7.000000  8.500000  16.000000  0
1.000000  8.500000  15.000000  0
0.000000  8.500000  15.000000  0
0.000000  9.000000  15.500000  0
-1.000000  8.500000  15.000000  0
-1.000000  9.000000  15.500000  0
-2.000000  8.500000  15.000000  0
-2.000000  9.000000  15.500000  0
-3.000000  8.500000  15.000000  0
-3.000000  9.000000  15.500000  0
-4.000000  8.500000  15.000000  0
-4.000000  9.000000  15.500000  0
-5.000000  8.500000  15.000000  0
-5.000000  9.000000  15.500000  0
-6.000000  8.500000  15.000000  0
-7.000000  8.500000  15.000000  0
1.000000  8.500000  14.000000  0
0.000000  8.500000  14.000000  0
-1.000000  8.500000  14.000000  0
-2.000000  8.500000  14.000000  0
-3.000000  8.500000  14.000000  0
-4.000000  8.500000  14.000000  0
-5.000000  8.500000  14.000000  0
-6.000000  8.500000  14.000000  0
1.000000  8.500000  13.000000  0
0.000000  8.500000  13.000000  0
1.000000  8.500000  12.000000  0
0.000000  8.500000  12.000000  0
1.000000  9.500000  25.000000  0
1.500000  10.000000  25.000000  0
1.000000  10.000000  25.500000  0
0.000000  9.500000  25.000000  0
0.000000  10.000000  25.500000  0
-1.000000  9.500000  25.000000  0
-0.500000  10.000000  25.000000  0
-2.000000  9.500000  25.000000  0
-3.000000  9.500000  25.000000  0
-4.000000  9.500000  25.000000  0
-5.000000  9.500000  25.000000  0
1.000000  10.000000  24.500000  0
0.000000  10.000000  24.500000  0
-0.500000  10.000000  24.000000  0
-1.000000  10.000000  24.500000  0
-2.000000  9.500000  24.000000  0
-1.500000  10.000000  24.000000  0
-3.000000  9.500000  24.000000  0
-4.000000  9.500000  24.000000  0
-5.000000  9.500000  24.000000  0
-0.500000  10.000000  23.000000  0
-2.000000  10.000000  23.500000  0
-3.000000  10.000000  23.500000  0
-4.000000  9.500000  23.000000  0
-3.500000  10.000000  23.000000  0
-5.000000  9.500000  23.000000  0
-0.500000  10.000000  22.000000  0
-4.000000  9.500000  22.000000  0
-3.500000  10.000000  22.000000  0
-5.000000  9.500000  22.000000  0
-1.000000  9.500000  21.000000  0
-1.000000  10.000000  21.500000  0
-2.000000  9.500000  21.000000  0
-2.000000  10.000000  21.500000  0
-3.000000  9.500000  21.000000  0
-3.000000  10.000000  21.500000  0
-4.000000  9.500000  21.000000  0
-5.000000  9.500000  21.000000  0
-1.000000  9.500000  20.000000  0
-2.000000  9.500000  20.000000  0
-3.000000  9.500000  20.000000  0
-4.000000  9.500000  20.000000  0
-5.000000  9.500000  20.000000  0
-1.000000  9.500000  19.000000  0
-2.000000  9.500000  19.000000  0
-3.000000  9.500000  19.000000  0
-4.000000  9.500000  19.000000  0
-5.000000  9.500000  19.000000  0
-1.000000  9.500000  18.000000  0
-2.000000  9.500000  18.000000  0
-3.000000  9.500000  18.000000  0
-4.000000  9.500000  18.000000  0
-5.000000  9.500000  18.000000  0
-0.500000  10.000000  17.000000  0
-1.000000  10.000000  17.500000  0
-2.000000  10.000000  17.500000  0
-3.000000  10.000000  17.500000  0
-4.000000  9.500000  17.000000  0
-3.500000  10.000000  17.000000  0
-5.000000  9.500000  17.000000  0
0.500000  10.000000  16.000000  0
0.000000  10.000000  16.500000  0
-4.000000  9.500000  16.000000  0
-3.500000  10.000000  16.000000  0
-5.000000  9.500000  16.000000  0
0.000000  10.000000  15.500000  0
-1.000000  10.000000  15.500000  0
-2.000000  10.000000  15.500000  0
-3.000000  10.000000  15.500000  0
1.500000  11.000000  25.000000  0
1.000000  11.000000  25.500000  0
0.000000  11.000000  25.500000  0
-0.500000  11.000000  25.000000  0
1.000000  10.500000  24.000000  0
1.500000  11.000000  24.000000  0
0.000000  10.500000  24.000000  0
-1.000000  10.500000  24.000000  0
-0.500000  11.000000  24.000000  0
1.000000  11.000000  23.500000  0
0.000000  10.500000  23.000000  0
0.500000  11.000000  23.000000  0
-1.000000  11.000000  23.500000  0
-2.000000  11.000000  23.500000  0
-3.000000  11.000000  23.500000  0
-3.500000  11.000000  23.000000  0
0.000000  10.500000  22.000000  0
0.500000  11.000000  22.000000  0
-3.500000  11.000000  22.000000  0
0.000000  11.000000  21.500000  0
-1.000000  11.000000  21.500000  0
-2.000000  11.000000  21.500000  0
-3.000000  11.000000  21.500000  0
-1.000000  10.500000  17.000000  0
-2.000000  10.500000  17.000000  0
-3.000000  10.500000  17.000000  0
0.000000  10.500000  16.000000  0
-1.000000  10.500000  16.000000  0
-2.000000  10.500000  16.000000  0
-3.000000  10.500000  16.000000  0
1.000000  11.500000  25.000000  0
0.000000  11.500000  25.000000  0
1.000000  11.500000  24.000000  0
0.000000  11.500000  24.000000  0
0.000000  11.500000  23.000000  0
-1.000000  11.500000  23.000000  0
-2.000000  11.500000  23.000000  0
-3.000000  11.500000  23.000000  0
0.000000  11.500000  22.000000  0
-1.000000  11.500000  22.000000  0
-2.000000  11.500000  22.000000  0
-3.000000  11.500000  22.000000  0
2 0 1 0
3 0 2 0
1 0 4 0
0 3 4 0
5 6 7 0
7 8 5 0
9 8 7 0
9 10 8 0
11 10 9 0
12 10 11 0
15 13 14 0
15 16 13 0
17 16 15 0
18 16 17 0
5 20 6 0
19 20 5 0
21 5 8 0
19 5 21 0
22 8 10 0
21 8 22 0
23 22 10 0
24 23 10 0
12 24 10 0
24 25 23 0
26 25 24 0
26 27 25 0
28 27 26 0
28 29 27 0
30 29 28 0
30 31 29 0
32 31 30 0
32 33 31 0
34 33 32 0
34 35 33 0
36 35 34 0
36 37 35 0
38 37 36 0
13 39 37 0
14 13 37 0
38 14 37 0
39 13 16 0
40 39 16 0
41 40 16 0
16 18 41 0
20 19 42 0
19 21 43 0
42 19 43 0
44 42 43 0
45 21 22 0
43 21 45 0
46 22 23 0
45 22 46 0
47 23 25 0
46 23 47 0
48 25 27 0
47 25 48 0
49 27 29 0
48 27 49 0
50 29 31 0
49 29 50 0
51 31 33 0
50 31 51 0
52 33 35 0
51 33 52 0
53 35 37 0
52 35 53 0
54 37 39 0
53 37 54 0
40 54 39 0
55 54 40 0
43 57 44 0
56 57 43 0
58 43 45 0
56 43 58 0
59 45 46 0
58 45 59 0
60 46 47 0
59 46 60 0
61 47 48 0
60 47 61 0
62 48 49 0
61 48 62 0
63 49 50 0
62 49 63 0
64 50 51 0
63 50 64 0
65 51 52 0
64 51 65 0
66 52 53 0
65 52 66 0
67 53 54 0
66 53 67 0
55 67 54 0
68 67 55 0
57 56 69 0
56 70 69 0
58 70 56 0
58 71 70 0
59 71 58 0
59 72 71 0
60 72 59 0
60 73 72 0
61 73 60 0
61 74 73 0
62 74 61 0
62 75 74 0
63 75 62 0
63 76 75 0
64 76 63 0
64 77 76 0
65 77 64 0
65 78 77 0
66 78 65 0
66 79 78 0
67 79 66 0
67 68 79 0
82 80 81 0
82 83 80 0
84 83 82 0
85 83 84 0
80 87 81 0
86 87 80 0
88 80 83 0
86 80 88 0
85 88 83 0
89 88 85 0
92 90 91 0
92 93 90 0
94 93 92 0
94 95 93 0
96 95 94 0
97 95 96 0
86 99 87 0
98 99 86 0
98 86 88 0
98 88 2 0
98 2 1 0
101 88 89 0
101 100 88 0
100 2 88 0
3 2 100 0
101 102 100 0
103 102 101 0
103 104 102 0
105 104 103 0
90 106 104 0
91 90 104 0
105 91 104 0
107 90 93 0
106 90 107 0
108 93 95 0
107 93 108 0
97 108 95 0
109 108 97 0
99 98 110 0
110 111 112 0
110 98 111 0
98 4 111 0
1 4 98 0
100 7 6 0
100 6 111 0
3 100 111 0
4 3 111 0
100 102 7 0
7 102 9 0
102 104 9 0
9 104 11 0
104 106 113 0
104 113 12 0
104 12 11 0
114 106 107 0
113 106 114 0
115 107 108 0
114 107 115 0
109 115 108 0
116 115 109 0
118 14 117 0
15 14 118 0
17 15 118 0
119 17 118 0
120 119 118 0
17 119 18 0
112 111 121 0
6 20 122 0
6 122 121 0
6 121 111 0
24 12 113 0
113 114 24 0
24 114 26 0
114 115 26 0
26 115 28 0
123 30 28 0
123 28 115 0
123 115 116 0
124 30 123 0
32 30 124 0
125 32 124 0
34 32 125 0
126 34 125 0
36 34 126 0
127 36 126 0
38 36 127 0
38 127 14 0
14 127 117 0
120 128 40 0
120 40 41 0
120 41 119 0
41 18 119 0
130 122 20 0
129 130 20 0
42 129 20 0
44 129 42 0
55 128 131 0
40 128 55 0
130 129 132 0
44 57 133 0
44 133 132 0
44 132 129 0
68 131 134 0
55 131 68 0
133 69 135 0
57 69 133 0
135 70 136 0
69 70 135 0
136 70 71 0
136 71 137 0
136 137 138 0
139 137 72 0
72 137 71 0
140 139 73 0
73 139 72 0
141 140 74 0
74 140 73 0
142 141 75 0
75 141 74 0
75 76 144 0
75 144 143 0
75 143 142 0
144 77 145 0
76 77 144 0
145 78 146 0
77 78 145 0
146 79 147 0
78 79 146 0
68 147 79 0
134 147 68 0
138 137 148 0
137 149 148 0
139 149 137 0
139 150 149 0
140 150 139 0
140 151 150 0
141 151 140 0
141 152 151 0
142 152 141 0
142 143 152 0
155 153 154 0
155 156 153 0
157 156 155 0
157 158 156 0
159 158 157 0
159 160 158 0
161 160 159 0
161 162 160 0
163 162 161 0
164 162 163 0
167 165 166 0
167 168 165 0
169 168 167 0
153 170 168 0
154 153 168 0
169 154 168 0
171 153 156 0
170 153 171 0
172 156 158 0
171 156 172 0
173 158 160 0
172 158 173 0
174 160 162 0
173 160 174 0
164 174 162 0
175 174 164 0
177 81 176 0
82 81 177 0
178 82 177 0
84 82 178 0
179 84 178 0
85 84 179 0
182 180 181 0
182 183 180 0
184 183 182 0
165 185 183 0
166 165 183 0
184 166 183 0
186 165 168 0
185 165 186 0
187 168 170 0
186 168 187 0
188 170 171 0
187 170 188 0
189 171 172 0
188 171 189 0
190 172 173 0
189 172 190 0
191 173 174 0
190 173 191 0
175 191 174 0
192 191 175 0
81 193 176 0
87 193 81 0
89 85 179 0
89 179 195 0
89 195 194 0
195 196 194 0
197 196 195 0
197 198 196 0
199 198 197 0
199 200 92 0
198 199 92 0
91 198 92 0
94 92 200 0
94 200 181 0
94 181 180 0
180 183 94 0
94 183 96 0
183 185 201 0
183 201 97 0
183 97 96 0
202 185 186 0
201 185 202 0
203 186 187 0
202 186 203 0
204 187 188 0
203 187 204 0
205 188 189 0
204 188 205 0
206 189 190 0
205 189 206 0
207 190 191 0
206 190 207 0
192 207 191 0
208 207 192 0
87 209 193 0
99 209 87 0
101 89 194 0
194 196 101 0
101 196 103 0
196 198 103 0
103 198 105 0
198 91 105 0
109 97 210 0
210 97 201 0
211 201 202 0
210 201 211 0
212 202 203 0
211 202 212 0
213 203 204 0
212 203 213 0
214 204 205 0
213 204 214 0
215 205 206 0
214 205 215 0
216 206 207 0
215 206 216 0
208 216 207 0
217 216 208 0
219 209 99 0
218 219 99 0
110 218 99 0
112 218 110 0
116 109 220 0
220 109 210 0
221 210 211 0
220 210 221 0
222 211 212 0
221 211 222 0
223 212 213 0
222 212 223 0
224 213 214 0
223 213 224 0
224 214 215 0
224 215 118 0
224 118 117 0
215 216 225 0
215 225 120 0
215 120 118 0
217 225 216 0
226 225 217 0
219 218 227 0
227 228 229 0
227 218 228 0
218 121 228 0
112 121 218 0
122 228 121 0
123 116 220 0
220 221 123 0
123 221 124 0
221 222 124 0
124 222 125 0
222 223 125 0
125 223 126 0
223 224 126 0
126 224 127 0
224 117 127 0
230 128 120 0
230 120 225 0
230 225 231 0
225 226 231 0
229 228 232 0
122 130 233 0
122 233 232 0
122 232 228 0
131 128 230 0
131 230 235 0
131 235 234 0
236 234 235 0
233 132 237 0
130 132 233 0
237 132 238 0
238 132 133 0
134 131 239 0
239 131 234 0
236 239 234 0
240 239 236 0
238 135 241 0
133 135 238 0
241 136 242 0
135 136 241 0
242 136 243 0
243 136 138 0
244 143 144 0
245 244 145 0
145 244 144 0
246 245 146 0
146 245 145 0
247 246 147 0
147 246 146 0
239 248 247 0
239 247 147 0
239 147 134 0
240 248 239 0
249 248 240 0
243 148 250 0
138 148 243 0
250 149 251 0
148 149 250 0
251 150 252 0
149 150 251 0
252 150 151 0
252 151 253 0
252 253 254 0
255 253 152 0
152 253 151 0
244 256 255 0
244 255 152 0
244 152 143 0
257 244 245 0
256 244 257 0
258 245 246 0
257 245 258 0
259 246 247 0
258 246 259 0
259 247 248 0
260 259 248 0
261 260 248 0
248 249 261 0
254 253 262 0
253 263 262 0
255 263 253 0
255 264 263 0
256 264 255 0
256 265 264 0
257 265 256 0
257 266 265 0
258 266 257 0
258 267 266 0
259 267 258 0
259 260 267 0
270 268 269 0
270 271 268 0
272 271 270 0
272 273 155 0
271 272 155 0
154 271 155 0
274 155 273 0
157 155 274 0
275 157 274 0
159 157 275 0
161 159 275 0
276 161 275 0
277 276 275 0
163 276 278 0
161 276 163 0
163 278 164 0
166 279 269 0
167 166 269 0
268 167 269 0
268 271 167 0
167 271 169 0
271 154 169 0
277 281 276 0
276 281 280 0
280 278 276 0
282 278 280 0
278 175 164 0
282 175 278 0
284 176 283 0
177 176 284 0
285 177 284 0
178 177 285 0
178 285 287 0
179 178 287 0
286 179 287 0
287 288 286 0
289 288 287 0
289 290 288 0
291 290 289 0
291 292 290 0
293 292 291 0
293 294 182 0
292 293 182 0
181 292 182 0
295 182 294 0
184 182 295 0
184 295 166 0
166 295 279 0
281 297 280 0
280 297 296 0
296 282 280 0
298 282 296 0
282 192 175 0
298 192 282 0
176 299 283 0
193 299 176 0
195 179 286 0
286 288 195 0
195 288 197 0
288 290 197 0
197 290 199 0
290 292 199 0
199 292 200 0
292 181 200 0
300 296 297 0
301 298 296 0
301 296 300 0
301 300 302 0
298 208 192 0
301 208 298 0
193 303 299 0
209 303 193 0
304 301 302 0
305 217 208 0
304 305 208 0
301 304 208 0
303 209 219 0
307 303 219 0
306 307 219 0
306 308 307 0
307 308 309 0
309 308 310 0
226 305 311 0
217 305 226 0
306 219 227 0
312 308 306 0
229 312 306 0
227 229 306 0
308 312 310 0
310 312 313 0
314 230 231 0
226 311 315 0
231 226 315 0
314 231 315 0
312 229 232 0
312 317 313 0
312 232 317 0
232 316 317 0
233 316 232 0
317 316 318 0
235 230 314 0
315 319 236 0
314 315 236 0
235 314 236 0
316 233 237 0
316 321 318 0
316 237 321 0
237 320 321 0
238 320 237 0
321 320 322 0
240 319 323 0
236 319 240 0
320 238 241 0
241 242 324 0
320 241 324 0
322 320 324 0
324 242 325 0
325 242 243 0
327 326 328 0
249 240 323 0
326 249 323 0
328 326 323 0
325 250 329 0
243 250 325 0
329 251 330 0
250 251 329 0
330 252 331 0
251 252 330 0
331 252 332 0
332 252 254 0
327 333 260 0
327 260 261 0
327 261 326 0
261 249 326 0
332 262 334 0
254 262 332 0
334 263 335 0
262 263 334 0
335 264 336 0
263 264 335 0
336 265 337 0
264 265 336 0
337 266 338 0
265 266 337 0
338 267 339 0
266 267 338 0
260 339 267 0
333 339 260 0
270 269 340 0
342 272 270 0
341 342 270 0
340 341 270 0
343 272 342 0
273 272 343 0
344 273 343 0
274 273 344 0
345 274 344 0
275 274 345 0
346 275 345 0
277 275 346 0
269 279 347 0
340 269 347 0
348 340 347 0
348 341 340 0
281 346 349 0
277 346 281 0
284 283 350 0
285 350 351 0
284 350 285 0
287 351 352 0
285 351 287 0
289 352 353 0
287 352 289 0
291 353 354 0
289 353 291 0
356 293 291 0
355 356 291 0
354 355 291 0
357 293 356 0
294 293 357 0
358 294 357 0
295 294 358 0
295 358 279 0
279 358 347 0
297 349 359 0
281 349 297 0
362 360 361 0
362 363 360 0
364 363 362 0
364 365 363 0
366 365 364 0
367 365 366 0
367 299 365 0
350 299 367 0
283 299 350 0
367 368 350 0
350 368 351 0
368 369 351 0
351 369 352 0
369 370 352 0
352 370 353 0
370 371 353 0
353 371 354 0
371 355 354 0
372 300 359 0
359 300 297 0
373 300 372 0
302 300 373 0
360 375 361 0
374 375 360 0
376 360 363 0
374 360 376 0
377 363 365 0
376 363 377 0
299 303 365 0
365 303 377 0
378 304 373 0
373 304 302 0
379 304 378 0
305 304 379 0
375 374 380 0
374 381 380 0
376 381 374 0
376 382 381 0
377 382 376 0
307 383 382 0
303 307 382 0
377 303 382 0
383 309 384 0
307 309 383 0
384 309 385 0
385 309 310 0
311 379 386 0
305 379 311 0
310 387 385 0
313 387 310 0
315 311 386 0
315 386 389 0
315 389 388 0
389 390 388 0
391 390 389 0
392 390 391 0
387 317 393 0
313 317 387 0
395 393 317 0
395 317 318 0
395 318 394 0
395 394 396 0
319 315 397 0
397 315 388 0
398 388 390 0
397 388 398 0
392 398 390 0
399 398 392 0
394 318 321 0
394 401 396 0
394 321 401 0
321 400 401 0
322 400 321 0
401 400 402 0
403 323 319 0
403 319 397 0
403 397 404 0
397 405 404 0
398 405 397 0
398 399 405 0
400 322 324 0
325 406 402 0
325 402 400 0
325 400 324 0
407 327 408 0
408 327 328 0
323 408 328 0
403 408 323 0
406 329 409 0
325 329 406 0
409 330 410 0
329 330 409 0
410 331 411 0
330 331 410 0
411 331 412 0
412 331 332 0
333 407 413 0
327 407 333 0
412 334 414 0
332 334 412 0
414 335 415 0
334 335 414 0
415 336 416 0
335 336 415 0
416 337 417 0
336 337 416 0
417 338 418 0
337 338 417 0
418 339 419 0
338 339 418 0
333 419 339 0
413 419 333 0
342 341 420 0
343 420 421 0
342 420 343 0
344 421 422 0
343 421 344 0
345 422 423 0
344 422 345 0
345 423 346 0
348 347 424 0
424 425 420 0
348 424 420 0
341 348 420 0
425 421 420 0
426 421 425 0
426 422 421 0
427 422 426 0
427 423 422 0
428 423 427 0
423 349 346 0
428 349 423 0
431 429 430 0
431 432 429 0
433 432 431 0
434 432 433 0
356 355 435 0
357 435 436 0
356 435 357 0
358 436 437 0
357 436 358 0
437 438 424 0
358 437 424 0
347 358 424 0
425 424 438 0
425 438 439 0
425 439 440 0
440 441 425 0
425 441 426 0
441 442 426 0
426 442 427 0
443 428 427 0
443 427 442 0
443 442 444 0
428 359 349 0
443 359 428 0
361 445 430 0
362 361 430 0
429 362 430 0
429 432 362 0
362 432 364 0
446 366 364 0
446 364 432 0
446 432 434 0
447 366 446 0
367 366 447 0
448 367 447 0
368 367 448 0
449 368 448 0
369 368 449 0
450 369 449 0
370 369 450 0
451 370 450 0
371 370 451 0
371 451 452 0
371 452 435 0
371 435 355 0
452 453 435 0
435 453 436 0
453 454 436 0
436 454 437 0
454 455 437 0
437 455 438 0
455 439 438 0
456 443 444 0
456 457 372 0
456 372 359 0
456 359 443 0
372 457 459 0
373 372 459 0
458 373 459 0
460 458 459 0
463 461 462 0
463 464 461 0
465 464 463 0
445 361 375 0
445 375 464 0
445 464 465 0
378 373 458 0
460 466 379 0
458 460 379 0
378 458 379 0
461 468 462 0
467 468 461 0
469 461 464 0
467 461 469 0
470 469 464 0
470 464 375 0
470 375 380 0
471 470 381 0
381 470 380 0
472 471 382 0
382 471 381 0
473 472 383 0
383 472 382 0
474 473 384 0
384 473 383 0
385 474 384 0
386 466 475 0
379 466 386 0
468 467 476 0
467 477 476 0
469 477 467 0
469 470 478 0
477 469 478 0
479 477 478 0
480 470 471 0
478 470 480 0
481 471 472 0
480 471 481 0
482 472 473 0
481 472 482 0
483 473 474 0
482 473 483 0
385 387 474 0
474 387 483 0
484 389 475 0
475 389 386 0
485 389 484 0
391 389 485 0
486 391 485 0
392 391 486 0
478 488 479 0
487 488 478 0
489 478 480 0
487 478 489 0
490 480 481 0
489 480 490 0
491 481 482 0
490 481 491 0
492 482 483 0
491 482 492 0
493 492 483 0
493 483 387 0
493 387 393 0
494 493 395 0
395 493 393 0
497 496 494 0
497 494 395 0
495 497 395 0
396 495 395 0
497 495 498 0
399 486 499 0
392 486 399 0
488 487 500 0
487 501 500 0
489 501 487 0
489 502 501 0
490 502 489 0
490 503 502 0
491 503 490 0
491 504 503 0
492 504 491 0
492 505 504 0
493 505 492 0
493 506 505 0
494 506 493 0
506 494 496 0
401 495 396 0
495 508 498 0
495 401 508 0
401 507 508 0
402 507 401 0
508 507 509 0
511 510 512 0
404 513 512 0
404 512 510 0
404 510 403 0
513 405 514 0
404 405 513 0
399 514 405 0
499 514 399 0
515 402 406 0
507 402 515 0
507 515 509 0
509 515 516 0
511 517 407 0
511 407 408 0
511 408 510 0
408 403 510 0
515 406 409 0
409 410 518 0
515 409 518 0
516 515 518 0
518 411 519 0
410 411 518 0
519 411 520 0
520 411 412 0
413 517 521 0
407 517 413 0
520 414 522 0
412 414 520 0
522 415 523 0
414 415 522 0
523 416 524 0
415 416 523 0
524 417 525 0
416 417 524 0
525 418 526 0
417 418 525 0
526 419 527 0
418 419 526 0
413 527 419 0
521 527 413 0
530 528 529 0
530 531 528 0
532 531 530 0
533 531 532 0
536 534 535 0
536 537 431 0
534 536 431 0
430 534 431 0
538 431 537 0
433 431 538 0
433 538 540 0
434 433 540 0
539 434 540 0
540 541 539 0
542 541 540 0
542 543 541 0
544 543 542 0
544 545 543 0
546 545 544 0
547 545 546 0
439 548 529 0
440 439 529 0
528 440 529 0
528 531 440 0
440 531 441 0
441 549 442 0
441 550 549 0
531 550 441 0
533 550 531 0
442 549 444 0
534 552 535 0
551 552 534 0
430 445 534 0
534 445 551 0
446 434 539 0
539 541 446 0
446 541 447 0
541 543 447 0
447 543 448 0
543 545 448 0
448 545 449 0
553 450 449 0
553 449 545 0
553 545 547 0
554 450 553 0
451 450 554 0
555 451 554 0
452 451 555 0
556 452 555 0
453 452 556 0
557 453 556 0
454 453 557 0
558 454 557 0
455 454 558 0
455 558 439 0
439 558 548 0
559 549 550 0
559 560 456 0
559 456 444 0
559 444 549 0
561 456 560 0
457 456 561 0
562 457 561 0
459 457 562 0
563 459 562 0
460 459 563 0
565 462 564 0
463 462 565 0
465 463 565 0
465 565 552 0
465 552 551 0
551 445 465 0
466 563 566 0
460 563 466 0
462 567 564 0
468 567 462 0
475 566 568 0
466 566 475 0
567 476 569 0
468 476 567 0
569 477 570 0
476 477 569 0
570 477 571 0
571 477 479 0
572 484 568 0
568 484 475 0
485 484 572 0
573 485 572 0
574 573 572 0
485 573 486 0
479 575 571 0
488 575 479 0
576 496 497 0
498 576 497 0
574 578 573 0
573 578 577 0
573 499 486 0
577 499 573 0
575 500 579 0
488 500 575 0
579 501 580 0
500 501 579 0
580 502 581 0
501 502 580 0
581 503 582 0
502 503 581 0
582 504 583 0
503 504 582 0
583 505 584 0
504 505 583 0
584 506 585 0
505 506 584 0
585 506 587 0
506 586 587 0
506 496 586 0
496 576 586 0
588 586 576 0
588 576 498 0
588 498 508 0
509 588 508 0
589 511 590 0
590 511 512 0
590 513 591 0
512 513 590 0
