#!ascii version of
3070 6144
319 392 321 0
393 398 394 0
397 398 393 0
399 393 395 0
397 393 399 0
320 322 395 0
395 322 399 0
400 323 396 0
396 323 321 0
401 323 400 0
324 323 401 0
402 324 401 0
325 324 402 0
397 404 398 0
403 404 397 0
405 397 399 0
403 397 405 0
322 326 399 0
399 326 405 0
327 402 406 0
325 402 327 0
403 408 404 0
407 408 403 0
409 403 405 0
407 403 409 0
326 328 405 0
405 328 409 0
329 406 410 0
327 406 329 0
407 412 408 0
411 412 407 0
413 407 409 0
411 407 413 0
328 330 409 0
409 330 413 0
331 329 410 0
331 410 415 0
331 415 414 0
416 414 415 0
412 411 417 0
411 413 418 0
417 411 418 0
419 417 418 0
330 332 413 0
413 332 418 0
333 331 414 0
420 335 333 0
420 333 414 0
420 414 416 0
421 335 420 0
336 335 421 0
418 423 419 0
422 423 418 0
332 337 418 0
418 337 422 0
339 421 424 0
336 421 339 0
423 422 425 0
337 340 426 0
337 426 425 0
337 425 422 0
342 424 427 0
339 424 342 0
340 428 426 0
343 428 340 0
344 427 429 0
342 427 344 0
428 345 430 0
343 345 428 0
430 345 431 0
431 345 346 0
347 429 432 0
344 429 347 0
346 433 431 0
348 433 346 0
349 432 434 0
347 432 349 0
348 435 433 0
350 435 348 0
351 434 436 0
349 434 351 0
435 352 437 0
350 352 435 0
437 352 438 0
438 352 353 0
354 351 436 0
354 436 440 0
354 440 439 0
441 439 440 0
353 442 438 0
355 442 353 0
356 354 443 0
443 354 439 0
441 443 439 0
444 443 441 0
446 442 355 0
445 446 355 0
357 445 355 0
358 445 357 0
447 359 356 0
447 356 443 0
447 443 448 0
443 444 448 0
445 450 446 0
449 450 445 0
358 360 445 0
445 360 449 0
361 447 451 0
359 447 361 0
449 453 450 0
452 453 449 0
360 362 449 0
449 362 452 0
363 451 454 0
361 451 363 0
453 452 455 0
457 455 456 0
455 365 456 0
455 452 365 0
452 362 365 0
457 456 458 0
459 368 454 0
454 368 363 0
460 368 459 0
369 368 460 0
456 365 370 0
456 462 458 0
456 370 462 0
370 461 462 0
372 461 370 0
462 461 463 0
375 460 464 0
369 460 375 0
461 372 376 0
376 377 465 0
461 376 465 0
463 461 465 0
465 378 466 0
377 378 465 0
375 466 378 0
464 466 375 0
468 380 467 0
381 380 468 0
469 381 468 0
383 381 469 0
470 383 469 0
385 383 470 0
471 385 470 0
387 385 471 0
472 387 471 0
388 387 472 0
380 473 467 0
390 473 380 0
392 472 474 0
388 472 392 0
390 475 473 0
394 475 390 0
396 392 474 0
396 474 477 0
396 477 476 0
478 476 477 0
394 479 475 0
398 479 394 0
400 396 476 0
480 401 400 0
480 400 476 0
480 476 478 0
481 401 480 0
402 401 481 0
398 482 479 0
404 482 398 0
406 481 483 0
402 481 406 0
404 484 482 0
408 484 404 0
410 483 485 0
406 483 410 0
408 486 484 0
412 486 408 0
487 415 485 0
485 415 410 0
488 415 487 0
416 415 488 0
486 417 489 0
412 417 486 0
489 417 490 0
490 417 419 0
491 420 488 0
488 420 416 0
492 420 491 0
421 420 492 0
419 493 490 0
423 493 419 0
424 492 494 0
421 492 424 0
493 425 495 0
423 425 493 0
495 425 496 0
496 425 426 0
427 494 497 0
424 494 427 0
426 498 496 0
428 498 426 0
429 497 499 0
427 497 429 0
498 430 500 0
428 430 498 0
500 430 501 0
501 430 431 0
432 499 502 0
429 499 432 0
431 503 501 0
433 503 431 0
434 502 504 0
432 502 434 0
433 505 503 0
435 505 433 0
436 434 504 0
436 504 507 0
436 507 506 0
508 506 507 0
505 437 509 0
435 437 505 0
509 437 510 0
510 437 438 0
440 436 506 0
508 511 441 0
506 508 441 0
440 506 441 0
438 512 510 0
442 512 438 0
444 511 513 0
441 511 444 0
442 514 512 0
446 514 442 0
515 447 448 0
444 513 516 0
448 444 516 0
515 448 516 0
446 517 514 0
450 517 446 0
518 451 447 0
518 447 515 0
518 515 519 0
515 516 519 0
450 520 517 0
453 520 450 0
454 518 521 0
451 518 454 0
520 455 522 0
453 455 520 0
522 457 523 0
455 457 522 0
523 457 524 0
524 457 458 0
525 459 521 0
521 459 454 0
526 459 525 0
460 459 526 0
528 524 458 0
527 528 458 0
462 527 458 0
463 527 462 0
464 526 529 0
460 526 464 0
527 531 528 0
530 531 527 0
532 530 527 0
532 527 463 0
532 463 465 0
533 532 466 0
466 532 465 0
464 529 534 0
466 464 534 0
533 466 534 0
531 530 535 0
530 536 535 0
532 536 530 0
532 537 536 0
533 537 532 0
533 534 537 0
539 467 538 0
468 467 539 0
540 468 539 0
469 468 540 0
541 469 540 0
470 469 541 0
542 470 541 0
471 470 542 0
543 471 542 0
472 471 543 0
467 544 538 0
473 544 467 0
474 543 545 0
472 543 474 0
473 546 544 0
475 546 473 0
547 477 545 0
545 477 474 0
477 547 549 0
478 477 549 0
548 478 549 0
550 548 549 0
475 551 546 0
479 551 475 0
480 478 548 0
550 552 481 0
548 550 481 0
480 548 481 0
479 553 551 0
482 553 479 0
483 552 554 0
481 552 483 0
482 555 553 0
484 555 482 0
485 554 556 0
483 554 485 0
484 557 555 0
486 557 484 0
558 487 556 0
556 487 485 0
559 487 558 0
488 487 559 0
557 489 560 0
486 489 557 0
560 489 561 0
561 489 490 0
488 559 563 0
488 563 562 0
488 562 491 0
491 562 492 0
490 564 561 0
493 564 490 0
565 562 563 0
566 494 492 0
565 566 492 0
562 565 492 0
568 564 493 0
567 568 493 0
495 567 493 0
496 567 495 0
497 566 569 0
494 566 497 0
568 567 570 0
496 498 571 0
496 571 570 0
496 570 567 0
499 569 572 0
497 569 499 0
571 500 573 0
498 500 571 0
573 500 574 0
574 500 501 0
502 572 575 0
499 572 502 0
574 501 503 0
577 574 503 0
576 577 503 0
577 576 578 0
504 575 579 0
502 575 504 0
580 503 505 0
576 503 580 0
576 580 578 0
578 580 581 0
582 507 579 0
579 507 504 0
583 507 582 0
508 507 583 0
580 505 509 0
510 584 581 0
510 581 580 0
510 580 509 0
511 583 585 0
508 583 511 0
510 586 584 0
512 586 510 0
513 585 587 0
511 585 513 0
512 588 586 0
514 588 512 0
516 587 589 0
513 587 516 0
514 590 588 0
517 590 514 0
591 518 592 0
592 518 519 0
516 592 519 0
589 592 516 0
517 593 590 0
520 593 517 0
521 591 594 0
518 591 521 0
593 522 595 0
520 522 593 0
595 523 596 0
522 523 595 0
596 523 597 0
597 523 524 0
521 594 599 0
521 599 598 0
521 598 525 0
525 598 526 0
524 600 597 0
528 600 524 0
601 598 599 0
602 529 526 0
601 602 526 0
598 601 526 0
600 528 531 0
604 600 531 0
603 604 531 0
604 603 605 0
534 602 606 0
529 602 534 0
603 531 535 0
535 536 607 0
603 535 607 0
605 603 607 0
607 537 608 0
536 537 607 0
534 608 537 0
606 608 534 0
611 609 610 0
611 612 609 0
613 612 611 0
613 614 612 0
615 614 613 0
615 616 614 0
617 616 615 0
618 616 617 0
538 619 610 0
539 538 610 0
609 539 610 0
609 612 539 0
539 612 540 0
612 614 540 0
540 614 541 0
614 616 541 0
541 616 542 0
618 620 543 0
616 618 543 0
542 616 543 0
538 621 619 0
544 621 538 0
545 620 622 0
543 620 545 0
544 623 621 0
546 623 544 0
624 547 622 0
622 547 545 0
625 547 624 0
549 547 625 0
626 549 625 0
550 549 626 0
546 627 623 0
551 627 546 0
552 626 628 0
550 626 552 0
551 629 627 0
553 629 551 0
554 628 630 0
552 628 554 0
553 631 629 0
555 631 553 0
556 630 632 0
554 630 556 0
555 633 631 0
557 633 555 0
634 558 632 0
632 558 556 0
635 558 634 0
559 558 635 0
633 560 636 0
557 560 633 0
636 560 637 0
637 560 561 0
563 635 638 0
559 635 563 0
561 639 637 0
564 639 561 0
640 565 638 0
638 565 563 0
641 565 640 0
566 565 641 0
564 642 639 0
568 642 564 0
569 641 643 0
566 641 569 0
642 570 644 0
568 570 642 0
644 570 645 0
645 570 571 0
572 643 646 0
569 643 572 0
645 573 647 0
571 573 645 0
647 573 648 0
648 573 574 0
575 646 649 0
572 646 575 0
648 577 650 0
574 577 648 0
650 577 651 0
651 577 578 0
579 649 652 0
575 649 579 0
578 653 651 0
581 653 578 0
654 582 652 0
652 582 579 0
655 582 654 0
583 582 655 0
581 656 653 0
584 656 581 0
585 655 657 0
583 655 585 0
584 658 656 0
586 658 584 0
587 657 659 0
585 657 587 0
586 660 658 0
588 660 586 0
589 659 661 0
587 659 589 0
588 662 660 0
590 662 588 0
663 591 664 0
664 591 592 0
589 664 592 0
661 664 589 0
590 665 662 0
593 665 590 0
594 663 666 0
591 663 594 0
668 665 593 0
667 668 593 0
595 667 593 0
669 667 596 0
596 667 595 0
597 669 596 0
599 666 670 0
594 666 599 0
667 672 668 0
671 672 667 0
673 667 669 0
671 667 673 0
597 600 669 0
669 600 673 0
599 670 675 0
599 675 674 0
599 674 601 0
601 674 602 0
672 671 676 0
671 673 677 0
676 671 677 0
678 676 677 0
679 677 673 0
679 673 600 0
679 600 604 0
605 679 604 0
680 674 675 0
681 606 602 0
680 681 602 0
674 680 602 0
678 677 682 0
677 683 682 0
679 683 677 0
683 684 685 0
683 679 684 0
679 607 684 0
605 607 679 0
686 684 608 0
608 684 607 0
606 681 687 0
608 606 687 0
686 608 687 0
685 684 688 0
684 689 688 0
686 689 684 0
686 687 689 0
692 690 691 0
692 693 690 0
694 693 692 0
694 695 693 0
696 695 694 0
696 697 695 0
698 697 696 0
699 697 698 0
610 700 691 0
611 610 691 0
690 611 691 0
690 693 611 0
611 693 613 0
693 695 613 0
613 695 615 0
695 697 615 0
615 697 617 0
699 701 618 0
697 699 618 0
617 697 618 0
610 702 700 0
619 702 610 0
620 701 703 0
618 701 620 0
619 704 702 0
621 704 619 0
622 703 705 0
620 703 622 0
621 706 704 0
623 706 621 0
707 624 705 0
705 624 622 0
708 624 707 0
625 624 708 0
709 625 708 0
626 625 709 0
623 710 706 0
627 710 623 0
628 709 711 0
626 709 628 0
627 712 710 0
629 712 627 0
630 711 713 0
628 711 630 0
629 714 712 0
631 714 629 0
632 713 715 0
630 713 632 0
631 716 714 0
633 716 631 0
717 634 715 0
715 634 632 0
718 634 717 0
635 634 718 0
720 716 633 0
719 720 633 0
636 719 633 0
637 719 636 0
638 718 721 0
635 718 638 0
720 719 722 0
637 639 723 0
637 723 722 0
637 722 719 0
638 721 725 0
638 725 724 0
638 724 640 0
640 724 641 0
639 726 723 0
642 726 639 0
725 728 724 0
724 728 727 0
724 643 641 0
727 643 724 0
726 644 729 0
642 644 726 0
729 644 730 0
730 644 645 0
731 727 728 0
732 646 643 0
731 732 643 0
727 731 643 0
730 647 733 0
645 647 730 0
733 647 734 0
734 647 648 0
649 732 735 0
646 732 649 0
734 650 736 0
648 650 734 0
736 650 737 0
737 650 651 0
652 735 738 0
649 735 652 0
651 739 737 0
653 739 651 0
740 654 738 0
738 654 652 0
654 740 742 0
655 654 742 0
741 655 742 0
743 741 742 0
653 744 739 0
656 744 653 0
657 655 745 0
745 655 741 0
743 745 741 0
746 745 743 0
656 747 744 0
658 747 656 0
659 657 748 0
748 657 745 0
746 748 745 0
749 748 746 0
658 750 747 0
660 750 658 0
661 659 751 0
751 659 748 0
749 751 748 0
752 751 749 0
660 753 750 0
662 753 660 0
754 663 755 0
755 663 664 0
756 755 664 0
751 756 664 0
661 751 664 0
751 752 756 0
662 757 753 0
665 757 662 0
666 754 758 0
663 754 666 0
665 759 757 0
668 759 665 0
670 758 760 0
666 758 670 0
668 761 759 0
672 761 668 0
675 760 762 0
670 760 675 0
761 676 763 0
672 676 761 0
763 676 764 0
764 676 678 0
765 680 762 0
762 680 675 0
766 680 765 0
681 680 766 0
764 682 767 0
678 682 764 0
767 683 768 0
682 683 767 0
768 683 769 0
769 683 685 0
687 766 770 0
681 766 687 0
769 688 771 0
685 688 769 0
771 689 772 0
688 689 771 0
687 772 689 0
770 772 687 0
774 691 773 0
692 691 774 0
775 692 774 0
694 692 775 0
776 694 775 0
696 694 776 0
777 696 776 0
698 696 777 0
778 698 777 0
699 698 778 0
691 779 773 0
700 779 691 0
701 778 780 0
699 778 701 0
700 781 779 0
702 781 700 0
703 780 782 0
701 780 703 0
702 783 781 0
704 783 702 0
705 703 782 0
705 782 785 0
705 785 784 0
786 784 785 0
704 787 783 0
706 787 704 0
707 705 784 0
707 788 708 0
707 789 788 0
784 789 707 0
786 789 784 0
708 788 709 0
706 790 787 0
710 790 706 0
791 788 789 0
792 711 709 0
791 792 709 0
788 791 709 0
710 793 790 0
712 793 710 0
713 792 794 0
711 792 713 0
712 795 793 0
714 795 712 0
715 794 796 0
713 794 715 0
714 797 795 0
716 797 714 0
798 717 796 0
796 717 715 0
799 717 798 0
718 717 799 0
716 800 797 0
720 800 716 0
721 799 801 0
718 799 721 0
800 722 802 0
720 722 800 0
802 722 803 0
803 722 723 0
725 801 804 0
721 801 725 0
723 805 803 0
726 805 723 0
728 804 806 0
725 804 728 0
805 729 807 0
726 729 805 0
807 729 808 0
808 729 730 0
809 731 806 0
806 731 728 0
810 731 809 0
732 731 810 0
808 733 811 0
730 733 808 0
811 733 812 0
812 733 734 0
735 810 813 0
732 810 735 0
812 736 814 0
734 736 812 0
814 736 815 0
815 736 737 0
738 735 813 0
738 813 817 0
738 817 816 0
818 816 817 0
737 819 815 0
739 819 737 0
740 738 816 0
820 742 740 0
820 740 816 0
820 816 818 0
821 742 820 0
743 742 821 0
739 822 819 0
744 822 739 0
746 821 823 0
743 821 746 0
744 824 822 0
747 824 744 0
749 823 825 0
746 823 749 0
747 826 824 0
750 826 747 0
752 825 827 0
749 825 752 0
830 828 829 0
826 750 753 0
826 753 828 0
826 828 830 0
831 754 832 0
832 754 755 0
832 756 833 0
755 756 832 0
752 833 756 0
827 833 752 0
836 834 835 0
828 837 834 0
829 828 834 0
836 829 834 0
753 757 828 0
828 757 837 0
758 831 838 0
754 831 758 0
834 840 835 0
839 840 834 0
841 834 837 0
839 834 841 0
757 759 837 0
837 759 841 0
760 838 842 0
758 838 760 0
840 839 843 0
839 841 844 0
843 839 844 0
845 843 844 0
759 761 841 0
841 761 844 0
762 842 846 0
760 842 762 0
844 848 845 0
847 848 844 0
849 847 844 0
849 844 761 0
849 761 763 0
764 849 763 0
762 846 851 0
762 851 850 0
762 850 765 0
765 850 766 0
848 847 852 0
847 853 852 0
849 853 847 0
767 854 853 0
764 767 853 0
849 764 853 0
854 768 855 0
767 768 854 0
855 768 856 0
856 768 769 0
851 858 850 0
850 858 857 0
850 770 766 0
857 770 850 0
856 771 859 0
769 771 856 0
859 771 772 0
858 859 772 0
857 858 772 0
772 770 857 0
861 773 860 0
774 773 861 0
862 774 861 0
775 774 862 0
863 775 862 0
776 775 863 0
864 776 863 0
777 776 864 0
865 777 864 0
778 777 865 0
773 866 860 0
779 866 773 0
780 865 867 0
778 865 780 0
870 868 869 0
866 779 781 0
866 781 868 0
866 868 870 0
782 867 871 0
780 867 782 0
868 873 869 0
872 873 868 0
781 783 868 0
868 783 872 0
874 785 871 0
871 785 782 0
875 785 874 0
786 785 875 0
872 877 873 0
876 877 872 0
783 787 872 0
872 787 876 0
789 875 878 0
786 875 789 0
876 880 877 0
879 880 876 0
787 790 876 0
876 790 879 0
881 791 878 0
878 791 789 0
882 791 881 0
792 791 882 0
879 884 880 0
883 884 879 0
790 793 879 0
879 793 883 0
794 882 885 0
792 882 794 0
883 887 884 0
886 887 883 0
793 795 883 0
883 795 886 0
796 885 888 0
794 885 796 0
886 890 887 0
889 890 886 0
795 797 886 0
886 797 889 0
891 798 888 0
888 798 796 0
892 798 891 0
799 798 892 0
890 889 893 0
797 800 894 0
797 894 893 0
797 893 889 0
801 892 895 0
799 892 801 0
894 802 896 0
800 802 894 0
896 802 897 0
897 802 803 0
804 895 898 0
801 895 804 0
897 803 805 0
900 897 805 0
899 900 805 0
900 899 901 0
806 898 902 0
804 898 806 0
899 805 807 0
808 903 901 0
808 901 899 0
808 899 807 0
806 902 905 0
806 905 904 0
806 904 809 0
809 904 810 0
903 811 906 0
808 811 903 0
906 811 907 0
907 811 812 0
908 904 905 0
909 813 810 0
908 909 810 0
904 908 810 0
907 814 910 0
812 814 907 0
910 814 911 0
911 814 815 0
912 817 909 0
909 817 813 0
913 817 912 0
818 817 913 0
815 914 911 0
819 914 815 0
915 820 913 0
913 820 818 0
916 820 915 0
821 820 916 0
819 917 914 0
822 917 819 0
823 821 916 0
823 916 919 0
823 919 918 0
920 918 919 0
822 921 917 0
824 921 822 0
825 823 922 0
922 823 918 0
920 922 918 0
923 922 920 0
824 924 921 0
826 924 824 0
827 825 925 0
925 825 922 0
923 925 922 0
926 925 923 0
928 829 927 0
830 829 928 0
830 928 826 0
826 928 924 0
929 831 832 0
832 833 931 0
832 931 930 0
832 930 929 0
932 931 833 0
925 932 833 0
827 925 833 0
925 926 932 0
934 835 933 0
836 835 934 0
836 934 829 0
829 934 927 0
838 831 935 0
935 831 929 0
930 935 929 0
936 935 930 0
835 937 933 0
840 937 835 0
938 842 838 0
938 838 935 0
938 935 939 0
935 936 939 0
937 843 940 0
840 843 937 0
940 843 941 0
941 843 845 0
846 938 942 0
842 938 846 0
941 845 848 0
944 941 848 0
943 944 848 0
944 943 945 0
947 946 948 0
851 846 942 0
946 851 942 0
948 946 942 0
943 848 852 0
852 853 949 0
943 852 949 0
945 943 949 0
949 854 950 0
853 854 949 0
950 855 951 0
854 855 950 0
855 947 951 0
855 946 947 0
856 946 855 0
952 946 856 0
946 858 851 0
952 858 946 0
952 856 859 0
859 858 952 0
954 860 953 0
861 860 954 0
955 861 954 0
862 861 955 0
956 862 955 0
863 862 956 0
957 863 956 0
864 863 957 0
958 864 957 0
865 864 958 0
860 959 953 0
866 959 860 0
867 958 960 0
865 958 867 0
962 869 961 0
870 869 962 0
870 962 866 0
866 962 959 0
871 960 963 0
867 960 871 0
869 964 961 0
873 964 869 0
965 874 963 0
963 874 871 0
966 874 965 0
875 874 966 0
873 967 964 0
877 967 873 0
878 966 968 0
875 966 878 0
877 969 967 0
880 969 877 0
970 881 968 0
968 881 878 0
971 881 970 0
882 881 971 0
880 972 969 0
884 972 880 0
885 971 973 0
882 971 885 0
884 974 972 0
887 974 884 0
888 973 975 0
885 973 888 0
887 976 974 0
890 976 887 0
977 891 975 0
975 891 888 0
978 891 977 0
892 891 978 0
976 893 979 0
890 893 976 0
979 893 980 0
980 893 894 0
895 978 981 0
892 978 895 0
980 896 982 0
894 896 980 0
982 896 983 0
983 896 897 0
898 981 984 0
895 981 898 0
983 900 985 0
897 900 983 0
985 900 986 0
986 900 901 0
902 984 987 0
898 984 902 0
901 988 986 0
903 988 901 0
905 987 989 0
902 987 905 0
988 906 990 0
903 906 988 0
990 906 991 0
991 906 907 0
992 908 989 0
989 908 905 0
993 908 992 0
909 908 993 0
991 910 994 0
907 910 991 0
994 910 995 0
995 910 911 0
996 912 993 0
993 912 909 0
997 912 996 0
913 912 997 0
911 998 995 0
914 998 911 0
999 915 997 0
997 915 913 0
1000 915 999 0
916 915 1000 0
914 1001 998 0
917 1001 914 0
1002 919 1000 0
1000 919 916 0
1003 919 1002 0
920 919 1003 0
917 1004 1001 0
921 1004 917 0
923 1003 1005 0
920 1003 923 0
1008 1006 1007 0
1004 921 924 0
1004 924 1006 0
1004 1006 1008 0
926 1005 1009 0
923 1005 926 0
1012 1010 1011 0
1007 1010 1012 0
1007 1006 1010 0
1006 927 1010 0
928 927 1006 0
1006 924 928 0
1013 930 931 0
931 932 1015 0
931 1015 1014 0
931 1014 1013 0
926 1015 932 0
1009 1015 926 0
933 1016 1011 0
934 933 1011 0
1010 934 1011 0
1010 927 934 0
1017 936 930 0
1017 930 1013 0
1017 1013 1018 0
1013 1014 1018 0
933 1019 1016 0
937 1019 933 0
1021 1020 1022 0
1020 1023 1022 0
1022 1023 1024 0
939 1025 1024 0
939 1024 1023 0
939 1023 938 0
936 1025 939 0
1017 1025 936 0
1019 940 1026 0
937 940 1019 0
1028 1026 940 0
1028 940 941 0
1028 941 1027 0
1027 1029 1028 0
1028 1029 1030 0
1029 1031 1030 0
1030 1031 1032 0
1031 1033 1020 0
1031 1020 1021 0
1031 1021 1032 0
1033 1023 1020 0
1034 1023 1033 0
1023 942 938 0
1034 942 1023 0
1027 941 944 0
1035 1029 1027 0
945 1035 1027 0
944 945 1027 0
1035 1031 1029 0
1036 1031 1035 0
1036 1033 1031 0
1037 1033 1036 0
1034 1033 1037 0
948 1034 1037 0
947 948 1037 0
948 942 1034 0
1035 945 949 0
949 1036 1035 0
950 1036 949 0
950 1037 1036 0
951 1037 950 0
951 947 1037 0
954 953 1038 0
1040 955 954 0
1039 1040 954 0
1038 1039 954 0
1041 955 1040 0
956 955 1041 0
1042 956 1041 0
957 956 1042 0
1043 957 1042 0
958 957 1043 0
953 959 1044 0
1038 953 1044 0
1045 1038 1044 0
1045 1039 1038 0
960 1043 1046 0
958 1043 960 0
1048 961 1047 0
962 961 1048 0
962 1048 959 0
959 1048 1044 0
963 1046 1049 0
960 1046 963 0
961 1050 1047 0
964 1050 961 0
1051 965 1049 0
1049 965 963 0
1052 965 1051 0
966 965 1052 0
964 1053 1050 0
967 1053 964 0
968 1052 1054 0
966 1052 968 0
1057 1055 1056 0
1053 967 969 0
1053 969 1055 0
1053 1055 1057 0
1058 970 1054 0
1054 970 968 0
1059 970 1058 0
971 970 1059 0
1055 1061 1056 0
1060 1061 1055 0
969 972 1055 0
1055 972 1060 0
973 1059 1062 0
971 1059 973 0
1061 1060 1063 0
972 974 1064 0
972 1064 1063 0
972 1063 1060 0
975 1062 1065 0
973 1062 975 0
974 1066 1064 0
976 1066 974 0
1067 977 1065 0
1065 977 975 0
1068 977 1067 0
978 977 1068 0
1066 979 1069 0
976 979 1066 0
1069 979 1070 0
1070 979 980 0
981 1068 1071 0
978 1068 981 0
1070 982 1072 0
980 982 1070 0
1072 982 1073 0
1073 982 983 0
984 1071 1074 0
981 1071 984 0
1073 985 1075 0
983 985 1073 0
1075 985 1076 0
1076 985 986 0
987 1074 1077 0
984 1074 987 0
986 1078 1076 0
988 1078 986 0
989 1077 1079 0
987 1077 989 0
1078 990 1080 0
988 990 1078 0
1080 990 1081 0
1081 990 991 0
1082 992 1079 0
1079 992 989 0
1083 992 1082 0
993 992 1083 0
1081 994 1084 0
991 994 1081 0
1084 994 1085 0
1085 994 995 0
1086 996 1083 0
1083 996 993 0
1087 996 1086 0
997 996 1087 0
995 1088 1085 0
998 1088 995 0
1089 999 1087 0
1087 999 997 0
1090 999 1089 0
1000 999 1090 0
998 1091 1088 0
1001 1091 998 0
1092 1002 1090 0
1090 1002 1000 0
1093 1002 1092 0
1003 1002 1093 0
1001 1094 1091 0
1004 1094 1001 0
1005 1093 1095 0
1003 1093 1005 0
1097 1007 1096 0
1008 1007 1097 0
1008 1097 1004 0
1004 1097 1094 0
1009 1095 1098 0
1005 1095 1009 0
1100 1011 1099 0
1012 1011 1100 0
1012 1100 1007 0
1007 1100 1096 0
1101 1014 1102 0
1102 1014 1015 0
1009 1102 1015 0
1098 1102 1009 0
1011 1103 1099 0
1016 1103 1011 0
1104 1017 1105 0
1105 1017 1018 0
1014 1105 1018 0
1101 1105 1014 0
1016 1106 1103 0
1019 1106 1016 0
1107 1021 1108 0
1108 1021 1022 0
1108 1024 1109 0
1022 1024 1108 0
1109 1025 1110 0
1024 1025 1109 0
1017 1110 1025 0
1104 1110 1017 0
1106 1026 1111 0
1019 1026 1106 0
1111 1028 1112 0
1026 1028 1111 0
1112 1030 1113 0
1028 1030 1112 0
1113 1032 1114 0
1030 1032 1113 0
1021 1114 1032 0
1107 1114 1021 0
1116 1039 1115 0
1040 1039 1116 0
1117 1040 1116 0
1041 1040 1117 0
1118 1041 1117 0
1042 1041 1118 0
1119 1042 1118 0
1043 1042 1119 0
1121 1044 1120 0
1045 1044 1121 0
1045 1121 1039 0
1039 1121 1115 0
1046 1119 1122 0
1043 1119 1046 0
1124 1047 1123 0
1048 1047 1124 0
1048 1124 1044 0
1044 1124 1120 0
1049 1122 1125 0
1046 1122 1049 0
1047 1126 1123 0
1050 1126 1047 0
1127 1051 1125 0
1125 1051 1049 0
1128 1051 1127 0
1052 1051 1128 0
1050 1129 1126 0
1053 1129 1050 0
1054 1128 1130 0
1052 1128 1054 0
1132 1056 1131 0
1057 1056 1132 0
1057 1132 1053 0
1053 1132 1129 0
1133 1058 1130 0
1130 1058 1054 0
1134 1058 1133 0
1059 1058 1134 0
1056 1135 1131 0
1061 1135 1056 0
1062 1134 1136 0
1059 1134 1062 0
1138 1135 1061 0
1137 1138 1061 0
1063 1137 1061 0
1064 1137 1063 0
1065 1136 1139 0
1062 1136 1065 0
1137 1141 1138 0
1140 1141 1137 0
1064 1066 1137 0
1137 1066 1140 0
1142 1067 1139 0
1139 1067 1065 0
1143 1067 1142 0
1068 1067 1143 0
1141 1140 1144 0
1069 1145 1144 0
1066 1069 1144 0
1140 1066 1144 0
1145 1069 1146 0
1146 1069 1070 0
1071 1143 1147 0
1068 1143 1071 0
1146 1072 1148 0
1070 1072 1146 0
1148 1072 1149 0
1149 1072 1073 0
1074 1147 1150 0
1071 1147 1074 0
1149 1075 1151 0
1073 1075 1149 0
1151 1075 1152 0
1152 1075 1076 0
1077 1150 1153 0
1074 1150 1077 0
1076 1154 1152 0
1078 1154 1076 0
1079 1153 1155 0
1077 1153 1079 0
1154 1080 1156 0
1078 1080 1154 0
1156 1080 1157 0
1157 1080 1081 0
1158 1082 1155 0
1155 1082 1079 0
1159 1082 1158 0
1083 1082 1159 0
1161 1157 1081 0
1160 1161 1081 0
1084 1160 1081 0
1085 1160 1084 0
1162 1086 1159 0
1159 1086 1083 0
1086 1162 1164 0
1087 1086 1164 0
1163 1087 1164 0
1165 1163 1164 0
1160 1167 1161 0
1166 1167 1160 0
1085 1088 1160 0
1160 1088 1166 0
1089 1087 1163 0
1169 1163 1165 0
1169 1168 1163 0
1168 1089 1163 0
1090 1089 1168 0
1170 1168 1169 0
1166 1172 1167 0
1171 1172 1166 0
1088 1091 1166 0
1166 1091 1171 0
1092 1090 1168 0
1170 1173 1093 0
1168 1170 1093 0
1092 1168 1093 0
1171 1175 1172 0
1174 1175 1171 0
1091 1094 1171 0
1171 1094 1174 0
1095 1173 1176 0
1093 1173 1095 0
1096 1177 1175 0
1097 1096 1175 0
1174 1097 1175 0
1174 1094 1097 0
1098 1176 1178 0
1095 1176 1098 0
1180 1099 1179 0
1100 1099 1180 0
1100 1180 1096 0
1096 1180 1177 0
1181 1101 1182 0
1182 1101 1102 0
1098 1182 1102 0
1178 1182 1098 0
1099 1183 1179 0
1103 1183 1099 0
1185 1184 1186 0
1184 1187 1186 0
1186 1187 1188 0
1105 1189 1188 0
1105 1188 1187 0
1105 1187 1104 0
1101 1189 1105 0
1181 1189 1101 0
1183 1103 1106 0
1191 1183 1106 0
1190 1191 1106 0
1190 1192 1191 0
1191 1192 1193 0
1193 1192 1194 0
1195 1107 1196 0
1196 1107 1108 0
1196 1108 1109 0
1185 1196 1109 0
1184 1185 1109 0
1109 1187 1184 0
1110 1187 1109 0
1110 1104 1187 0
1190 1106 1111 0
1111 1192 1190 0
1112 1192 1111 0
1112 1113 1197 0
1192 1112 1197 0
1194 1192 1197 0
1197 1114 1198 0
1113 1114 1197 0
1107 1198 1114 0
1195 1198 1107 0
1200 1115 1199 0
1116 1115 1200 0
1201 1116 1200 0
1117 1116 1201 0
1202 1117 1201 0
1118 1117 1202 0
1203 1118 1202 0
1119 1118 1203 0
1206 1204 1205 0
1206 1207 1204 0
1208 1207 1206 0
1208 1209 1121 0
1207 1208 1121 0
1120 1207 1121 0
1121 1209 1115 0
1115 1209 1199 0
1122 1203 1210 0
1119 1203 1122 0
1204 1212 1205 0
1211 1212 1204 0
1211 1204 1207 0
1211 1207 1124 0
1211 1124 1123 0
1207 1120 1124 0
1125 1122 1210 0
1125 1210 1214 0
1125 1214 1213 0
1215 1213 1214 0
1211 1217 1212 0
1216 1217 1211 0
1123 1126 1211 0
1211 1126 1216 0
1127 1125 1213 0
1215 1218 1128 0
1213 1215 1128 0
1127 1213 1128 0
1216 1220 1217 0
1219 1220 1216 0
1126 1129 1216 0
1216 1129 1219 0
1130 1218 1221 0
1128 1218 1130 0
1131 1222 1220 0
1132 1131 1220 0
1219 1132 1220 0
1219 1129 1132 0
1223 1133 1221 0
1221 1133 1130 0
1224 1133 1223 0
1134 1133 1224 0
1131 1225 1222 0
1135 1225 1131 0
1136 1224 1226 0
1134 1224 1136 0
1135 1227 1225 0
1138 1227 1135 0
1139 1226 1228 0
1136 1226 1139 0
1138 1229 1227 0
1141 1229 1138 0
1230 1142 1228 0
1228 1142 1139 0
1231 1142 1230 0
1143 1142 1231 0
1229 1144 1232 0
1141 1144 1229 0
1232 1145 1233 0
1144 1145 1232 0
1233 1145 1234 0
1234 1145 1146 0
1147 1231 1235 0
1143 1231 1147 0
1237 1234 1146 0
1236 1237 1146 0
1148 1236 1146 0
1149 1236 1148 0
1150 1235 1238 0
1147 1235 1150 0
1237 1236 1239 0
1151 1240 1239 0
1149 1151 1239 0
1236 1149 1239 0
1240 1151 1241 0
1241 1151 1152 0
1153 1238 1242 0
1150 1238 1153 0
1152 1243 1241 0
1154 1243 1152 0
1155 1242 1244 0
1153 1242 1155 0
1243 1156 1245 0
1154 1156 1243 0
1245 1156 1246 0
1246 1156 1157 0
1247 1158 1244 0
1244 1158 1155 0
1248 1158 1247 0
1159 1158 1248 0
1157 1249 1246 0
1161 1249 1157 0
1250 1162 1248 0
1248 1162 1159 0
1251 1162 1250 0
1164 1162 1251 0
1252 1164 1251 0
1165 1164 1252 0
1161 1253 1249 0
1167 1253 1161 0
1254 1169 1252 0
1252 1169 1165 0
1255 1169 1254 0
1170 1169 1255 0
1167 1256 1253 0
1172 1256 1167 0
1173 1255 1257 0
1170 1255 1173 0
1172 1258 1256 0
1175 1258 1172 0
1176 1257 1259 0
1173 1257 1176 0
1175 1260 1258 0
1177 1260 1175 0
1178 1259 1261 0
1176 1259 1178 0
1180 1179 1262 0
1263 1260 1177 0
1263 1177 1180 0
1263 1180 1262 0
1264 1181 1265 0
1265 1181 1182 0
1178 1265 1182 0
1261 1265 1178 0
1266 1179 1183 0
1262 1179 1266 0
1262 1266 1263 0
1263 1266 1267 0
1268 1185 1269 0
1269 1185 1186 0
1269 1188 1270 0
1186 1188 1269 0
1270 1189 1271 0
1188 1189 1270 0
1181 1271 1189 0
1264 1271 1181 0
1266 1183 1191 0
1191 1193 1272 0
1266 1191 1272 0
1267 1266 1272 0
1272 1193 1273 0
1273 1193 1194 0
1274 1195 1196 0
1185 1268 1275 0
1196 1185 1275 0
1274 1196 1275 0
1273 1197 1276 0
1194 1197 1273 0
1276 1198 1277 0
1197 1198 1276 0
1278 1277 1198 0
1274 1278 1198 0
1195 1274 1198 0
1274 1275 1278 0
1280 1199 1279 0
1200 1199 1280 0
1281 1200 1280 0
1201 1200 1281 0
1282 1201 1281 0
1202 1201 1282 0
1283 1202 1282 0
1203 1202 1283 0
1285 1205 1284 0
1206 1205 1285 0
1286 1206 1285 0
1208 1206 1286 0
1287 1208 1286 0
1209 1208 1287 0
1209 1287 1199 0
1199 1287 1279 0
1210 1283 1288 0
1203 1283 1210 0
1205 1289 1284 0
1212 1289 1205 0
1290 1214 1288 0
1288 1214 1210 0
1291 1214 1290 0
1215 1214 1291 0
1212 1292 1289 0
1217 1292 1212 0
1218 1291 1293 0
1215 1291 1218 0
1217 1294 1292 0
1220 1294 1217 0
1221 1293 1295 0
1218 1293 1221 0
1220 1296 1294 0
1222 1296 1220 0
1297 1223 1295 0
1295 1223 1221 0
1298 1223 1297 0
1224 1223 1298 0
1222 1299 1296 0
1225 1299 1222 0
1226 1298 1300 0
1224 1298 1226 0
1225 1301 1299 0
1227 1301 1225 0
1228 1300 1302 0
1226 1300 1228 0
1227 1303 1301 0
1229 1303 1227 0
1304 1230 1302 0
1302 1230 1228 0
1305 1230 1304 0
1231 1230 1305 0
1303 1232 1306 0
1229 1232 1303 0
1306 1233 1307 0
1232 1233 1306 0
1307 1233 1308 0
1308 1233 1234 0
1235 1305 1309 0
1231 1305 1235 0
1234 1310 1308 0
1237 1310 1234 0
1238 1309 1311 0
1235 1309 1238 0
1310 1239 1312 0
1237 1239 1310 0
1312 1240 1313 0
1239 1240 1312 0
1313 1240 1314 0
1314 1240 1241 0
1242 1311 1315 0
1238 1311 1242 0
1241 1316 1314 0
1243 1316 1241 0
1244 1315 1317 0
1242 1315 1244 0
1319 1316 1243 0
1318 1319 1243 0
1245 1318 1243 0
1246 1318 1245 0
1320 1247 1317 0
1317 1247 1244 0
1321 1247 1320 0
1248 1247 1321 0
1318 1323 1319 0
1322 1323 1318 0
1246 1249 1318 0
1318 1249 1322 0
1324 1250 1321 0
1321 1250 1248 0
1325 1250 1324 0
1251 1250 1325 0
1326 1251 1325 0
1252 1251 1326 0
1322 1328 1323 0
1327 1328 1322 0
1249 1253 1322 0
1322 1253 1327 0
1329 1254 1326 0
1326 1254 1252 0
1330 1254 1329 0
1255 1254 1330 0
1327 1332 1328 0
1331 1332 1327 0
1253 1256 1327 0
1327 1256 1331 0
1257 1330 1333 0
1255 1330 1257 0
1331 1335 1332 0
1334 1335 1331 0
1256 1258 1331 0
1331 1258 1334 0
1259 1333 1336 0
1257 1333 1259 0
1335 1334 1337 0
1258 1260 1338 0
1258 1338 1337 0
1258 1337 1334 0
1261 1336 1339 0
1259 1336 1261 0
1260 1340 1338 0
1263 1340 1260 0
1341 1264 1342 0
1342 1264 1265 0
1261 1342 1265 0
1339 1342 1261 0
1263 1343 1340 0
1267 1343 1263 0
1344 1268 1345 0
1345 1268 1269 0
1345 1270 1346 0
1269 1270 1345 0
1346 1271 1347 0
1270 1271 1346 0
1264 1347 1271 0
1341 1347 1264 0
1349 1343 1267 0
1348 1349 1267 0
1272 1348 1267 0
1273 1348 1272 0
1275 1344 1350 0
1268 1344 1275 0
1349 1348 1351 0
1351 1352 1353 0
1351 1348 1352 0
1348 1276 1352 0
1273 1276 1348 0
1354 1352 1277 0
1277 1352 1276 0
1277 1278 1356 0
1277 1356 1355 0
1277 1355 1354 0
1275 1356 1278 0
1350 1356 1275 0
1353 1352 1357 0
1352 1358 1357 0
1354 1358 1352 0
1354 1355 1358 0
1361 1359 1360 0
1361 1362 1359 0
1363 1362 1361 0
1364 1362 1363 0
1279 1365 1360 0
1280 1279 1360 0
1359 1280 1360 0
1359 1362 1280 0
1280 1362 1281 0
1366 1282 1281 0
1366 1281 1362 0
1366 1362 1364 0
1367 1282 1366 0
1283 1282 1367 0
1369 1284 1368 0
1285 1284 1369 0
1370 1285 1369 0
1286 1285 1370 0
1371 1286 1370 0
1287 1286 1371 0
1287 1371 1279 0
1279 1371 1365 0
1288 1367 1372 0
1283 1367 1288 0
1284 1373 1368 0
1289 1373 1284 0
1288 1372 1375 0
1288 1375 1374 0
1288 1374 1290 0
1290 1374 1291 0
1289 1376 1373 0
1292 1376 1289 0
1375 1378 1374 0
1374 1378 1377 0
1374 1293 1291 0
1377 1293 1374 0
1292 1379 1376 0
1294 1379 1292 0
1380 1377 1378 0
1295 1293 1381 0
1293 1382 1381 0
1293 1377 1382 0
1377 1380 1382 0
1383 1381 1382 0
1294 1384 1379 0
1296 1384 1294 0
1297 1295 1381 0
1383 1385 1298 0
1381 1383 1298 0
1297 1381 1298 0
1296 1386 1384 0
1299 1386 1296 0
1300 1385 1387 0
1298 1385 1300 0
1299 1388 1386 0
1301 1388 1299 0
1302 1387 1389 0
1300 1387 1302 0
1301 1390 1388 0
1303 1390 1301 0
1391 1304 1389 0
1389 1304 1302 0
1392 1304 1391 0
1305 1304 1392 0
1390 1306 1393 0
1303 1306 1390 0
1393 1307 1394 0
1306 1307 1393 0
1394 1307 1395 0
1395 1307 1308 0
1309 1392 1396 0
1305 1392 1309 0
1308 1397 1395 0
1310 1397 1308 0
1311 1396 1398 0
1309 1396 1311 0
1397 1312 1399 0
1310 1312 1397 0
1399 1313 1400 0
1312 1313 1399 0
1400 1313 1401 0
1401 1313 1314 0
1315 1311 1398 0
1315 1398 1403 0
1315 1403 1402 0
1404 1402 1403 0
1314 1405 1401 0
1316 1405 1314 0
1317 1315 1406 0
1406 1315 1402 0
1404 1406 1402 0
1407 1406 1404 0
1316 1408 1405 0
1319 1408 1316 0
1320 1317 1406 0
1407 1409 1321 0
1406 1407 1321 0
1320 1406 1321 0
1319 1410 1408 0
1323 1410 1319 0
1411 1324 1409 0
1409 1324 1321 0
1412 1324 1411 0
1325 1324 1412 0
1413 1325 1412 0
1326 1325 1413 0
1323 1414 1410 0
1328 1414 1323 0
1415 1329 1413 0
1413 1329 1326 0
1416 1329 1415 0
1330 1329 1416 0
1328 1417 1414 0
1332 1417 1328 0
1333 1416 1418 0
1330 1416 1333 0
1332 1419 1417 0
1335 1419 1332 0
1336 1418 1420 0
1333 1418 1336 0
1422 1419 1335 0
1421 1422 1335 0
1337 1421 1335 0
1338 1421 1337 0
1339 1420 1423 0
1336 1420 1339 0
1422 1421 1424 0
1338 1340 1425 0
1338 1425 1424 0
1338 1424 1421 0
1427 1426 1428 0
1426 1429 1428 0
1428 1429 1430 0
1430 1429 1431 0
1433 1432 1434 0
1342 1435 1434 0
1342 1434 1432 0
1342 1432 1341 0
1339 1435 1342 0
1423 1435 1339 0
1340 1436 1425 0
1343 1436 1340 0
1427 1438 1426 0
1426 1438 1437 0
1437 1429 1426 0
1439 1429 1437 0
1429 1439 1431 0
1431 1439 1440 0
1441 1344 1442 0
1442 1344 1345 0
1442 1346 1443 0
1345 1346 1442 0
1443 1346 1347 0
1433 1443 1347 0
1432 1433 1347 0
1347 1341 1432 0
1343 1444 1436 0
1349 1444 1343 0
1445 1437 1438 0
1445 1446 1437 0
1437 1446 1439 0
1446 1440 1439 0
1350 1441 1447 0
1344 1441 1350 0
1444 1351 1448 0
1349 1351 1444 0
1448 1351 1449 0
1449 1351 1353 0
1450 1355 1451 0
1451 1355 1356 0
1350 1451 1356 0
1447 1451 1350 0
1449 1357 1452 0
1353 1357 1449 0
1452 1358 1453 0
1357 1358 1452 0
1355 1453 1358 0
1450 1453 1355 0
1455 1360 1454 0
1361 1360 1455 0
1456 1361 1455 0
1363 1361 1456 0
1457 1363 1456 0
1364 1363 1457 0
1460 1458 1459 0
1454 1360 1365 0
1454 1365 1458 0
1454 1458 1460 0
1461 1366 1457 0
1457 1366 1364 0
1462 1366 1461 0
1367 1366 1462 0
1464 1368 1463 0
1369 1368 1464 0
1465 1369 1464 0
1370 1369 1465 0
1371 1370 1465 0
1371 1465 1459 0
1371 1459 1458 0
1458 1365 1371 0
1372 1462 1466 0
1367 1462 1372 0
1368 1467 1463 0
1373 1467 1368 0
1375 1466 1468 0
1372 1466 1375 0
1373 1469 1467 0
1376 1469 1373 0
1378 1468 1470 0
1375 1468 1378 0
1376 1471 1469 0
1379 1471 1376 0
1472 1380 1470 0
1470 1380 1378 0
1473 1380 1472 0
1382 1380 1473 0
1474 1382 1473 0
1383 1382 1474 0
1379 1475 1471 0
1384 1475 1379 0
1385 1474 1476 0
1383 1474 1385 0
1384 1477 1475 0
1386 1477 1384 0
1387 1476 1478 0
1385 1476 1387 0
1386 1479 1477 0
1388 1479 1386 0
1389 1478 1480 0
1387 1478 1389 0
1388 1481 1479 0
1390 1481 1388 0
1482 1391 1480 0
1480 1391 1389 0
1483 1391 1482 0
1392 1391 1483 0
1485 1481 1390 0
1484 1485 1390 0
1393 1484 1390 0
1486 1484 1394 0
1394 1484 1393 0
1395 1486 1394 0
1396 1392 1483 0
1396 1483 1488 0
1396 1488 1487 0
1489 1487 1488 0
1485 1484 1490 0
1484 1486 1491 0
1490 1484 1491 0
1492 1490 1491 0
1395 1397 1486 0
1486 1397 1491 0
1398 1396 1493 0
1493 1396 1487 0
1489 1493 1487 0
1494 1493 1489 0
1492 1491 1495 0
1495 1496 1497 0
1495 1491 1496 0
1491 1399 1496 0
1397 1399 1491 0
1498 1496 1400 0
1400 1496 1399 0
1401 1498 1400 0
1403 1398 1493 0
1494 1499 1404 0
1493 1494 1404 0
1403 1493 1404 0
1496 1501 1497 0
1500 1501 1496 0
1502 1496 1498 0
1500 1496 1502 0
1401 1405 1498 0
1498 1405 1502 0
1407 1499 1503 0
1404 1499 1407 0
1501 1500 1504 0
1500 1502 1505 0
1504 1500 1505 0
1506 1504 1505 0
1405 1408 1502 0
1502 1408 1505 0
1409 1503 1507 0
1407 1503 1409 0
1505 1509 1506 0
1508 1509 1505 0
1408 1410 1505 0
1505 1410 1508 0
1510 1411 1507 0
1507 1411 1409 0
1511 1411 1510 0
1412 1411 1511 0
1512 1412 1511 0
1413 1412 1512 0
1508 1514 1509 0
1513 1514 1508 0
1410 1414 1508 0
1508 1414 1513 0
1515 1415 1512 0
1512 1415 1413 0
1516 1415 1515 0
1416 1415 1516 0
1513 1518 1514 0
1517 1518 1513 0
1414 1417 1513 0
1513 1417 1517 0
1418 1516 1519 0
1416 1516 1418 0
1517 1521 1518 0
1520 1521 1517 0
1417 1419 1517 0
1517 1419 1520 0
1420 1519 1522 0
1418 1519 1420 0
1520 1524 1521 0
1523 1524 1520 0
1419 1422 1520 0
1520 1422 1523 0
1423 1522 1525 0
1420 1522 1423 0
1523 1527 1524 0
1526 1527 1523 0
1528 1526 1523 0
1528 1523 1422 0
1528 1422 1424 0
1425 1528 1424 0
1529 1427 1530 0
1530 1427 1428 0
1530 1430 1531 0
1428 1430 1530 0
1533 1531 1430 0
1533 1430 1431 0
1533 1431 1532 0
1532 1534 1533 0
1533 1534 1535 0
1534 1536 1535 0
1535 1536 1537 0
1434 1538 1537 0
1434 1537 1536 0
1434 1536 1433 0
1538 1435 1539 0
1434 1435 1538 0
1423 1539 1435 0
1525 1539 1423 0
1526 1541 1527 0
1540 1541 1526 0
1542 1526 1528 0
1540 1526 1542 0
1425 1545 1528 0
1425 1436 1545 0
1436 1543 1545 0
1528 1545 1542 0
1542 1545 1544 0
1438 1427 1529 0
1543 1438 1529 0
1545 1543 1529 0
1546 1431 1440 0
1532 1431 1546 0
1534 1532 1546 0
1442 1534 1546 0
1441 1442 1546 0
1442 1536 1534 0
1443 1536 1442 0
1443 1433 1536 0
1540 1548 1541 0
1547 1548 1540 0
1549 1540 1542 0
1547 1540 1549 0
1549 1550 1444 0
1549 1542 1550 0
1542 1544 1550 0
1444 1550 1436 0
1436 1550 1543 0
1550 1438 1543 0
1550 1552 1438 0
1552 1445 1438 0
1551 1445 1552 0
1446 1551 1553 0
1445 1551 1446 0
1553 1554 1546 0
1446 1553 1546 0
1440 1446 1546 0
1546 1447 1441 0
1554 1447 1546 0
1548 1547 1555 0
1547 1556 1555 0
1549 1556 1547 0
1448 1557 1556 0
1444 1448 1556 0
1549 1444 1556 0
1448 1552 1557 0
1448 1551 1552 0
1449 1551 1448 0
1558 1551 1449 0
1558 1553 1551 0
1559 1553 1558 0
1554 1553 1559 0
1451 1554 1559 0
1450 1451 1559 0
1451 1447 1554 0
1558 1449 1452 0
1452 1559 1558 0
1453 1559 1452 0
1453 1450 1559 0
1561 1454 1560 0
1455 1454 1561 0
1562 1455 1561 0
1456 1455 1562 0
1563 1456 1562 0
1457 1456 1563 0
1565 1459 1564 0
1460 1459 1565 0
1460 1565 1454 0
1454 1565 1560 0
1566 1461 1563 0
1563 1461 1457 0
1567 1461 1566 0
1462 1461 1567 0
1569 1463 1568 0
1464 1463 1569 0
1570 1464 1569 0
1465 1464 1570 0
1465 1570 1459 0
1459 1570 1564 0
1466 1567 1571 0
1462 1567 1466 0
1463 1572 1568 0
1467 1572 1463 0
1468 1571 1573 0
1466 1571 1468 0
1467 1574 1572 0
1469 1574 1467 0
1470 1573 1575 0
1468 1573 1470 0
1469 1576 1574 0
1471 1576 1469 0
1470 1575 1578 0
1470 1578 1577 0
1470 1577 1472 0
1473 1577 1579 0
1472 1577 1473 0
1473 1579 1474 0
1471 1580 1576 0
1475 1580 1471 0
1581 1577 1578 0
1581 1582 1577 0
1577 1582 1579 0
1583 1476 1474 0
1582 1583 1474 0
1579 1582 1474 0
1475 1584 1580 0
1477 1584 1475 0
1478 1583 1585 0
1476 1583 1478 0
1477 1586 1584 0
1479 1586 1477 0
1480 1585 1587 0
1478 1585 1480 0
1479 1588 1586 0
1481 1588 1479 0
1589 1482 1587 0
1587 1482 1480 0
1590 1482 1589 0
1483 1482 1590 0
1481 1591 1588 0
1485 1591 1481 0
1592 1488 1590 0
1590 1488 1483 0
1593 1488 1592 0
1489 1488 1593 0
1591 1490 1594 0
1485 1490 1591 0
1594 1490 1595 0
1595 1490 1492 0
1494 1593 1596 0
1489 1593 1494 0
1595 1495 1597 0
1492 1495 1595 0
1597 1495 1598 0
1598 1495 1497 0
1499 1596 1599 0
1494 1596 1499 0
1497 1600 1598 0
1501 1600 1497 0
1503 1599 1601 0
1499 1599 1503 0
1600 1504 1602 0
1501 1504 1600 0
1602 1504 1603 0
1603 1504 1506 0
1507 1503 1601 0
1507 1601 1605 0
1507 1605 1604 0
1606 1604 1605 0
1506 1607 1603 0
1509 1607 1506 0
1510 1507 1604 0
1608 1511 1510 0
1608 1510 1604 0
1608 1604 1606 0
1609 1511 1608 0
1512 1511 1609 0
1509 1610 1607 0
1514 1610 1509 0
1611 1515 1609 0
1609 1515 1512 0
1612 1515 1611 0
1516 1515 1612 0
1514 1613 1610 0
1518 1613 1514 0
1519 1612 1614 0
1516 1612 1519 0
1518 1615 1613 0
1521 1615 1518 0
1522 1614 1616 0
1519 1614 1522 0
1521 1617 1615 0
1524 1617 1521 0
1619 1618 1620 0
1525 1522 1616 0
1618 1525 1616 0
1620 1618 1616 0
1524 1621 1617 0
1527 1621 1524 0
1622 1529 1623 0
1623 1529 1530 0
1623 1530 1531 0
1623 1531 1624 0
1623 1624 1625 0
1531 1533 1627 0
1531 1627 1626 0
1531 1626 1624 0
1627 1535 1628 0
1533 1535 1627 0
1628 1537 1629 0
1535 1537 1628 0
1629 1538 1630 0
1537 1538 1629 0
1630 1538 1539 0
1619 1630 1539 0
1618 1619 1539 0
1539 1525 1618 0
1633 1631 1632 0
1621 1527 1541 0
1621 1541 1631 0
1621 1631 1633 0
1635 1634 1636 0
1545 1637 1636 0
1545 1636 1634 0
1545 1634 1544 0
1529 1637 1545 0
1622 1637 1529 0
1625 1624 1638 0
1624 1626 1638 0
1631 1640 1632 0
1639 1640 1631 0
1541 1548 1631 0
1631 1548 1639 0
1641 1634 1635 0
1641 1544 1634 0
1641 1643 1544 0
1643 1550 1544 0
1642 1550 1643 0
1550 1642 1552 0
1640 1639 1644 0
1555 1645 1644 0
1548 1555 1644 0
1639 1548 1644 0
1645 1556 1646 0
1555 1556 1645 0
1646 1556 1557 0
1643 1646 1557 0
1642 1643 1557 0
1557 1552 1642 0
1648 1560 1647 0
1561 1560 1648 0
1649 1561 1648 0
1562 1561 1649 0
1650 1562 1649 0
1563 1562 1650 0
1652 1564 1651 0
1565 1564 1652 0
1565 1652 1560 0
1560 1652 1647 0
1653 1566 1650 0
1650 1566 1563 0
1654 1566 1653 0
1567 1566 1654 0
1656 1568 1655 0
1569 1568 1656 0
1657 1569 1656 0
1570 1569 1657 0
1570 1657 1564 0
1564 1657 1651 0
1571 1654 1658 0
1567 1654 1571 0
1568 1659 1655 0
1572 1659 1568 0
1573 1658 1660 0
1571 1658 1573 0
1572 1661 1659 0
1574 1661 1572 0
1575 1660 1662 0
1573 1660 1575 0
1574 1663 1661 0
1576 1663 1574 0
1578 1662 1664 0
1575 1662 1578 0
1576 1665 1663 0
1580 1665 1576 0
1666 1581 1664 0
1664 1581 1578 0
1667 1581 1666 0
1582 1581 1667 0
1668 1582 1667 0
1583 1582 1668 0
1580 1669 1665 0
1584 1669 1580 0
1585 1668 1670 0
1583 1668 1585 0
1584 1671 1669 0
1586 1671 1584 0
1587 1670 1672 0
1585 1670 1587 0
1586 1673 1671 0
1588 1673 1586 0
1674 1589 1672 0
1672 1589 1587 0
1675 1589 1674 0
1590 1589 1675 0
1588 1676 1673 0
1591 1676 1588 0
1677 1592 1675 0
1675 1592 1590 0
1678 1592 1677 0
1593 1592 1678 0
1676 1594 1679 0
1591 1594 1676 0
1679 1594 1680 0
1680 1594 1595 0
1596 1678 1681 0
1593 1678 1596 0
1683 1680 1595 0
1682 1683 1595 0
1597 1682 1595 0
1598 1682 1597 0
1599 1681 1684 0
1596 1681 1599 0
1683 1682 1685 0
1598 1600 1686 0
1598 1686 1685 0
1598 1685 1682 0
1601 1684 1687 0
1599 1684 1601 0
1689 1686 1600 0
1688 1689 1600 0
1602 1688 1600 0
1603 1688 1602 0
1690 1605 1687 0
1687 1605 1601 0
1691 1605 1690 0
1606 1605 1691 0
1689 1688 1692 0
1603 1607 1693 0
1603 1693 1692 0
1603 1692 1688 0
1694 1608 1691 0
1691 1608 1606 0
1695 1608 1694 0
1609 1608 1695 0
1607 1696 1693 0
1610 1696 1607 0
1609 1695 1698 0
1609 1698 1697 0
1609 1697 1611 0
1611 1697 1612 0
1610 1699 1696 0
1613 1699 1610 0
1698 1701 1697 0
1697 1701 1700 0
1697 1614 1612 0
1700 1614 1697 0
1613 1702 1699 0
1615 1702 1613 0
1704 1703 1705 0
1703 1706 1700 0
1703 1700 1701 0
1703 1701 1705 0
1700 1616 1614 0
1706 1616 1700 0
1615 1707 1702 0
1617 1707 1615 0
1704 1709 1703 0
1703 1709 1708 0
1706 1703 1708 0
1620 1706 1708 0
1619 1620 1708 0
1620 1616 1706 0
1617 1710 1707 0
1621 1710 1617 0
1711 1622 1623 0
1714 1713 1711 0
1714 1711 1623 0
1712 1714 1623 0
1625 1712 1623 0
1627 1715 1714 0
1627 1714 1712 0
1627 1712 1626 0
1715 1628 1716 0
1627 1628 1715 0
1716 1629 1717 0
1628 1629 1716 0
1717 1629 1630 0
1709 1717 1630 0
1708 1709 1630 0
1630 1619 1708 0
1719 1632 1718 0
1633 1632 1719 0
1633 1719 1621 0
1621 1719 1710 0
1720 1635 1636 0
1721 1720 1637 0
1637 1720 1636 0
1711 1722 1721 0
1711 1721 1637 0
1711 1637 1622 0
1722 1713 1723 0
1711 1713 1722 0
1638 1712 1625 0
1638 1626 1712 0
1726 1724 1725 0
1718 1632 1640 0
1718 1640 1724 0
1718 1724 1726 0
1641 1635 1720 0
1720 1721 1727 0
1720 1727 1643 0
1720 1643 1641 0
1728 1721 1722 0
1727 1721 1728 0
1723 1728 1722 0
1729 1728 1723 0
1725 1724 1730 0
1644 1731 1730 0
1640 1644 1730 0
1724 1640 1730 0
1731 1645 1732 0
1644 1645 1731 0
1732 1646 1733 0
1645 1646 1732 0
1734 1733 1646 0
1727 1734 1646 0
1643 1727 1646 0
1727 1735 1734 0
1728 1735 1727 0
1728 1729 1735 0
1648 1647 1736 0
1649 1736 1737 0
1648 1736 1649 0
1649 1737 1650 0
1739 1651 1738 0
1652 1651 1739 0
1652 1739 1740 0
1652 1740 1736 0
1652 1736 1647 0
1740 1741 1736 0
1736 1741 1737 0
1741 1742 1653 0
1741 1653 1650 0
1741 1650 1737 0
1743 1653 1742 0
1654 1653 1743 0
1745 1655 1744 0
1656 1655 1745 0
1746 1656 1745 0
1657 1656 1746 0
1657 1746 1651 0
1651 1746 1738 0
1658 1743 1747 0
1654 1743 1658 0
1655 1748 1744 0
1659 1748 1655 0
1660 1747 1749 0
1658 1747 1660 0
1659 1750 1748 0
1661 1750 1659 0
1662 1749 1751 0
1660 1749 1662 0
1754 1752 1753 0
1750 1661 1663 0
1750 1663 1752 0
1750 1752 1754 0
1664 1662 1751 0
1664 1751 1756 0
1664 1756 1755 0
1757 1755 1756 0
1752 1759 1753 0
1758 1759 1752 0
1663 1665 1752 0
1752 1665 1758 0
1666 1664 1755 0
1666 1760 1667 0
1666 1761 1760 0
1755 1761 1666 0
1757 1761 1755 0
1667 1760 1668 0
1758 1763 1759 0
1762 1763 1758 0
1665 1669 1758 0
1758 1669 1762 0
1764 1760 1761 0
1765 1670 1668 0
1764 1765 1668 0
1760 1764 1668 0
1763 1762 1766 0
1669 1671 1767 0
1669 1767 1766 0
1669 1766 1762 0
1672 1765 1768 0
1670 1765 1672 0
1671 1769 1767 0
1673 1769 1671 0
1770 1674 1768 0
1768 1674 1672 0
1771 1674 1770 0
1675 1674 1771 0
1673 1772 1769 0
1676 1772 1673 0
1773 1677 1771 0
1771 1677 1675 0
1774 1677 1773 0
1678 1677 1774 0
1772 1679 1775 0
1676 1679 1772 0
1775 1679 1776 0
1776 1679 1680 0
1681 1774 1777 0
1678 1774 1681 0
1680 1778 1776 0
1683 1778 1680 0
1684 1777 1779 0
1681 1777 1684 0
1778 1685 1780 0
1683 1685 1778 0
1780 1685 1781 0
1781 1685 1686 0
1687 1779 1782 0
1684 1779 1687 0
1686 1783 1781 0
1689 1783 1686 0
1784 1690 1782 0
1782 1690 1687 0
1785 1690 1784 0
1691 1690 1785 0
1783 1692 1786 0
1689 1692 1783 0
1786 1692 1787 0
1787 1692 1693 0
1788 1694 1785 0
1785 1694 1691 0
1789 1694 1788 0
1695 1694 1789 0
1693 1790 1787 0
1696 1790 1693 0
1698 1789 1791 0
1695 1789 1698 0
1794 1792 1793 0
1790 1696 1699 0
1790 1699 1792 0
1790 1792 1794 0
1796 1795 1797 0
1701 1698 1791 0
1795 1701 1791 0
1797 1795 1791 0
1792 1799 1793 0
1798 1799 1792 0
1699 1702 1792 0
1792 1702 1798 0
1796 1800 1704 0
1796 1704 1705 0
1796 1705 1795 0
1705 1701 1795 0
1798 1802 1799 0
1801 1802 1798 0
1702 1707 1798 0
1798 1707 1801 0
1709 1800 1803 0
1704 1800 1709 0
1806 1804 1805 0
1801 1807 1804 0
1802 1801 1804 0
1806 1802 1804 0
1707 1710 1801 0
1801 1710 1807 0
1808 1713 1809 0
1809 1713 1714 0
1809 1715 1810 0
1714 1715 1809 0
1810 1716 1811 0
1715 1716 1810 0
1811 1717 1812 0
1716 1717 1811 0
1709 1812 1717 0
1803 1812 1709 0
1804 1814 1805 0
1813 1814 1804 0
1813 1804 1807 0
1813 1807 1719 0
1813 1719 1718 0
1807 1710 1719 0
1816 1815 1817 0
1723 1713 1808 0
1815 1723 1808 0
1817 1815 1808 0
1725 1818 1814 0
1726 1725 1814 0
1813 1726 1814 0
1813 1718 1726 0
1816 1820 1815 0
1815 1820 1819 0
1815 1729 1723 0
1819 1729 1815 0
1818 1730 1821 0
1725 1730 1818 0
1821 1731 1822 0
1730 1731 1821 0
1822 1732 1823 0
1731 1732 1822 0
1823 1733 1824 0
1732 1733 1823 0
1824 1734 1825 0
1733 1734 1824 0
1825 1734 1735 0
1820 1825 1735 0
1819 1820 1735 0
1735 1729 1819 0
1827 1738 1826 0
1739 1738 1827 0
1828 1739 1827 0
1740 1739 1828 0
1829 1740 1828 0
1741 1740 1829 0
1742 1741 1829 0
1830 1742 1829 0
1831 1830 1829 0
1742 1830 1743 0
1833 1744 1832 0
1745 1744 1833 0
1834 1745 1833 0
1746 1745 1834 0
1746 1834 1738 0
1738 1834 1826 0
1835 1830 1831 0
1836 1747 1743 0
1835 1836 1743 0
1830 1835 1743 0
1744 1837 1832 0
1748 1837 1744 0
1749 1836 1838 0
1747 1836 1749 0
1748 1839 1837 0
1750 1839 1748 0
1751 1838 1840 0
1749 1838 1751 0
1842 1753 1841 0
1754 1753 1842 0
1754 1842 1750 0
1750 1842 1839 0
1843 1756 1840 0
1840 1756 1751 0
1844 1756 1843 0
1757 1756 1844 0
1753 1845 1841 0
1759 1845 1753 0
1761 1844 1846 0
1757 1844 1761 0
1759 1847 1845 0
1763 1847 1759 0
1761 1846 1849 0
1761 1849 1848 0
1761 1848 1764 0
1764 1848 1765 0
1851 1847 1763 0
1850 1851 1763 0
1766 1850 1763 0
1767 1850 1766 0
1849 1853 1848 0
1848 1853 1852 0
1848 1768 1765 0
1852 1768 1848 0
1850 1855 1851 0
1854 1855 1850 0
1767 1769 1850 0
1850 1769 1854 0
1853 1857 1852 0
1852 1857 1856 0
1852 1856 1858 0
1768 1852 1858 0
1770 1768 1858 0
1770 1858 1771 0
1854 1860 1855 0
1859 1860 1854 0
1769 1772 1854 0
1854 1772 1859 0
1861 1856 1857 0
1861 1862 1856 0
1856 1862 1858 0
1862 1771 1858 0
1862 1864 1771 0
1864 1773 1771 0
1863 1773 1864 0
1773 1863 1774 0
1859 1866 1860 0
1865 1866 1859 0
1867 1865 1859 0
1867 1859 1772 0
1867 1772 1775 0
1776 1867 1775 0
1864 1869 1863 0
1863 1869 1868 0
1863 1777 1774 0
1868 1777 1863 0
1865 1871 1866 0
1870 1871 1865 0
1872 1865 1867 0
1870 1865 1872 0
1776 1778 1867 0
1867 1778 1872 0
1869 1874 1868 0
1868 1874 1873 0
1868 1779 1777 0
1873 1779 1868 0
1871 1870 1875 0
1870 1876 1875 0
1872 1876 1870 0
1876 1877 1878 0
1876 1872 1877 0
1872 1780 1877 0
1778 1780 1872 0
1781 1877 1780 0
1874 1880 1873 0
1873 1880 1879 0
1873 1782 1779 0
1879 1782 1873 0
1877 1882 1878 0
1881 1882 1877 0
1781 1783 1877 0
1877 1783 1881 0
1880 1884 1879 0
1879 1884 1883 0
1879 1883 1885 0
1782 1879 1885 0
1784 1782 1885 0
1784 1885 1785 0
1881 1887 1882 0
1886 1887 1881 0
1888 1886 1881 0
1888 1881 1783 0
1888 1783 1786 0
1787 1888 1786 0
1889 1883 1884 0
1889 1890 1883 0
1883 1890 1885 0
1890 1785 1885 0
1890 1892 1785 0
1892 1788 1785 0
1891 1788 1892 0
1788 1891 1789 0
1886 1894 1887 0
1893 1894 1886 0
1895 1886 1888 0
1893 1886 1895 0
1787 1790 1888 0
1888 1790 1895 0
1892 1897 1891 0
1891 1897 1896 0
1891 1791 1789 0
1896 1791 1891 0
1893 1899 1894 0
1898 1899 1893 0
1898 1893 1895 0
1898 1895 1794 0
1898 1794 1793 0
1895 1790 1794 0
1901 1900 1902 0
1900 1897 1902 0
1900 1796 1897 0
1796 1896 1897 0
1797 1896 1796 0
1797 1791 1896 0
1898 1904 1899 0
1903 1904 1898 0
1793 1799 1898 0
1898 1799 1903 0
1901 1906 1900 0
1900 1906 1905 0
1900 1800 1796 0
1905 1800 1900 0
1903 1908 1904 0
1907 1908 1903 0
1799 1802 1903 0
1903 1802 1907 0
1910 1909 1911 0
1909 1912 1905 0
1909 1905 1906 0
1909 1906 1911 0
1905 1803 1800 0
1912 1803 1905 0
1805 1913 1908 0
1806 1805 1908 0
1907 1806 1908 0
1907 1802 1806 0
1914 1808 1915 0
1915 1808 1809 0
1915 1810 1916 0
1809 1810 1915 0
1916 1810 1811 0
1910 1916 1811 0
1909 1910 1811 0
1811 1912 1909 0
1812 1912 1811 0
1812 1803 1912 0
1805 1917 1913 0
1814 1917 1805 0
1919 1918 1920 0
1817 1921 1920 0
1817 1920 1918 0
1817 1918 1816 0
1808 1921 1817 0
1914 1921 1808 0
