#!ascii version of
1586 3168
-24.000000  -17.000000  33.500000  0
-24.500000  -17.000000  33.000000  0
-19.500000  -17.000000  32.000000  0
-25.000000  -17.500000  32.000000  0
-25.000000  -17.000000  32.500000  0
-25.500000  -17.000000  32.000000  0
-19.500000  -17.000000  31.000000  0
-25.000000  -17.500000  31.000000  0
-25.500000  -17.000000  31.000000  0
-19.500000  -17.000000  30.000000  0
-25.500000  -17.000000  30.000000  0
-19.500000  -17.000000  29.000000  0
-25.500000  -17.000000  29.000000  0
-18.000000  -17.500000  28.000000  0
-17.500000  -17.000000  28.000000  0
-18.000000  -17.000000  28.500000  0
-19.000000  -17.000000  28.500000  0
-25.500000  -17.000000  28.000000  0
-18.000000  -17.500000  27.000000  0
-17.500000  -17.000000  27.000000  0
-25.500000  -17.000000  27.000000  0
-18.000000  -17.000000  26.500000  0
-19.000000  -17.000000  26.500000  0
-20.000000  -17.000000  26.500000  0
-21.000000  -17.000000  26.500000  0
-22.000000  -17.000000  26.500000  0
-23.000000  -17.000000  26.500000  0
-24.000000  -17.500000  26.000000  0
-24.000000  -17.000000  26.500000  0
-24.500000  -17.000000  26.000000  0
-25.500000  -17.000000  26.000000  0
-25.000000  -17.000000  25.500000  0
-19.000000  -16.500000  39.000000  0
-18.500000  -16.000000  39.000000  0
-19.000000  -16.000000  39.500000  0
-20.000000  -16.500000  39.000000  0
-20.000000  -16.000000  39.500000  0
-21.000000  -16.000000  39.500000  0
-21.500000  -16.000000  39.000000  0
-18.500000  -16.000000  38.000000  0
-21.500000  -16.000000  38.000000  0
-18.500000  -16.000000  37.000000  0
-22.000000  -16.000000  37.500000  0
-22.500000  -16.000000  37.000000  0
-18.500000  -16.000000  36.000000  0
-22.500000  -16.000000  36.000000  0
-18.500000  -16.000000  35.000000  0
-22.500000  -16.000000  35.000000  0
-19.000000  -16.500000  34.000000  0
-18.500000  -16.000000  34.000000  0
-23.000000  -16.000000  34.500000  0
-23.500000  -16.000000  34.000000  0
-19.000000  -16.500000  33.000000  0
-18.500000  -16.000000  33.000000  0
-24.000000  -16.000000  33.500000  0
-24.500000  -16.000000  33.000000  0
-19.000000  -16.500000  32.000000  0
-18.500000  -16.000000  32.000000  0
-25.000000  -16.000000  32.500000  0
-25.500000  -16.000000  32.000000  0
-18.000000  -16.500000  31.000000  0
-17.500000  -16.000000  31.000000  0
-18.000000  -16.000000  31.500000  0
-19.000000  -16.500000  31.000000  0
-25.500000  -16.000000  31.000000  0
-18.000000  -16.500000  30.000000  0
-17.500000  -16.000000  30.000000  0
-19.000000  -16.500000  30.000000  0
-25.500000  -16.000000  30.000000  0
-18.000000  -16.500000  29.000000  0
-17.500000  -16.000000  29.000000  0
-19.000000  -16.500000  29.000000  0
-25.500000  -16.000000  29.000000  0
-17.500000  -16.000000  28.000000  0
-25.500000  -16.000000  28.000000  0
-17.500000  -16.000000  27.000000  0
-25.500000  -16.000000  27.000000  0
-18.000000  -16.000000  26.500000  0
-19.000000  -16.000000  26.500000  0
-20.000000  -16.500000  26.000000  0
-19.500000  -16.000000  26.000000  0
-21.000000  -16.500000  26.000000  0
-21.500000  -16.000000  26.000000  0
-22.000000  -16.000000  26.500000  0
-23.000000  -16.000000  26.500000  0
-24.000000  -16.000000  26.500000  0
-25.000000  -16.500000  26.000000  0
-25.000000  -16.000000  26.500000  0
-20.000000  -16.000000  25.500000  0
-21.000000  -16.000000  25.500000  0
-18.500000  -15.000000  39.000000  0
-19.000000  -15.000000  39.500000  0
-20.000000  -15.000000  39.500000  0
-21.000000  -15.000000  39.500000  0
-21.500000  -15.000000  39.000000  0
-18.500000  -15.000000  38.000000  0
-21.500000  -15.000000  38.000000  0
-18.500000  -15.000000  37.000000  0
-22.000000  -15.500000  37.000000  0
-21.500000  -15.000000  37.000000  0
-18.500000  -15.000000  36.000000  0
-22.000000  -15.000000  36.500000  0
-22.500000  -15.000000  36.000000  0
-18.500000  -15.000000  35.000000  0
-22.500000  -15.000000  35.000000  0
-18.500000  -15.000000  34.000000  0
-23.000000  -15.000000  34.500000  0
-23.500000  -15.000000  34.000000  0
-18.500000  -15.000000  33.000000  0
-24.000000  -15.000000  33.500000  0
-24.500000  -15.000000  33.000000  0
-18.500000  -15.000000  32.000000  0
-25.000000  -15.000000  32.500000  0
-25.500000  -15.000000  32.000000  0
-17.500000  -15.000000  31.000000  0
-18.000000  -15.000000  31.500000  0
-25.500000  -15.000000  31.000000  0
-17.500000  -15.000000  30.000000  0
-25.500000  -15.000000  30.000000  0
-17.500000  -15.000000  29.000000  0
-25.500000  -15.000000  29.000000  0
-17.500000  -15.000000  28.000000  0
-25.500000  -15.000000  28.000000  0
-17.500000  -15.000000  27.000000  0
-25.500000  -15.000000  27.000000  0
-18.000000  -15.000000  26.500000  0
-19.000000  -15.000000  26.500000  0
-19.500000  -15.000000  26.000000  0
-21.500000  -15.000000  26.000000  0
-22.000000  -15.000000  26.500000  0
-23.000000  -15.000000  26.500000  0
-24.000000  -15.000000  26.500000  0
-25.000000  -15.000000  26.500000  0
-20.000000  -15.000000  25.500000  0
-21.000000  -15.000000  25.500000  0
-19.000000  -14.500000  40.000000  0
-18.500000  -14.000000  40.000000  0
-19.000000  -14.000000  40.500000  0
-20.000000  -14.500000  40.000000  0
-20.000000  -14.000000  40.500000  0
-21.000000  -14.500000  40.000000  0
-21.000000  -14.000000  40.500000  0
-21.500000  -14.000000  40.000000  0
-18.500000  -14.000000  39.000000  0
-21.500000  -14.000000  39.000000  0
-18.500000  -14.000000  38.000000  0
-21.500000  -14.000000  38.000000  0
-18.500000  -14.000000  37.000000  0
-21.500000  -14.000000  37.000000  0
-18.000000  -14.500000  36.000000  0
-17.500000  -14.000000  36.000000  0
-18.000000  -14.000000  36.500000  0
-22.000000  -14.000000  36.500000  0
-22.500000  -14.000000  36.000000  0
-18.000000  -14.500000  35.000000  0
-17.500000  -14.000000  35.000000  0
-22.500000  -14.000000  35.000000  0
-18.000000  -14.500000  34.000000  0
-17.500000  -14.000000  34.000000  0
-23.000000  -14.000000  34.500000  0
-23.500000  -14.000000  34.000000  0
-18.000000  -14.500000  33.000000  0
-17.500000  -14.000000  33.000000  0
-24.000000  -14.000000  33.500000  0
-24.500000  -14.000000  33.000000  0
-18.000000  -14.500000  32.000000  0
-17.500000  -14.000000  32.000000  0
-25.000000  -14.000000  32.500000  0
-25.500000  -14.000000  32.000000  0
-17.500000  -14.000000  31.000000  0
-25.500000  -14.000000  31.000000  0
-17.500000  -14.000000  30.000000  0
-25.500000  -14.000000  30.000000  0
-17.500000  -14.000000  29.000000  0
-25.500000  -14.000000  29.000000  0
-17.500000  -14.000000  28.000000  0
-25.500000  -14.000000  28.000000  0
-17.500000  -14.000000  27.000000  0
-25.000000  -14.500000  27.000000  0
-24.500000  -14.000000  27.000000  0
-25.000000  -14.000000  27.500000  0
-18.000000  -14.500000  26.000000  0
-17.500000  -14.000000  26.000000  0
-19.000000  -14.500000  26.000000  0
-22.000000  -14.500000  26.000000  0
-23.000000  -14.500000  26.000000  0
-23.500000  -14.000000  26.000000  0
-24.000000  -14.000000  26.500000  0
-18.000000  -14.000000  25.500000  0
-19.000000  -14.000000  25.500000  0
-20.000000  -14.000000  25.500000  0
-21.000000  -14.000000  25.500000  0
-22.000000  -14.000000  25.500000  0
-23.000000  -14.000000  25.500000  0
-18.500000  -13.000000  40.000000  0
-19.000000  -13.000000  40.500000  0
-20.000000  -13.000000  40.500000  0
-21.000000  -13.500000  40.000000  0
-20.500000  -13.000000  40.000000  0
-18.500000  -13.000000  39.000000  0
-21.000000  -13.500000  39.000000  0
-20.500000  -13.000000  39.000000  0
-18.500000  -13.000000  38.000000  0
-21.000000  -13.500000  38.000000  0
-20.500000  -13.000000  38.000000  0
-18.500000  -13.000000  37.000000  0
-21.000000  -13.000000  37.500000  0
-21.500000  -13.000000  37.000000  0
-17.500000  -13.000000  36.000000  0
-18.000000  -13.000000  36.500000  0
-22.000000  -13.000000  36.500000  0
-22.500000  -13.000000  36.000000  0
-17.500000  -13.000000  35.000000  0
-23.000000  -13.500000  35.000000  0
-23.000000  -13.000000  35.500000  0
-23.500000  -13.000000  35.000000  0
-17.500000  -13.000000  34.000000  0
-23.500000  -13.000000  34.000000  0
-17.500000  -13.000000  33.000000  0
-24.000000  -13.000000  33.500000  0
-24.500000  -13.000000  33.000000  0
-17.500000  -13.000000  32.000000  0
-25.000000  -13.000000  32.500000  0
-25.500000  -13.000000  32.000000  0
-17.500000  -13.000000  31.000000  0
-25.500000  -13.000000  31.000000  0
-17.500000  -13.000000  30.000000  0
-25.500000  -13.000000  30.000000  0
-17.500000  -13.000000  29.000000  0
-25.500000  -13.000000  29.000000  0
-17.500000  -13.000000  28.000000  0
-25.500000  -13.000000  28.000000  0
-17.500000  -13.000000  27.000000  0
-24.500000  -13.000000  27.000000  0
-25.000000  -13.000000  27.500000  0
-17.500000  -13.000000  26.000000  0
-23.500000  -13.000000  26.000000  0
-24.000000  -13.000000  26.500000  0
-18.000000  -13.000000  25.500000  0
-19.000000  -13.000000  25.500000  0
-20.000000  -13.000000  25.500000  0
-21.000000  -13.000000  25.500000  0
-22.000000  -13.000000  25.500000  0
-23.000000  -13.000000  25.500000  0
-18.000000  -12.500000  40.000000  0
-17.500000  -12.000000  40.000000  0
-18.000000  -12.000000  40.500000  0
-19.000000  -12.000000  40.500000  0
-20.000000  -12.000000  40.500000  0
-20.500000  -12.000000  40.000000  0
-18.000000  -12.500000  39.000000  0
-17.500000  -12.000000  39.000000  0
-20.500000  -12.000000  39.000000  0
-18.000000  -12.500000  38.000000  0
-17.500000  -12.000000  38.000000  0
-20.500000  -12.000000  38.000000  0
-18.000000  -12.500000  37.000000  0
-17.500000  -12.000000  37.000000  0
-21.000000  -12.000000  37.500000  0
-21.500000  -12.000000  37.000000  0
-17.500000  -12.000000  36.000000  0
-22.000000  -12.000000  36.500000  0
-22.500000  -12.000000  36.000000  0
-17.500000  -12.000000  35.000000  0
-23.000000  -12.000000  35.500000  0
-23.500000  -12.000000  35.000000  0
-17.000000  -12.500000  34.000000  0
-16.500000  -12.000000  34.000000  0
-17.000000  -12.000000  34.500000  0
-23.500000  -12.000000  34.000000  0
-16.000000  -12.500000  33.000000  0
-15.500000  -12.000000  33.000000  0
-16.000000  -12.000000  33.500000  0
-17.000000  -12.500000  33.000000  0
-24.000000  -12.000000  33.500000  0
-24.500000  -12.000000  33.000000  0
-16.000000  -12.500000  32.000000  0
-15.500000  -12.000000  32.000000  0
-17.000000  -12.500000  32.000000  0
-25.000000  -12.000000  32.500000  0
-25.500000  -12.000000  32.000000  0
-16.000000  -12.500000  31.000000  0
-15.500000  -12.000000  31.000000  0
-17.000000  -12.500000  31.000000  0
-25.500000  -12.000000  31.000000  0
-16.000000  -12.500000  30.000000  0
-15.500000  -12.000000  30.000000  0
-17.000000  -12.500000  30.000000  0
-25.500000  -12.000000  30.000000  0
-16.000000  -12.000000  29.500000  0
-17.000000  -12.500000  29.000000  0
-16.500000  -12.000000  29.000000  0
-25.500000  -12.000000  29.000000  0
-17.000000  -12.500000  28.000000  0
-16.500000  -12.000000  28.000000  0
-25.000000  -12.500000  28.000000  0
-24.500000  -12.000000  28.000000  0
-25.000000  -12.000000  28.500000  0
-17.000000  -12.000000  27.500000  0
-17.500000  -12.000000  27.000000  0
-24.000000  -12.500000  27.000000  0
-23.500000  -12.000000  27.000000  0
-24.000000  -12.000000  27.500000  0
-17.500000  -12.000000  26.000000  0
-23.500000  -12.000000  26.000000  0
-18.000000  -12.000000  25.500000  0
-19.000000  -12.000000  25.500000  0
-20.000000  -12.000000  25.500000  0
-21.000000  -12.000000  25.500000  0
-22.000000  -12.000000  25.500000  0
-23.000000  -12.000000  25.500000  0
-18.000000  -11.500000  41.000000  0
-17.500000  -11.000000  41.000000  0
-18.000000  -11.000000  41.500000  0
-19.000000  -11.500000  41.000000  0
-19.000000  -11.000000  41.500000  0
-19.500000  -11.000000  41.000000  0
-17.500000  -11.000000  40.000000  0
-20.000000  -11.500000  40.000000  0
-19.500000  -11.000000  40.000000  0
-17.500000  -11.000000  39.000000  0
-20.000000  -11.000000  39.500000  0
-20.500000  -11.000000  39.000000  0
-17.000000  -11.500000  38.000000  0
-16.500000  -11.000000  38.000000  0
-17.000000  -11.000000  38.500000  0
-20.500000  -11.000000  38.000000  0
-17.000000  -11.500000  37.000000  0
-16.500000  -11.000000  37.000000  0
-21.000000  -11.000000  37.500000  0
-21.500000  -11.000000  37.000000  0
-17.000000  -11.500000  36.000000  0
-16.500000  -11.000000  36.000000  0
-22.000000  -11.000000  36.500000  0
-22.500000  -11.000000  36.000000  0
-17.000000  -11.500000  35.000000  0
-16.500000  -11.000000  35.000000  0
-23.000000  -11.000000  35.500000  0
-23.500000  -11.000000  35.000000  0
-16.000000  -11.500000  34.000000  0
-15.500000  -11.000000  34.000000  0
-16.000000  -11.000000  34.500000  0
-23.500000  -11.000000  34.000000  0
-15.500000  -11.000000  33.000000  0
-24.000000  -11.000000  33.500000  0
-24.500000  -11.000000  33.000000  0
-15.500000  -11.000000  32.000000  0
-25.000000  -11.000000  32.500000  0
-25.500000  -11.000000  32.000000  0
-15.500000  -11.000000  31.000000  0
-25.500000  -11.000000  31.000000  0
-15.500000  -11.000000  30.000000  0
-25.500000  -11.000000  30.000000  0
-16.000000  -11.000000  29.500000  0
-16.500000  -11.000000  29.000000  0
-25.500000  -11.000000  29.000000  0
-16.500000  -11.000000  28.000000  0
-24.500000  -11.000000  28.000000  0
-25.000000  -11.000000  28.500000  0
-17.000000  -11.000000  27.500000  0
-17.500000  -11.000000  27.000000  0
-23.500000  -11.000000  27.000000  0
-24.000000  -11.000000  27.500000  0
-17.500000  -11.000000  26.000000  0
-23.500000  -11.000000  26.000000  0
-18.000000  -11.000000  25.500000  0
-19.000000  -11.000000  25.500000  0
-20.000000  -11.000000  25.500000  0
-21.000000  -11.000000  25.500000  0
-22.000000  -11.000000  25.500000  0
-23.000000  -11.000000  25.500000  0
-17.500000  -10.000000  41.000000  0
-18.000000  -10.000000  41.500000  0
-19.000000  -10.000000  41.500000  0
-19.500000  -10.000000  41.000000  0
-17.500000  -10.000000  40.000000  0
-19.500000  -10.000000  40.000000  0
-16.000000  -10.500000  39.000000  0
-15.500000  -10.000000  39.000000  0
-16.000000  -10.000000  39.500000  0
-17.000000  -10.500000  39.000000  0
-17.000000  -10.000000  39.500000  0
-20.000000  -10.500000  39.000000  0
-19.500000  -10.000000  39.000000  0
-16.000000  -10.500000  38.000000  0
-15.500000  -10.000000  38.000000  0
-20.000000  -10.500000  38.000000  0
-19.500000  -10.000000  38.000000  0
-16.000000  -10.500000  37.000000  0
-15.500000  -10.000000  37.000000  0
-20.000000  -10.000000  37.500000  0
-21.000000  -10.000000  37.500000  0
-21.500000  -10.000000  37.000000  0
-16.000000  -10.500000  36.000000  0
-15.500000  -10.000000  36.000000  0
-22.000000  -10.000000  36.500000  0
-22.500000  -10.000000  36.000000  0
-16.000000  -10.500000  35.000000  0
-15.500000  -10.000000  35.000000  0
-23.000000  -10.000000  35.500000  0
-23.500000  -10.000000  35.000000  0
-15.500000  -10.000000  34.000000  0
-23.500000  -10.000000  34.000000  0
-15.500000  -10.000000  33.000000  0
-24.000000  -10.000000  33.500000  0
-24.500000  -10.000000  33.000000  0
-15.500000  -10.000000  32.000000  0
-25.000000  -10.500000  32.000000  0
-24.500000  -10.000000  32.000000  0
-15.000000  -10.500000  31.000000  0
-14.500000  -10.000000  31.000000  0
-15.000000  -10.000000  31.500000  0
-25.000000  -10.500000  31.000000  0
-24.500000  -10.000000  31.000000  0
-15.000000  -10.500000  30.000000  0
-14.500000  -10.000000  30.000000  0
-25.000000  -10.500000  30.000000  0
-24.500000  -10.000000  30.000000  0
-15.000000  -10.500000  29.000000  0
-14.500000  -10.000000  29.000000  0
-16.000000  -10.500000  29.000000  0
-25.000000  -10.500000  29.000000  0
-24.500000  -10.000000  29.000000  0
-15.000000  -10.500000  28.000000  0
-14.500000  -10.000000  28.000000  0
-16.000000  -10.500000  28.000000  0
-24.500000  -10.000000  28.000000  0
-15.000000  -10.000000  27.500000  0
-16.000000  -10.000000  27.500000  0
-17.000000  -10.500000  27.000000  0
-16.500000  -10.000000  27.000000  0
-23.500000  -10.000000  27.000000  0
-24.000000  -10.000000  27.500000  0
-17.000000  -10.000000  26.500000  0
-17.500000  -10.000000  26.000000  0
-23.500000  -10.000000  26.000000  0
-18.000000  -10.000000  25.500000  0
-19.000000  -10.000000  25.500000  0
-20.000000  -10.000000  25.500000  0
-21.000000  -10.000000  25.500000  0
-22.000000  -10.000000  25.500000  0
-23.000000  -10.000000  25.500000  0
-18.000000  -9.500000  41.000000  0
-19.000000  -9.500000  41.000000  0
-18.000000  -9.500000  40.000000  0
-18.500000  -9.000000  40.000000  0
-19.000000  -9.000000  40.500000  0
-19.500000  -9.000000  40.000000  0
-15.500000  -9.000000  39.000000  0
-16.000000  -9.000000  39.500000  0
-17.000000  -9.000000  39.500000  0
-18.000000  -9.000000  39.500000  0
-19.500000  -9.000000  39.000000  0
-15.500000  -9.000000  38.000000  0
-19.500000  -9.000000  38.000000  0
-15.500000  -9.000000  37.000000  0
-20.000000  -9.000000  37.500000  0
-21.000000  -9.000000  37.500000  0
-21.500000  -9.000000  37.000000  0
-15.500000  -9.000000  36.000000  0
-22.000000  -9.500000  36.000000  0
-21.500000  -9.000000  36.000000  0
-15.500000  -9.000000  35.000000  0
-22.000000  -9.000000  35.500000  0
-23.000000  -9.000000  35.500000  0
-23.500000  -9.000000  35.000000  0
-15.500000  -9.000000  34.000000  0
-23.500000  -9.000000  34.000000  0
-15.500000  -9.000000  33.000000  0
-24.000000  -9.000000  33.500000  0
-24.500000  -9.000000  33.000000  0
-14.000000  -9.500000  32.000000  0
-13.500000  -9.000000  32.000000  0
-14.000000  -9.000000  32.500000  0
-15.000000  -9.500000  32.000000  0
-15.000000  -9.000000  32.500000  0
-24.500000  -9.000000  32.000000  0
-14.000000  -9.500000  31.000000  0
-13.500000  -9.000000  31.000000  0
-24.500000  -9.000000  31.000000  0
-14.000000  -9.500000  30.000000  0
-13.500000  -9.000000  30.000000  0
-24.500000  -9.000000  30.000000  0
-14.000000  -9.500000  29.000000  0
-13.500000  -9.000000  29.000000  0
-24.500000  -9.000000  29.000000  0
-14.000000  -9.500000  28.000000  0
-13.500000  -9.000000  28.000000  0
-24.500000  -9.000000  28.000000  0
-14.000000  -9.500000  27.000000  0
-13.500000  -9.000000  27.000000  0
-15.000000  -9.500000  27.000000  0
-16.000000  -9.500000  27.000000  0
-24.000000  -9.500000  27.000000  0
-24.500000  -9.000000  27.000000  0
-14.000000  -9.500000  26.000000  0
-13.500000  -9.000000  26.000000  0
-15.000000  -9.500000  26.000000  0
-16.000000  -9.500000  26.000000  0
-17.000000  -9.500000  26.000000  0
-24.000000  -9.500000  26.000000  0
-24.500000  -9.000000  26.000000  0
-14.000000  -9.000000  25.500000  0
-15.000000  -9.000000  25.500000  0
-16.000000  -9.000000  25.500000  0
-17.000000  -9.000000  25.500000  0
-18.000000  -9.000000  25.500000  0
-19.000000  -9.000000  25.500000  0
-20.000000  -9.000000  25.500000  0
-21.000000  -9.000000  25.500000  0
-22.000000  -9.000000  25.500000  0
-23.000000  -9.000000  25.500000  0
-24.000000  -9.000000  25.500000  0
-18.000000  -8.500000  40.000000  0
-17.500000  -8.000000  40.000000  0
-18.000000  -8.000000  40.500000  0
-19.000000  -8.000000  40.500000  0
-19.500000  -8.000000  40.000000  0
-15.500000  -8.000000  39.000000  0
-16.000000  -8.000000  39.500000  0
-17.000000  -8.000000  39.500000  0
-19.500000  -8.000000  39.000000  0
-15.500000  -8.000000  38.000000  0
-19.500000  -8.000000  38.000000  0
-15.500000  -8.000000  37.000000  0
-20.000000  -8.000000  37.500000  0
-21.000000  -8.000000  37.500000  0
-21.500000  -8.000000  37.000000  0
-15.500000  -8.000000  36.000000  0
-21.500000  -8.000000  36.000000  0
-14.000000  -8.500000  35.000000  0
-13.500000  -8.000000  35.000000  0
-14.000000  -8.000000  35.500000  0
-15.000000  -8.500000  35.000000  0
-15.000000  -8.000000  35.500000  0
-22.000000  -8.000000  35.500000  0
-23.000000  -8.000000  35.500000  0
-23.500000  -8.000000  35.000000  0
-14.000000  -8.500000  34.000000  0
-13.500000  -8.000000  34.000000  0
-15.000000  -8.500000  34.000000  0
-23.500000  -8.000000  34.000000  0
-12.000000  -8.500000  33.000000  0
-11.500000  -8.000000  33.000000  0
-12.000000  -8.000000  33.500000  0
-13.000000  -8.500000  33.000000  0
-13.000000  -8.000000  33.500000  0
-14.000000  -8.500000  33.000000  0
-15.000000  -8.500000  33.000000  0
-24.000000  -8.500000  33.000000  0
-23.500000  -8.000000  33.000000  0
-12.000000  -8.500000  32.000000  0
-11.500000  -8.000000  32.000000  0
-13.000000  -8.500000  32.000000  0
-24.000000  -8.500000  32.000000  0
-23.500000  -8.000000  32.000000  0
-12.000000  -8.500000  31.000000  0
-11.500000  -8.000000  31.000000  0
-13.000000  -8.500000  31.000000  0
-24.000000  -8.500000  31.000000  0
-23.500000  -8.000000  31.000000  0
-12.000000  -8.500000  30.000000  0
-11.500000  -8.000000  30.000000  0
-13.000000  -8.500000  30.000000  0
-24.000000  -8.500000  30.000000  0
-23.500000  -8.000000  30.000000  0
-12.000000  -8.000000  29.500000  0
-13.000000  -8.500000  29.000000  0
-12.500000  -8.000000  29.000000  0
-24.000000  -8.500000  29.000000  0
-23.500000  -8.000000  29.000000  0
-13.000000  -8.500000  28.000000  0
-12.500000  -8.000000  28.000000  0
-24.000000  -8.000000  28.500000  0
-24.500000  -8.000000  28.000000  0
-13.000000  -8.500000  27.000000  0
-12.500000  -8.000000  27.000000  0
-24.500000  -8.000000  27.000000  0
-13.000000  -8.500000  26.000000  0
-12.500000  -8.000000  26.000000  0
-24.500000  -8.000000  26.000000  0
-13.000000  -8.000000  25.500000  0
-14.000000  -8.000000  25.500000  0
-15.000000  -8.000000  25.500000  0
-16.000000  -8.000000  25.500000  0
-17.000000  -8.000000  25.500000  0
-18.000000  -8.000000  25.500000  0
-19.000000  -8.000000  25.500000  0
-20.000000  -8.000000  25.500000  0
-21.000000  -8.000000  25.500000  0
-22.000000  -8.000000  25.500000  0
-23.000000  -8.000000  25.500000  0
-24.000000  -8.000000  25.500000  0
-17.500000  -7.000000  40.000000  0
-18.000000  -7.000000  40.500000  0
-19.000000  -7.000000  40.500000  0
-19.500000  -7.000000  40.000000  0
-15.500000  -7.000000  39.000000  0
-16.000000  -7.000000  39.500000  0
-17.000000  -7.000000  39.500000  0
-19.500000  -7.000000  39.000000  0
-15.500000  -7.000000  38.000000  0
-19.500000  -7.000000  38.000000  0
-15.500000  -7.000000  37.000000  0
-20.000000  -7.000000  37.500000  0
-21.000000  -7.000000  37.500000  0
-21.500000  -7.000000  37.000000  0
-14.000000  -7.500000  36.000000  0
-13.500000  -7.000000  36.000000  0
-14.000000  -7.000000  36.500000  0
-15.000000  -7.500000  36.000000  0
-15.000000  -7.000000  36.500000  0
-21.500000  -7.000000  36.000000  0
-13.500000  -7.000000  35.000000  0
-22.000000  -7.000000  35.500000  0
-23.000000  -7.000000  35.500000  0
-23.500000  -7.000000  35.000000  0
-12.000000  -7.500000  34.000000  0
-11.500000  -7.000000  34.000000  0
-12.000000  -7.000000  34.500000  0
-13.000000  -7.500000  34.000000  0
-13.000000  -7.000000  34.500000  0
-23.500000  -7.000000  34.000000  0
-11.500000  -7.000000  33.000000  0
-23.500000  -7.000000  33.000000  0
-11.500000  -7.000000  32.000000  0
-23.500000  -7.000000  32.000000  0
-11.500000  -7.000000  31.000000  0
-23.500000  -7.000000  31.000000  0
-12.000000  -7.500000  30.000000  0
-12.000000  -7.000000  30.500000  0
-12.500000  -7.000000  30.000000  0
-23.500000  -7.000000  30.000000  0
-12.500000  -7.000000  29.000000  0
-23.500000  -7.000000  29.000000  0
-12.500000  -7.000000  28.000000  0
-24.000000  -7.500000  28.000000  0
-23.500000  -7.000000  28.000000  0
-12.500000  -7.000000  27.000000  0
-24.000000  -7.000000  27.500000  0
-24.500000  -7.000000  27.000000  0
-12.500000  -7.000000  26.000000  0
-24.500000  -7.000000  26.000000  0
-13.000000  -7.000000  25.500000  0
-14.000000  -7.000000  25.500000  0
-15.000000  -7.000000  25.500000  0
-16.000000  -7.000000  25.500000  0
-17.000000  -7.000000  25.500000  0
-18.000000  -7.000000  25.500000  0
-19.000000  -7.000000  25.500000  0
-20.000000  -7.000000  25.500000  0
-21.000000  -7.000000  25.500000  0
-22.000000  -7.000000  25.500000  0
-23.000000  -7.000000  25.500000  0
-24.000000  -7.000000  25.500000  0
-17.000000  -6.500000  40.000000  0
-16.500000  -6.000000  40.000000  0
-17.000000  -6.000000  40.500000  0
-18.000000  -6.000000  40.500000  0
-19.000000  -6.000000  40.500000  0
-19.500000  -6.000000  40.000000  0
-15.500000  -6.000000  39.000000  0
-16.000000  -6.000000  39.500000  0
-19.500000  -6.000000  39.000000  0
-14.000000  -6.500000  38.000000  0
-13.500000  -6.000000  38.000000  0
-14.000000  -6.000000  38.500000  0
-15.000000  -6.500000  38.000000  0
-15.000000  -6.000000  38.500000  0
-19.500000  -6.000000  38.000000  0
-13.000000  -6.500000  37.000000  0
-12.500000  -6.000000  37.000000  0
-13.000000  -6.000000  37.500000  0
-14.000000  -6.500000  37.000000  0
-15.000000  -6.500000  37.000000  0
-20.000000  -6.500000  37.000000  0
-19.500000  -6.000000  37.000000  0
-21.000000  -6.500000  37.000000  0
-12.000000  -6.500000  36.000000  0
-11.500000  -6.000000  36.000000  0
-12.000000  -6.000000  36.500000  0
-13.000000  -6.500000  36.000000  0
-20.000000  -6.000000  36.500000  0
-21.000000  -6.500000  36.000000  0
-20.500000  -6.000000  36.000000  0
-12.000000  -6.500000  35.000000  0
-11.500000  -6.000000  35.000000  0
-13.000000  -6.500000  35.000000  0
-21.000000  -6.000000  35.500000  0
-22.000000  -6.500000  35.000000  0
-21.500000  -6.000000  35.000000  0
-23.000000  -6.500000  35.000000  0
-11.500000  -6.000000  34.000000  0
-22.000000  -6.500000  34.000000  0
-21.500000  -6.000000  34.000000  0
-23.000000  -6.500000  34.000000  0
-11.500000  -6.000000  33.000000  0
-22.000000  -6.000000  33.500000  0
-23.000000  -6.500000  33.000000  0
-22.500000  -6.000000  33.000000  0
-11.500000  -6.000000  32.000000  0
-23.000000  -6.500000  32.000000  0
-22.500000  -6.000000  32.000000  0
-11.500000  -6.000000  31.000000  0
-23.000000  -6.500000  31.000000  0
-22.500000  -6.000000  31.000000  0
-12.000000  -6.500000  30.000000  0
-11.500000  -6.000000  30.000000  0
-23.000000  -6.500000  30.000000  0
-22.500000  -6.000000  30.000000  0
-12.000000  -6.000000  29.500000  0
-12.500000  -6.000000  29.000000  0
-23.000000  -6.500000  29.000000  0
-22.500000  -6.000000  29.000000  0
-12.500000  -6.000000  28.000000  0
-23.000000  -6.500000  28.000000  0
-22.500000  -6.000000  28.000000  0
-12.500000  -6.000000  27.000000  0
-23.000000  -6.500000  27.000000  0
-22.500000  -6.000000  27.000000  0
-24.000000  -6.500000  27.000000  0
-12.500000  -6.000000  26.000000  0
-23.000000  -6.500000  26.000000  0
-22.500000  -6.000000  26.000000  0
-24.000000  -6.500000  26.000000  0
-13.000000  -6.000000  25.500000  0
-14.000000  -6.000000  25.500000  0
-15.000000  -6.000000  25.500000  0
-16.000000  -6.000000  25.500000  0
-17.000000  -6.000000  25.500000  0
-18.000000  -6.000000  25.500000  0
-19.000000  -6.000000  25.500000  0
-20.000000  -6.000000  25.500000  0
-21.000000  -6.000000  25.500000  0
-22.000000  -6.000000  25.500000  0
-16.500000  -5.000000  40.000000  0
-17.000000  -5.000000  40.500000  0
-18.000000  -5.000000  40.500000  0
-19.000000  -5.000000  40.500000  0
-19.500000  -5.000000  40.000000  0
-15.500000  -5.000000  39.000000  0
-16.000000  -5.000000  39.500000  0
-19.500000  -5.000000  39.000000  0
-13.500000  -5.000000  38.000000  0
-14.000000  -5.000000  38.500000  0
-15.000000  -5.000000  38.500000  0
-19.500000  -5.000000  38.000000  0
-12.500000  -5.000000  37.000000  0
-13.000000  -5.000000  37.500000  0
-19.500000  -5.000000  37.000000  0
-11.500000  -5.000000  36.000000  0
-12.000000  -5.000000  36.500000  0
-20.000000  -5.000000  36.500000  0
-20.500000  -5.000000  36.000000  0
-11.500000  -5.000000  35.000000  0
-21.000000  -5.000000  35.500000  0
-21.500000  -5.000000  35.000000  0
-11.500000  -5.000000  34.000000  0
-21.500000  -5.000000  34.000000  0
-11.500000  -5.000000  33.000000  0
-22.000000  -5.000000  33.500000  0
-22.500000  -5.000000  33.000000  0
-11.500000  -5.000000  32.000000  0
-22.500000  -5.000000  32.000000  0
-11.500000  -5.000000  31.000000  0
-22.500000  -5.000000  31.000000  0
-11.000000  -5.500000  30.000000  0
-10.500000  -5.000000  30.000000  0
-11.000000  -5.000000  30.500000  0
-22.500000  -5.000000  30.000000  0
-11.000000  -5.500000  29.000000  0
-10.500000  -5.000000  29.000000  0
-12.000000  -5.500000  29.000000  0
-22.500000  -5.000000  29.000000  0
-11.000000  -5.500000  28.000000  0
-10.500000  -5.000000  28.000000  0
-12.000000  -5.500000  28.000000  0
-22.500000  -5.000000  28.000000  0
-11.000000  -5.500000  27.000000  0
-10.500000  -5.000000  27.000000  0
-12.000000  -5.500000  27.000000  0
-22.500000  -5.000000  27.000000  0
-11.000000  -5.500000  26.000000  0
-10.500000  -5.000000  26.000000  0
-12.000000  -5.500000  26.000000  0
-22.000000  -5.500000  26.000000  0
-21.500000  -5.000000  26.000000  0
-22.000000  -5.000000  26.500000  0
-11.000000  -5.000000  25.500000  0
-12.000000  -5.000000  25.500000  0
-13.000000  -5.000000  25.500000  0
-14.000000  -5.000000  25.500000  0
-15.000000  -5.000000  25.500000  0
-16.000000  -5.000000  25.500000  0
-17.000000  -5.000000  25.500000  0
-18.000000  -5.000000  25.500000  0
-19.000000  -5.000000  25.500000  0
-20.000000  -5.000000  25.500000  0
-21.000000  -5.000000  25.500000  0
-16.500000  -4.000000  40.000000  0
-17.000000  -4.000000  40.500000  0
-18.000000  -4.000000  40.500000  0
-19.000000  -4.000000  40.500000  0
-19.500000  -4.000000  40.000000  0
-16.000000  -4.500000  39.000000  0
-16.500000  -4.000000  39.000000  0
-19.500000  -4.000000  39.000000  0
-13.500000  -4.000000  38.000000  0
-14.000000  -4.000000  38.500000  0
-15.000000  -4.000000  38.500000  0
-16.000000  -4.000000  38.500000  0
-19.500000  -4.000000  38.000000  0
-12.500000  -4.000000  37.000000  0
-13.000000  -4.000000  37.500000  0
-19.500000  -4.000000  37.000000  0
-12.000000  -4.500000  36.000000  0
-12.500000  -4.000000  36.000000  0
-20.000000  -4.000000  36.500000  0
-20.500000  -4.000000  36.000000  0
-12.000000  -4.500000  35.000000  0
-12.500000  -4.000000  35.000000  0
-21.000000  -4.500000  35.000000  0
-20.500000  -4.000000  35.000000  0
-12.000000  -4.500000  34.000000  0
-12.500000  -4.000000  34.000000  0
-21.000000  -4.000000  34.500000  0
-21.500000  -4.000000  34.000000  0
-11.500000  -4.000000  33.000000  0
-12.000000  -4.000000  33.500000  0
-22.000000  -4.500000  33.000000  0
-21.500000  -4.000000  33.000000  0
-11.500000  -4.000000  32.000000  0
-22.000000  -4.000000  32.500000  0
-22.500000  -4.000000  32.000000  0
-11.500000  -4.000000  31.000000  0
-22.500000  -4.000000  31.000000  0
-10.500000  -4.000000  30.000000  0
-11.000000  -4.000000  30.500000  0
-22.500000  -4.000000  30.000000  0
-10.500000  -4.000000  29.000000  0
-22.500000  -4.000000  29.000000  0
-10.500000  -4.000000  28.000000  0
-22.500000  -4.000000  28.000000  0
-10.500000  -4.000000  27.000000  0
-22.500000  -4.000000  27.000000  0
-10.500000  -4.000000  26.000000  0
-21.500000  -4.000000  26.000000  0
-22.000000  -4.000000  26.500000  0
-11.000000  -4.000000  25.500000  0
-12.000000  -4.000000  25.500000  0
-13.000000  -4.000000  25.500000  0
-14.000000  -4.000000  25.500000  0
-15.000000  -4.000000  25.500000  0
-16.000000  -4.000000  25.500000  0
-17.000000  -4.000000  25.500000  0
-18.000000  -4.000000  25.500000  0
-19.000000  -4.000000  25.500000  0
-20.000000  -4.000000  25.500000  0
-21.000000  -4.000000  25.500000  0
-17.000000  -3.500000  40.000000  0
-18.000000  -3.500000  40.000000  0
-19.000000  -3.500000  40.000000  0
-17.000000  -3.500000  39.000000  0
-17.500000  -3.000000  39.000000  0
-18.000000  -3.000000  39.500000  0
-19.000000  -3.000000  39.500000  0
-19.500000  -3.000000  39.000000  0
-13.500000  -3.000000  38.000000  0
-14.000000  -3.000000  38.500000  0
-15.000000  -3.000000  38.500000  0
-16.000000  -3.000000  38.500000  0
-17.000000  -3.000000  38.500000  0
-19.500000  -3.000000  38.000000  0
-12.500000  -3.000000  37.000000  0
-13.000000  -3.000000  37.500000  0
-19.500000  -3.000000  37.000000  0
-12.500000  -3.000000  36.000000  0
-20.000000  -3.000000  36.500000  0
-20.500000  -3.000000  36.000000  0
-12.500000  -3.000000  35.000000  0
-20.500000  -3.000000  35.000000  0
-12.500000  -3.000000  34.000000  0
-21.000000  -3.000000  34.500000  0
-21.500000  -3.000000  34.000000  0
-11.500000  -3.000000  33.000000  0
-12.000000  -3.000000  33.500000  0
-21.500000  -3.000000  33.000000  0
-11.500000  -3.000000  32.000000  0
-22.000000  -3.000000  32.500000  0
-22.500000  -3.000000  32.000000  0
-11.500000  -3.000000  31.000000  0
-22.500000  -3.000000  31.000000  0
-10.500000  -3.000000  30.000000  0
-11.000000  -3.000000  30.500000  0
-22.000000  -3.500000  30.000000  0
-21.500000  -3.000000  30.000000  0
-22.000000  -3.000000  30.500000  0
-10.500000  -3.000000  29.000000  0
-22.000000  -3.500000  29.000000  0
-21.500000  -3.000000  29.000000  0
-10.500000  -3.000000  28.000000  0
-22.000000  -3.500000  28.000000  0
-21.500000  -3.000000  28.000000  0
-10.500000  -3.000000  27.000000  0
-21.000000  -3.500000  27.000000  0
-20.500000  -3.000000  27.000000  0
-21.000000  -3.000000  27.500000  0
-22.000000  -3.500000  27.000000  0
-10.500000  -3.000000  26.000000  0
-21.000000  -3.500000  26.000000  0
-20.500000  -3.000000  26.000000  0
-11.000000  -3.000000  25.500000  0
-12.000000  -3.000000  25.500000  0
-13.000000  -3.000000  25.500000  0
-14.000000  -3.000000  25.500000  0
-15.000000  -3.000000  25.500000  0
-16.000000  -3.000000  25.500000  0
-17.000000  -3.000000  25.500000  0
-18.000000  -3.000000  25.500000  0
-19.000000  -3.000000  25.500000  0
-20.000000  -3.000000  25.500000  0
-18.000000  -2.500000  39.000000  0
-19.000000  -2.500000  39.000000  0
-13.500000  -2.000000  38.000000  0
-14.000000  -2.000000  38.500000  0
-15.000000  -2.000000  38.500000  0
-16.000000  -2.000000  38.500000  0
-17.000000  -2.000000  38.500000  0
-18.000000  -2.000000  38.500000  0
-19.000000  -2.500000  38.000000  0
-18.500000  -2.000000  38.000000  0
-12.500000  -2.000000  37.000000  0
-13.000000  -2.000000  37.500000  0
-19.000000  -2.500000  37.000000  0
-18.500000  -2.000000  37.000000  0
-12.500000  -2.000000  36.000000  0
-19.000000  -2.500000  36.000000  0
-18.500000  -2.000000  36.000000  0
-20.000000  -2.500000  36.000000  0
-12.500000  -2.000000  35.000000  0
-19.000000  -2.500000  35.000000  0
-18.500000  -2.000000  35.000000  0
-20.000000  -2.500000  35.000000  0
-11.000000  -2.500000  34.000000  0
-10.500000  -2.000000  34.000000  0
-11.000000  -2.000000  34.500000  0
-12.000000  -2.500000  34.000000  0
-12.000000  -2.000000  34.500000  0
-19.000000  -2.000000  34.500000  0
-20.000000  -2.000000  34.500000  0
-21.000000  -2.500000  34.000000  0
-20.500000  -2.000000  34.000000  0
-11.000000  -2.500000  33.000000  0
-10.500000  -2.000000  33.000000  0
-21.000000  -2.500000  33.000000  0
-20.500000  -2.000000  33.000000  0
-11.000000  -2.500000  32.000000  0
-10.500000  -2.000000  32.000000  0
-21.000000  -2.500000  32.000000  0
-20.500000  -2.000000  32.000000  0
-22.000000  -2.500000  32.000000  0
-11.000000  -2.500000  31.000000  0
-10.500000  -2.000000  31.000000  0
-21.000000  -2.500000  31.000000  0
-20.500000  -2.000000  31.000000  0
-22.000000  -2.500000  31.000000  0
-10.500000  -2.000000  30.000000  0
-21.000000  -2.500000  30.000000  0
-20.500000  -2.000000  30.000000  0
-10.500000  -2.000000  29.000000  0
-21.000000  -2.500000  29.000000  0
-20.500000  -2.000000  29.000000  0
-10.500000  -2.000000  28.000000  0
-21.000000  -2.500000  28.000000  0
-20.500000  -2.000000  28.000000  0
-10.500000  -2.000000  27.000000  0
-20.500000  -2.000000  27.000000  0
-10.500000  -2.000000  26.000000  0
-20.500000  -2.000000  26.000000  0
-11.000000  -2.000000  25.500000  0
-12.000000  -2.000000  25.500000  0
-13.000000  -2.000000  25.500000  0
-14.000000  -2.000000  25.500000  0
-15.000000  -2.000000  25.500000  0
-16.000000  -2.000000  25.500000  0
-17.000000  -2.000000  25.500000  0
-18.000000  -2.000000  25.500000  0
-19.000000  -2.000000  25.500000  0
-20.000000  -2.000000  25.500000  0
-13.500000  -1.000000  38.000000  0
-14.000000  -1.000000  38.500000  0
-15.000000  -1.000000  38.500000  0
-16.000000  -1.000000  38.500000  0
-17.000000  -1.000000  38.500000  0
-18.000000  -1.000000  38.500000  0
-18.500000  -1.000000  38.000000  0
-12.500000  -1.000000  37.000000  0
-13.000000  -1.000000  37.500000  0
-18.500000  -1.000000  37.000000  0
-12.500000  -1.000000  36.000000  0
-18.500000  -1.000000  36.000000  0
-12.500000  -1.000000  35.000000  0
-18.500000  -1.000000  35.000000  0
-10.500000  -1.000000  34.000000  0
-11.000000  -1.000000  34.500000  0
-12.000000  -1.000000  34.500000  0
-19.000000  -1.000000  34.500000  0
-20.000000  -1.000000  34.500000  0
-20.500000  -1.000000  34.000000  0
-10.500000  -1.000000  33.000000  0
-20.500000  -1.000000  33.000000  0
-10.500000  -1.000000  32.000000  0
-20.500000  -1.000000  32.000000  0
-9.000000  -1.500000  31.000000  0
-8.500000  -1.000000  31.000000  0
-9.000000  -1.000000  31.500000  0
-10.000000  -1.500000  31.000000  0
-10.000000  -1.000000  31.500000  0
-20.500000  -1.000000  31.000000  0
-9.000000  -1.500000  30.000000  0
-8.500000  -1.000000  30.000000  0
-10.000000  -1.500000  30.000000  0
-20.000000  -1.500000  30.000000  0
-19.500000  -1.000000  30.000000  0
-20.000000  -1.000000  30.500000  0
-9.000000  -1.500000  29.000000  0
-8.500000  -1.000000  29.000000  0
-10.000000  -1.500000  29.000000  0
-20.000000  -1.500000  29.000000  0
-19.500000  -1.000000  29.000000  0
-9.000000  -1.500000  28.000000  0
-8.500000  -1.000000  28.000000  0
-10.000000  -1.500000  28.000000  0
-19.000000  -1.500000  28.000000  0
-18.500000  -1.000000  28.000000  0
-19.000000  -1.000000  28.500000  0
-20.000000  -1.500000  28.000000  0
-9.000000  -1.000000  27.500000  0
-10.000000  -1.000000  27.500000  0
-10.500000  -1.000000  27.000000  0
-18.000000  -1.500000  27.000000  0
-17.500000  -1.000000  27.000000  0
-18.000000  -1.000000  27.500000  0
-19.000000  -1.500000  27.000000  0
-20.000000  -1.500000  27.000000  0
-10.500000  -1.000000  26.000000  0
-18.000000  -1.500000  26.000000  0
-17.500000  -1.000000  26.000000  0
-19.000000  -1.500000  26.000000  0
-20.000000  -1.500000  26.000000  0
-11.000000  -1.000000  25.500000  0
-12.000000  -1.000000  25.500000  0
-13.000000  -1.000000  25.500000  0
-14.000000  -1.000000  25.500000  0
-15.000000  -1.000000  25.500000  0
-16.000000  -1.000000  25.500000  0
-17.000000  -1.000000  25.500000  0
-14.000000  -0.500000  38.000000  0
-15.000000  -0.500000  38.000000  0
-16.000000  -0.500000  38.000000  0
-17.000000  -0.500000  38.000000  0
-18.000000  -0.500000  38.000000  0
-13.000000  -0.500000  37.000000  0
-14.000000  -0.500000  37.000000  0
-15.000000  -0.500000  37.000000  0
-16.000000  -0.500000  37.000000  0
-17.000000  -0.500000  37.000000  0
-18.000000  -0.500000  37.000000  0
-13.000000  -0.500000  36.000000  0
-14.000000  -0.500000  36.000000  0
-15.000000  -0.500000  36.000000  0
-16.000000  -0.500000  36.000000  0
-17.000000  -0.500000  36.000000  0
-17.500000  0.000000  36.000000  0
-18.000000  0.000000  36.500000  0
-18.500000  0.000000  36.000000  0
-12.500000  0.000000  35.000000  0
-13.000000  0.000000  35.500000  0
-14.000000  0.000000  35.500000  0
-15.000000  0.000000  35.500000  0
-16.000000  0.000000  35.500000  0
-17.000000  0.000000  35.500000  0
-18.500000  0.000000  35.000000  0
-10.500000  0.000000  34.000000  0
-11.000000  0.000000  34.500000  0
-12.000000  0.000000  34.500000  0
-19.000000  -0.500000  34.000000  0
-18.500000  0.000000  34.000000  0
-20.000000  -0.500000  34.000000  0
-10.500000  0.000000  33.000000  0
-19.000000  -0.500000  33.000000  0
-18.500000  0.000000  33.000000  0
-20.000000  -0.500000  33.000000  0
-10.500000  0.000000  32.000000  0
-19.000000  -0.500000  32.000000  0
-18.500000  0.000000  32.000000  0
-20.000000  -0.500000  32.000000  0
-8.500000  0.000000  31.000000  0
-9.000000  0.000000  31.500000  0
-10.000000  0.000000  31.500000  0
-19.000000  -0.500000  31.000000  0
-18.500000  0.000000  31.000000  0
-20.000000  -0.500000  31.000000  0
-8.500000  0.000000  30.000000  0
-19.000000  -0.500000  30.000000  0
-18.500000  0.000000  30.000000  0
-8.500000  0.000000  29.000000  0
-19.000000  -0.500000  29.000000  0
-18.500000  0.000000  29.000000  0
-8.500000  0.000000  28.000000  0
-18.500000  0.000000  28.000000  0
-9.000000  0.000000  27.500000  0
-10.000000  0.000000  27.500000  0
-10.500000  0.000000  27.000000  0
-17.500000  0.000000  27.000000  0
-18.000000  0.000000  27.500000  0
-10.500000  0.000000  26.000000  0
-17.500000  0.000000  26.000000  0
-11.000000  0.000000  25.500000  0
-12.000000  0.000000  25.500000  0
-13.000000  0.000000  25.500000  0
-14.000000  0.000000  25.500000  0
-15.000000  0.000000  25.500000  0
-16.000000  0.000000  25.500000  0
-17.000000  0.000000  25.500000  0
-18.000000  0.500000  36.000000  0
-12.500000  1.000000  35.000000  0
-13.000000  1.000000  35.500000  0
-14.000000  1.000000  35.500000  0
-15.000000  1.000000  35.500000  0
-16.000000  1.000000  35.500000  0
-17.000000  1.000000  35.500000  0
-18.000000  1.000000  35.500000  0
-18.500000  1.000000  35.000000  0
-10.500000  1.000000  34.000000  0
-11.000000  1.000000  34.500000  0
-12.000000  1.000000  34.500000  0
-18.500000  1.000000  34.000000  0
-10.500000  1.000000  33.000000  0
-18.500000  1.000000  33.000000  0
-10.500000  1.000000  32.000000  0
-18.500000  1.000000  32.000000  0
-8.500000  1.000000  31.000000  0
-9.000000  1.000000  31.500000  0
-10.000000  1.000000  31.500000  0
-18.500000  1.000000  31.000000  0
-8.500000  1.000000  30.000000  0
-18.500000  1.000000  30.000000  0
-8.500000  1.000000  29.000000  0
-18.000000  0.500000  29.000000  0
-17.500000  1.000000  29.000000  0
-18.000000  1.000000  29.500000  0
-8.500000  1.000000  28.000000  0
-18.000000  0.500000  28.000000  0
-17.500000  1.000000  28.000000  0
-9.000000  1.000000  27.500000  0
-10.000000  1.000000  27.500000  0
-10.500000  1.000000  27.000000  0
-17.500000  1.000000  27.000000  0
-10.500000  1.000000  26.000000  0
-17.500000  1.000000  26.000000  0
-11.000000  1.000000  25.500000  0
-12.000000  1.000000  25.500000  0
-13.000000  1.000000  25.500000  0
-14.000000  1.000000  25.500000  0
-15.000000  1.000000  25.500000  0
-16.000000  1.000000  25.500000  0
-17.000000  1.000000  25.500000  0
-13.000000  1.500000  35.000000  0
-14.000000  1.500000  35.000000  0
-15.000000  1.500000  35.000000  0
-16.000000  1.500000  35.000000  0
-17.000000  1.500000  35.000000  0
-18.000000  1.500000  35.000000  0
-11.000000  1.500000  34.000000  0
-12.000000  1.500000  34.000000  0
-13.000000  1.500000  34.000000  0
-14.000000  1.500000  34.000000  0
-15.000000  1.500000  34.000000  0
-16.000000  1.500000  34.000000  0
-17.000000  1.500000  34.000000  0
-18.000000  1.500000  34.000000  0
-10.500000  2.000000  33.000000  0
-11.000000  2.000000  33.500000  0
-12.000000  2.000000  33.500000  0
-13.000000  2.000000  33.500000  0
-14.000000  2.000000  33.500000  0
-15.000000  2.000000  33.500000  0
-16.000000  2.000000  33.500000  0
-17.000000  2.000000  33.500000  0
-18.000000  1.500000  33.000000  0
-17.500000  2.000000  33.000000  0
-10.500000  2.000000  32.000000  0
-18.000000  1.500000  32.000000  0
-17.500000  2.000000  32.000000  0
-8.500000  2.000000  31.000000  0
-9.000000  2.000000  31.500000  0
-10.000000  2.000000  31.500000  0
-18.000000  1.500000  31.000000  0
-17.500000  2.000000  31.000000  0
-8.500000  2.000000  30.000000  0
-18.000000  1.500000  30.000000  0
-17.500000  2.000000  30.000000  0
-8.500000  2.000000  29.000000  0
-16.000000  1.500000  29.000000  0
-15.500000  2.000000  29.000000  0
-16.000000  2.000000  29.500000  0
-17.000000  1.500000  29.000000  0
-17.000000  2.000000  29.500000  0
-8.500000  2.000000  28.000000  0
-16.000000  1.500000  28.000000  0
-15.500000  2.000000  28.000000  0
-17.000000  1.500000  28.000000  0
-9.000000  2.000000  27.500000  0
-10.000000  2.000000  27.500000  0
-10.500000  2.000000  27.000000  0
-16.000000  1.500000  27.000000  0
-15.500000  2.000000  27.000000  0
-17.000000  1.500000  27.000000  0
-11.000000  1.500000  26.000000  0
-11.000000  2.000000  26.500000  0
-12.000000  1.500000  26.000000  0
-12.000000  2.000000  26.500000  0
-12.500000  2.000000  26.000000  0
-15.000000  1.500000  26.000000  0
-14.500000  2.000000  26.000000  0
-15.000000  2.000000  26.500000  0
-16.000000  1.500000  26.000000  0
-17.000000  1.500000  26.000000  0
-13.000000  2.000000  25.500000  0
-14.000000  2.000000  25.500000  0
-11.000000  2.500000  33.000000  0
-12.000000  2.500000  33.000000  0
-13.000000  2.500000  33.000000  0
-14.000000  2.500000  33.000000  0
-15.000000  2.500000  33.000000  0
-16.000000  2.500000  33.000000  0
-17.000000  2.500000  33.000000  0
-11.000000  2.500000  32.000000  0
-12.000000  2.500000  32.000000  0
-13.000000  2.500000  32.000000  0
-14.000000  2.500000  32.000000  0
-15.000000  2.500000  32.000000  0
-16.000000  2.500000  32.000000  0
-16.500000  3.000000  32.000000  0
-17.000000  3.000000  32.500000  0
-17.500000  3.000000  32.000000  0
-9.000000  2.500000  31.000000  0
-10.000000  2.500000  31.000000  0
-11.000000  2.500000  31.000000  0
-12.000000  2.500000  31.000000  0
-13.000000  2.500000  31.000000  0
-13.500000  3.000000  31.000000  0
-14.000000  3.000000  31.500000  0
-15.000000  3.000000  31.500000  0
-16.000000  3.000000  31.500000  0
-17.000000  2.500000  31.000000  0
-16.500000  3.000000  31.000000  0
-17.000000  3.000000  31.500000  0
-9.000000  2.500000  30.000000  0
-10.000000  2.500000  30.000000  0
-11.000000  2.500000  30.000000  0
-12.000000  2.500000  30.000000  0
-13.000000  2.500000  30.000000  0
-13.500000  3.000000  30.000000  0
-16.000000  2.500000  30.000000  0
-15.500000  3.000000  30.000000  0
-16.000000  3.000000  30.500000  0
-17.000000  2.500000  30.000000  0
-9.000000  2.500000  29.000000  0
-10.000000  2.500000  29.000000  0
-11.000000  2.500000  29.000000  0
-12.000000  2.500000  29.000000  0
-13.000000  2.500000  29.000000  0
-13.500000  3.000000  29.000000  0
-15.000000  2.500000  29.000000  0
-14.500000  3.000000  29.000000  0
-15.000000  3.000000  29.500000  0
-9.000000  2.500000  28.000000  0
-10.000000  2.500000  28.000000  0
-11.000000  2.500000  28.000000  0
-12.000000  2.500000  28.000000  0
-13.000000  2.500000  28.000000  0
-14.000000  2.500000  28.000000  0
-14.000000  3.000000  28.500000  0
-15.000000  2.500000  28.000000  0
-11.000000  2.500000  27.000000  0
-12.000000  2.500000  27.000000  0
-13.000000  2.500000  27.000000  0
-14.000000  2.500000  27.000000  0
-15.000000  2.500000  27.000000  0
-13.000000  2.500000  26.000000  0
-14.000000  2.500000  26.000000  0
-17.000000  3.500000  32.000000  0
-14.000000  3.500000  31.000000  0
-15.000000  3.500000  31.000000  0
-16.000000  3.500000  31.000000  0
-14.000000  3.500000  30.000000  0
-15.000000  3.500000  30.000000  0
-14.000000  3.500000  29.000000  0
2 0 1 0
3 0 2 0
0 5 1 0
4 5 0 0
3 4 0 0
6 4 3 0
4 8 5 0
7 8 4 0
9 7 4 0
10 9 4 0
6 10 4 0
11 9 10 0
7 13 8 0
12 13 7 0
14 7 9 0
12 7 14 0
11 14 9 0
15 14 11 0
12 17 13 0
16 17 12 0
18 12 14 0
16 12 18 0
15 18 14 0
19 18 15 0
17 16 20 0
16 18 21 0
20 16 21 0
22 20 21 0
23 21 18 0
24 23 18 0
19 24 18 0
25 23 24 0
21 27 22 0
26 27 21 0
28 21 23 0
26 21 28 0
25 28 23 0
29 28 25 0
27 26 30 0
26 28 31 0
30 26 31 0
32 30 31 0
33 31 28 0
34 33 28 0
29 34 28 0
35 33 34 0
32 31 36 0
31 37 36 0
33 37 31 0
33 35 37 0
40 38 39 0
41 38 40 0
1 42 39 0
2 1 39 0
38 2 39 0
41 43 3 0
38 41 3 0
2 38 3 0
46 44 45 0
42 1 5 0
42 5 44 0
42 44 46 0
6 43 47 0
3 43 6 0
44 49 45 0
48 49 44 0
5 8 44 0
44 8 48 0
50 10 47 0
47 10 6 0
51 10 50 0
11 10 51 0
48 53 49 0
52 53 48 0
8 13 48 0
48 13 52 0
15 51 54 0
11 51 15 0
52 56 53 0
55 56 52 0
13 17 52 0
52 17 55 0
19 54 57 0
15 54 19 0
55 59 56 0
58 59 55 0
60 58 55 0
60 55 17 0
60 17 20 0
22 60 20 0
61 24 57 0
57 24 19 0
62 24 61 0
25 24 62 0
