#!ascii version of 
5510 11044
24.000000  -33.500000  40.000000  0
24.500000  -33.000000  40.000000  0
24.000000  -33.000000  40.500000  0
23.000000  -33.500000  40.000000  0
23.000000  -33.000000  40.500000  0
22.000000  -33.500000  40.000000  0
22.000000  -33.000000  40.500000  0
21.000000  -33.500000  40.000000  0
21.000000  -33.000000  40.500000  0
20.500000  -33.000000  40.000000  0
25.000000  -33.500000  39.000000  0
25.500000  -33.000000  39.000000  0
25.000000  -33.000000  39.500000  0
23.500000  -33.000000  39.000000  0
23.000000  -33.000000  39.500000  0
22.000000  -33.000000  39.500000  0
21.000000  -33.000000  39.500000  0
25.000000  -33.500000  38.000000  0
25.500000  -33.000000  38.000000  0
24.500000  -33.000000  38.000000  0
24.000000  -33.000000  38.500000  0
27.000000  -33.500000  37.000000  0
27.500000  -33.000000  37.000000  0
27.000000  -33.000000  37.500000  0
26.000000  -33.000000  37.500000  0
25.000000  -33.500000  37.000000  0
24.500000  -33.000000  37.000000  0
28.000000  -33.500000  36.000000  0
27.500000  -33.000000  36.000000  0
25.000000  -33.500000  36.000000  0
24.500000  -33.000000  36.000000  0
28.500000  -33.000000  35.000000  0
28.000000  -33.000000  35.500000  0
26.000000  -33.500000  35.000000  0
25.000000  -33.500000  35.000000  0
24.000000  -33.500000  35.000000  0
24.000000  -33.000000  35.500000  0
23.000000  -33.500000  35.000000  0
23.000000  -33.000000  35.500000  0
22.500000  -33.000000  35.000000  0
20.000000  -33.500000  35.000000  0
20.500000  -33.000000  35.000000  0
20.000000  -33.000000  35.500000  0
19.500000  -33.000000  35.000000  0
29.500000  -33.000000  34.000000  0
29.000000  -33.000000  34.500000  0
27.000000  -33.500000  34.000000  0
26.000000  -33.500000  34.000000  0
22.000000  -33.000000  34.500000  0
21.000000  -33.000000  34.500000  0
20.000000  -33.500000  34.000000  0
19.500000  -33.000000  34.000000  0
29.000000  -33.000000  33.500000  0
28.000000  -33.500000  33.000000  0
28.500000  -33.000000  33.000000  0
27.000000  -33.500000  33.000000  0
26.500000  -33.000000  33.000000  0
26.000000  -33.000000  33.500000  0
25.000000  -33.500000  33.000000  0
25.500000  -33.000000  33.000000  0
20.000000  -33.500000  33.000000  0
19.500000  -33.000000  33.000000  0
28.000000  -33.000000  32.500000  0
27.000000  -33.000000  32.500000  0
25.000000  -33.000000  32.500000  0
24.500000  -33.000000  32.000000  0
21.000000  -33.500000  32.000000  0
20.500000  -33.000000  32.000000  0
20.000000  -33.000000  32.500000  0
25.000000  -33.500000  31.000000  0
25.500000  -33.000000  31.000000  0
25.000000  -33.000000  31.500000  0
22.000000  -33.500000  31.000000  0
21.000000  -33.500000  31.000000  0
20.500000  -33.000000  31.000000  0
26.500000  -33.000000  30.000000  0
26.000000  -33.000000  30.500000  0
23.000000  -33.500000  30.000000  0
22.500000  -33.000000  30.000000  0
22.000000  -33.000000  30.500000  0
21.000000  -33.000000  30.500000  0
26.500000  -33.000000  29.000000  0
23.500000  -33.000000  29.000000  0
23.000000  -33.000000  29.500000  0
27.500000  -33.000000  28.000000  0
27.000000  -33.000000  28.500000  0
25.000000  -33.500000  28.000000  0
24.500000  -33.000000  28.000000  0
24.000000  -33.000000  28.500000  0
27.500000  -33.000000  27.000000  0
25.500000  -33.000000  27.000000  0
25.000000  -33.000000  27.500000  0
27.000000  -33.000000  26.500000  0
26.000000  -33.500000  26.000000  0
26.500000  -33.000000  26.000000  0
25.500000  -33.000000  26.000000  0
26.000000  -33.000000  25.500000  0
20.000000  -32.500000  42.000000  0
20.500000  -32.000000  42.000000  0
20.000000  -32.000000  42.500000  0
19.000000  -32.500000  42.000000  0
19.000000  -32.000000  42.500000  0
18.500000  -32.000000  42.000000  0
22.000000  -32.500000  41.000000  0
22.500000  -32.000000  41.000000  0
22.000000  -32.000000  41.500000  0
21.000000  -32.500000  41.000000  0
21.000000  -32.000000  41.500000  0
20.000000  -32.500000  41.000000  0
19.000000  -32.500000  41.000000  0
18.500000  -32.000000  41.000000  0
24.500000  -32.000000  40.000000  0
24.000000  -32.000000  40.500000  0
23.000000  -32.000000  40.500000  0
20.000000  -32.500000  40.000000  0
19.000000  -32.500000  40.000000  0
18.500000  -32.000000  40.000000  0
25.500000  -32.000000  39.000000  0
25.000000  -32.000000  39.500000  0
23.000000  -32.500000  39.000000  0
22.500000  -32.000000  39.000000  0
22.000000  -32.000000  39.500000  0
21.000000  -32.000000  39.500000  0
20.000000  -32.000000  39.500000  0
19.000000  -32.000000  39.500000  0
26.000000  -32.500000  38.000000  0
26.500000  -32.000000  38.000000  0
26.000000  -32.000000  38.500000  0
24.000000  -32.500000  38.000000  0
23.000000  -32.500000  38.000000  0
22.500000  -32.000000  38.000000  0
27.500000  -32.000000  37.000000  0
27.000000  -32.000000  37.500000  0
24.500000  -32.000000  37.000000  0
24.000000  -32.000000  37.500000  0
23.000000  -32.500000  37.000000  0
23.500000  -32.000000  37.000000  0
22.500000  -32.000000  37.000000  0
27.500000  -32.000000  36.000000  0
24.500000  -32.000000  36.000000  0
23.000000  -32.000000  36.500000  0
20.000000  -32.500000  36.000000  0
20.500000  -32.000000  36.000000  0
20.000000  -32.000000  36.500000  0
19.000000  -32.500000  36.000000  0
19.000000  -32.000000  36.500000  0
18.500000  -32.000000  36.000000  0
28.500000  -32.000000  35.000000  0
28.000000  -32.000000  35.500000  0
24.000000  -32.000000  35.500000  0
23.000000  -32.000000  35.500000  0
22.500000  -32.000000  35.000000  0
20.500000  -32.000000  35.000000  0
19.000000  -32.500000  35.000000  0
18.500000  -32.000000  35.000000  0
29.000000  -32.500000  34.000000  0
28.500000  -32.000000  34.000000  0
26.000000  -32.500000  34.000000  0
26.500000  -32.000000  34.000000  0
26.000000  -32.000000  34.500000  0
25.500000  -32.000000  34.000000  0
22.000000  -32.000000  34.500000  0
21.000000  -32.000000  34.500000  0
19.000000  -32.500000  34.000000  0
18.500000  -32.000000  34.000000  0
28.500000  -32.000000  33.000000  0
27.000000  -32.500000  33.000000  0
27.500000  -32.000000  33.000000  0
27.000000  -32.000000  33.500000  0
25.500000  -32.000000  33.000000  0
19.000000  -32.500000  33.000000  0
18.500000  -32.000000  33.000000  0
28.000000  -32.500000  32.000000  0
28.500000  -32.000000  32.000000  0
27.500000  -32.000000  32.000000  0
25.000000  -32.500000  32.000000  0
25.500000  -32.000000  32.000000  0
20.000000  -32.500000  32.000000  0
19.500000  -32.000000  32.000000  0
19.000000  -32.000000  32.500000  0
28.000000  -32.000000  31.500000  0
26.000000  -32.500000  31.000000  0
26.500000  -32.000000  31.000000  0
26.000000  -32.000000  31.500000  0
21.000000  -32.500000  31.000000  0
21.500000  -32.000000  31.000000  0
21.000000  -32.000000  31.500000  0
20.000000  -32.000000  31.500000  0
26.500000  -32.000000  30.000000  0
22.500000  -32.000000  30.000000  0
22.000000  -32.000000  30.500000  0
27.000000  -32.500000  29.000000  0
27.500000  -32.000000  29.000000  0
27.000000  -32.000000  29.500000  0
23.500000  -32.000000  29.000000  0
23.000000  -32.000000  29.500000  0
29.000000  -32.500000  28.000000  0
29.500000  -32.000000  28.000000  0
29.000000  -32.000000  28.500000  0
28.000000  -32.500000  28.000000  0
28.000000  -32.000000  28.500000  0
24.500000  -32.000000  28.000000  0
24.000000  -32.000000  28.500000  0
29.000000  -32.000000  27.500000  0
28.000000  -32.500000  27.000000  0
28.500000  -32.000000  27.000000  0
25.500000  -32.000000  27.000000  0
25.000000  -32.000000  27.500000  0
28.000000  -32.000000  26.500000  0
27.000000  -32.500000  26.000000  0
27.500000  -32.000000  26.000000  0
25.500000  -32.000000  26.000000  0
27.000000  -32.000000  25.500000  0
26.000000  -32.000000  25.500000  0
22.000000  -31.500000  42.000000  0
22.500000  -31.000000  42.000000  0
22.000000  -31.000000  42.500000  0
21.000000  -31.500000  42.000000  0
21.000000  -31.000000  42.500000  0
20.000000  -31.000000  42.500000  0
19.000000  -31.000000  42.500000  0
18.000000  -31.500000  42.000000  0
18.000000  -31.000000  42.500000  0
17.500000  -31.000000  42.000000  0
23.000000  -31.500000  41.000000  0
23.500000  -31.000000  41.000000  0
23.000000  -31.000000  41.500000  0
18.000000  -31.500000  41.000000  0
17.500000  -31.000000  41.000000  0
24.500000  -31.000000  40.000000  0
24.000000  -31.000000  40.500000  0
18.500000  -31.000000  40.000000  0
18.000000  -31.000000  40.500000  0
25.500000  -31.000000  39.000000  0
25.000000  -31.000000  39.500000  0
22.500000  -31.000000  39.000000  0
22.000000  -31.000000  39.500000  0
21.000000  -31.000000  39.500000  0
20.000000  -31.000000  39.500000  0
19.000000  -31.000000  39.500000  0
26.500000  -31.000000  38.000000  0
26.000000  -31.000000  38.500000  0
22.500000  -31.000000  38.000000  0
27.000000  -31.500000  37.000000  0
26.500000  -31.000000  37.000000  0
24.000000  -31.500000  37.000000  0
22.500000  -31.000000  37.000000  0
19.000000  -31.500000  37.000000  0
19.500000  -31.000000  37.000000  0
19.000000  -31.000000  37.500000  0
18.000000  -31.500000  37.000000  0
18.000000  -31.000000  37.500000  0
17.500000  -31.000000  37.000000  0
27.500000  -31.000000  36.000000  0
27.000000  -31.000000  36.500000  0
24.000000  -31.500000  36.000000  0
23.000000  -31.500000  36.000000  0
22.000000  -31.500000  36.000000  0
22.000000  -31.000000  36.500000  0
21.000000  -31.500000  36.000000  0
21.000000  -31.000000  36.500000  0
20.000000  -31.000000  36.500000  0
18.000000  -31.500000  36.000000  0
17.500000  -31.000000  36.000000  0
28.500000  -31.000000  35.000000  0
28.000000  -31.000000  35.500000  0
22.000000  -31.500000  35.000000  0
21.000000  -31.500000  35.000000  0
18.000000  -31.500000  35.000000  0
17.500000  -31.000000  35.000000  0
28.500000  -31.000000  34.000000  0
26.500000  -31.000000  34.000000  0
26.000000  -31.000000  34.500000  0
25.500000  -31.000000  34.000000  0
18.000000  -31.500000  34.000000  0
17.500000  -31.000000  34.000000  0
28.500000  -31.000000  33.000000  0
27.500000  -31.000000  33.000000  0
27.000000  -31.000000  33.500000  0
25.500000  -31.000000  33.000000  0
19.000000  -31.500000  33.000000  0
19.500000  -31.000000  33.000000  0
19.000000  -31.000000  33.500000  0
18.000000  -31.000000  33.500000  0
28.000000  -31.500000  32.000000  0
28.000000  -31.000000  32.500000  0
25.500000  -31.000000  32.000000  0
20.000000  -31.500000  32.000000  0
20.500000  -31.000000  32.000000  0
20.000000  -31.000000  32.500000  0
26.500000  -31.000000  31.000000  0
26.000000  -31.000000  31.500000  0
21.500000  -31.000000  31.000000  0
21.000000  -31.000000  31.500000  0
27.000000  -31.500000  30.000000  0
27.500000  -31.000000  30.000000  0
27.000000  -31.000000  30.500000  0
22.500000  -31.000000  30.000000  0
22.000000  -31.000000  30.500000  0
28.000000  -31.500000  29.000000  0
28.500000  -31.000000  29.000000  0
28.000000  -31.000000  29.500000  0
23.500000  -31.000000  29.000000  0
23.000000  -31.000000  29.500000  0
29.500000  -31.000000  28.000000  0
29.000000  -31.000000  28.500000  0
24.500000  -31.000000  28.000000  0
24.000000  -31.000000  28.500000  0
29.000000  -31.000000  27.500000  0
28.500000  -31.000000  27.000000  0
25.000000  -31.500000  27.000000  0
24.500000  -31.000000  27.000000  0
28.000000  -31.000000  26.500000  0
27.500000  -31.000000  26.000000  0
25.500000  -31.000000  26.000000  0
25.000000  -31.000000  26.500000  0
27.000000  -31.000000  25.500000  0
26.000000  -31.000000  25.500000  0
20.000000  -30.500000  43.000000  0
20.500000  -30.000000  43.000000  0
20.000000  -30.000000  43.500000  0
19.000000  -30.500000  43.000000  0
19.000000  -30.000000  43.500000  0
18.000000  -30.500000  43.000000  0
18.000000  -30.000000  43.500000  0
17.500000  -30.000000  43.000000  0
22.500000  -30.000000  42.000000  0
22.000000  -30.000000  42.500000  0
21.000000  -30.000000  42.500000  0
17.000000  -30.500000  42.000000  0
17.000000  -30.000000  42.500000  0
16.000000  -30.500000  42.000000  0
16.000000  -30.000000  42.500000  0
15.500000  -30.000000  42.000000  0
23.500000  -30.000000  41.000000  0
23.000000  -30.000000  41.500000  0
17.000000  -30.500000  41.000000  0
16.000000  -30.500000  41.000000  0
15.500000  -30.000000  41.000000  0
24.500000  -30.000000  40.000000  0
24.000000  -30.000000  40.500000  0
18.500000  -30.000000  40.000000  0
18.000000  -30.000000  40.500000  0
17.000000  -30.000000  40.500000  0
16.000000  -30.000000  40.500000  0
25.500000  -30.000000  39.000000  0
25.000000  -30.000000  39.500000  0
22.000000  -30.500000  39.000000  0
21.000000  -30.500000  39.000000  0
20.500000  -30.000000  39.000000  0
20.000000  -30.000000  39.500000  0
19.000000  -30.000000  39.500000  0
26.500000  -30.000000  38.000000  0
26.000000  -30.000000  38.500000  0
22.000000  -30.500000  38.000000  0
21.000000  -30.500000  38.000000  0
20.500000  -30.000000  38.000000  0
26.500000  -30.000000  37.000000  0
22.000000  -30.500000  37.000000  0
21.000000  -30.500000  37.000000  0
20.000000  -30.500000  37.000000  0
20.000000  -30.000000  37.500000  0
19.000000  -30.000000  37.500000  0
18.000000  -30.000000  37.500000  0
17.500000  -30.000000  37.000000  0
27.500000  -30.000000  36.000000  0
27.000000  -30.000000  36.500000  0
17.500000  -30.000000  36.000000  0
28.000000  -30.500000  35.000000  0
27.500000  -30.000000  35.000000  0
26.000000  -30.500000  35.000000  0
26.500000  -30.000000  35.000000  0
26.000000  -30.000000  35.500000  0
25.500000  -30.000000  35.000000  0
17.500000  -30.000000  35.000000  0
28.000000  -30.500000  34.000000  0
27.000000  -30.500000  34.000000  0
27.000000  -30.000000  34.500000  0
25.500000  -30.000000  34.000000  0
19.000000  -30.500000  34.000000  0
19.500000  -30.000000  34.000000  0
19.000000  -30.000000  34.500000  0
18.000000  -30.500000  34.000000  0
18.000000  -30.000000  34.500000  0
28.000000  -30.500000  33.000000  0
25.500000  -30.000000  33.000000  0
20.000000  -30.500000  33.000000  0
20.500000  -30.000000  33.000000  0
20.000000  -30.000000  33.500000  0
26.000000  -30.500000  32.000000  0
26.500000  -30.000000  32.000000  0
26.000000  -30.000000  32.500000  0
21.000000  -30.500000  32.000000  0
21.500000  -30.000000  32.000000  0
21.000000  -30.000000  32.500000  0
27.000000  -30.500000  31.000000  0
27.500000  -30.000000  31.000000  0
27.000000  -30.000000  31.500000  0
22.000000  -30.500000  31.000000  0
22.500000  -30.000000  31.000000  0
22.000000  -30.000000  31.500000  0
28.000000  -30.500000  30.000000  0
28.500000  -30.000000  30.000000  0
28.000000  -30.000000  30.500000  0
23.000000  -30.500000  30.000000  0
23.500000  -30.000000  30.000000  0
23.000000  -30.000000  30.500000  0
28.500000  -30.000000  29.000000  0
24.000000  -30.500000  29.000000  0
24.500000  -30.000000  29.000000  0
24.000000  -30.000000  29.500000  0
29.000000  -30.500000  28.000000  0
28.500000  -30.000000  28.000000  0
24.500000  -30.000000  28.000000  0
28.500000  -30.000000  27.000000  0
24.500000  -30.000000  27.000000  0
28.000000  -30.500000  26.000000  0
28.500000  -30.000000  26.000000  0
25.500000  -30.000000  26.000000  0
25.000000  -30.000000  26.500000  0
28.000000  -30.000000  25.500000  0
27.000000  -30.000000  25.500000  0
26.000000  -30.000000  25.500000  0
20.000000  -29.500000  44.000000  0
20.500000  -29.000000  44.000000  0
20.000000  -29.000000  44.500000  0
19.000000  -29.500000  44.000000  0
19.000000  -29.000000  44.500000  0
18.000000  -29.500000  44.000000  0
18.000000  -29.000000  44.500000  0
17.500000  -29.000000  44.000000  0
22.000000  -29.500000  43.000000  0
22.500000  -29.000000  43.000000  0
22.000000  -29.000000  43.500000  0
21.000000  -29.500000  43.000000  0
21.000000  -29.000000  43.500000  0
17.000000  -29.500000  43.000000  0
17.000000  -29.000000  43.500000  0
16.000000  -29.500000  43.000000  0
16.000000  -29.000000  43.500000  0
15.500000  -29.000000  43.000000  0
23.000000  -29.500000  42.000000  0
23.500000  -29.000000  42.000000  0
23.000000  -29.000000  42.500000  0
15.000000  -29.500000  42.000000  0
15.000000  -29.000000  42.500000  0
14.500000  -29.000000  42.000000  0
24.000000  -29.500000  41.000000  0
24.500000  -29.000000  41.000000  0
24.000000  -29.000000  41.500000  0
15.000000  -29.500000  41.000000  0
14.500000  -29.000000  41.000000  0
25.000000  -29.500000  40.000000  0
25.500000  -29.000000  40.000000  0
25.000000  -29.000000  40.500000  0
18.500000  -29.000000  40.000000  0
18.000000  -29.000000  40.500000  0
17.000000  -29.000000  40.500000  0
16.000000  -29.000000  40.500000  0
15.000000  -29.000000  40.500000  0
25.500000  -29.000000  39.000000  0
21.000000  -29.500000  39.000000  0
21.500000  -29.000000  39.000000  0
21.000000  -29.000000  39.500000  0
20.000000  -29.500000  39.000000  0
20.500000  -29.000000  39.000000  0
19.000000  -29.500000  39.000000  0
18.500000  -29.000000  39.000000  0
26.500000  -29.000000  38.000000  0
26.000000  -29.000000  38.500000  0
22.000000  -29.500000  38.000000  0
22.500000  -29.000000  38.000000  0
22.000000  -29.000000  38.500000  0
21.000000  -29.500000  38.000000  0
20.000000  -29.500000  38.000000  0
20.500000  -29.000000  38.000000  0
19.000000  -29.500000  38.000000  0
18.000000  -29.500000  38.000000  0
18.000000  -29.000000  38.500000  0
17.000000  -29.500000  38.000000  0
17.000000  -29.000000  38.500000  0
16.500000  -29.000000  38.000000  0
26.000000  -29.500000  37.000000  0
26.000000  -29.000000  37.500000  0
25.500000  -29.000000  37.000000  0
22.000000  -29.000000  37.500000  0
21.000000  -29.500000  37.000000  0
21.500000  -29.000000  37.000000  0
20.500000  -29.000000  37.000000  0
17.000000  -29.500000  37.000000  0
16.500000  -29.000000  37.000000  0
27.500000  -29.000000  36.000000  0
27.000000  -29.000000  36.500000  0
26.000000  -29.000000  36.500000  0
22.000000  -29.500000  36.000000  0
22.500000  -29.000000  36.000000  0
22.000000  -29.000000  36.500000  0
21.000000  -29.500000  36.000000  0
20.500000  -29.000000  36.000000  0
17.000000  -29.500000  36.000000  0
16.500000  -29.000000  36.000000  0
27.500000  -29.000000  35.000000  0
26.500000  -29.000000  35.000000  0
26.000000  -29.000000  35.500000  0
25.500000  -29.000000  35.000000  0
22.000000  -29.500000  35.000000  0
22.500000  -29.000000  35.000000  0
21.000000  -29.500000  35.000000  0
20.500000  -29.000000  35.000000  0
18.000000  -29.500000  35.000000  0
18.500000  -29.000000  35.000000  0
18.000000  -29.000000  35.500000  0
17.000000  -29.000000  35.500000  0
27.000000  -29.000000  34.500000  0
25.500000  -29.000000  34.000000  0
22.000000  -29.000000  34.500000  0
21.000000  -29.000000  34.500000  0
20.000000  -29.500000  34.000000  0
20.500000  -29.000000  34.000000  0
20.000000  -29.000000  34.500000  0
19.000000  -29.000000  34.500000  0
25.500000  -29.000000  33.000000  0
22.000000  -29.500000  33.000000  0
22.500000  -29.000000  33.000000  0
22.000000  -29.000000  33.500000  0
21.000000  -29.500000  33.000000  0
21.000000  -29.000000  33.500000  0
26.000000  -29.500000  32.000000  0
25.000000  -29.500000  32.000000  0
25.000000  -29.000000  32.500000  0
24.500000  -29.000000  32.000000  0
22.000000  -29.500000  32.000000  0
22.500000  -29.000000  32.000000  0
27.000000  -29.500000  31.000000  0
26.500000  -29.000000  31.000000  0
26.000000  -29.000000  31.500000  0
25.000000  -29.000000  31.500000  0
22.500000  -29.000000  31.000000  0
28.500000  -29.000000  30.000000  0
28.000000  -29.000000  30.500000  0
27.000000  -29.000000  30.500000  0
25.000000  -29.500000  30.000000  0
25.500000  -29.000000  30.000000  0
25.000000  -29.000000  30.500000  0
24.500000  -29.000000  30.000000  0
23.500000  -29.000000  30.000000  0
23.000000  -29.000000  30.500000  0
28.500000  -29.000000  29.000000  0
25.000000  -29.500000  29.000000  0
25.500000  -29.000000  29.000000  0
24.000000  -29.000000  29.500000  0
28.000000  -29.500000  28.000000  0
28.000000  -29.000000  28.500000  0
27.000000  -29.500000  28.000000  0
27.000000  -29.000000  28.500000  0
26.000000  -29.500000  28.000000  0
26.000000  -29.000000  28.500000  0
25.000000  -29.500000  28.000000  0
28.000000  -29.500000  27.000000  0
27.000000  -29.500000  27.000000  0
26.000000  -29.500000  27.000000  0
25.000000  -29.500000  27.000000  0
28.000000  -29.500000  26.000000  0
27.000000  -29.500000  26.000000  0
26.000000  -29.500000  26.000000  0
21.000000  -28.500000  45.000000  0
21.500000  -28.000000  45.000000  0
21.000000  -28.000000  45.500000  0
20.000000  -28.500000  45.000000  0
20.000000  -28.000000  45.500000  0
19.000000  -28.500000  45.000000  0
19.000000  -28.000000  45.500000  0
18.500000  -28.000000  45.000000  0
22.000000  -28.500000  44.000000  0
22.500000  -28.000000  44.000000  0
22.000000  -28.000000  44.500000  0
21.000000  -28.500000  44.000000  0
18.000000  -28.000000  44.500000  0
17.000000  -28.500000  44.000000  0
17.000000  -28.000000  44.500000  0
16.000000  -28.500000  44.000000  0
16.000000  -28.000000  44.500000  0
15.500000  -28.000000  44.000000  0
23.000000  -28.500000  43.000000  0
23.500000  -28.000000  43.000000  0
23.000000  -28.000000  43.500000  0
15.000000  -28.500000  43.000000  0
15.000000  -28.000000  43.500000  0
14.500000  -28.000000  43.000000  0
24.000000  -28.500000  42.000000  0
24.500000  -28.000000  42.000000  0
24.000000  -28.000000  42.500000  0
14.000000  -28.500000  42.000000  0
14.000000  -28.000000  42.500000  0
13.500000  -28.000000  42.000000  0
24.500000  -28.000000  41.000000  0
14.000000  -28.500000  41.000000  0
13.500000  -28.000000  41.000000  0
25.500000  -28.000000  40.000000  0
25.000000  -28.000000  40.500000  0
18.000000  -28.500000  40.000000  0
17.000000  -28.500000  40.000000  0
16.500000  -28.000000  40.000000  0
16.000000  -28.000000  40.500000  0
15.000000  -28.000000  40.500000  0
14.000000  -28.000000  40.500000  0
25.500000  -28.000000  39.000000  0
22.000000  -28.500000  39.000000  0
22.500000  -28.000000  39.000000  0
22.000000  -28.000000  39.500000  0
21.000000  -28.000000  39.500000  0
20.000000  -28.500000  39.000000  0
20.000000  -28.000000  39.500000  0
19.500000  -28.000000  39.000000  0
18.500000  -28.000000  39.000000  0
18.000000  -28.000000  39.500000  0
17.000000  -28.000000  39.500000  0
26.000000  -28.500000  38.000000  0
25.500000  -28.000000  38.000000  0
22.000000  -28.500000  38.000000  0
22.000000  -28.000000  38.500000  0
21.500000  -28.000000  38.000000  0
20.000000  -28.500000  38.000000  0
19.500000  -28.000000  38.000000  0
18.000000  -28.500000  38.000000  0
18.500000  -28.000000  38.000000  0
17.500000  -28.000000  38.000000  0
17.000000  -28.000000  38.500000  0
16.000000  -28.500000  38.000000  0
16.000000  -28.000000  38.500000  0
15.500000  -28.000000  38.000000  0
25.500000  -28.000000  37.000000  0
21.500000  -28.000000  37.000000  0
20.000000  -28.500000  37.000000  0
19.500000  -28.000000  37.000000  0
18.000000  -28.000000  37.500000  0
16.000000  -28.500000  37.000000  0
15.500000  -28.000000  37.000000  0
27.500000  -28.000000  36.000000  0
27.000000  -28.000000  36.500000  0
26.000000  -28.000000  36.500000  0
22.500000  -28.000000  36.000000  0
22.000000  -28.000000  36.500000  0
20.000000  -28.500000  36.000000  0
19.500000  -28.000000  36.000000  0
17.000000  -28.500000  36.000000  0
17.500000  -28.000000  36.000000  0
17.000000  -28.000000  36.500000  0
16.000000  -28.000000  36.500000  0
27.500000  -28.000000  35.000000  0
26.500000  -28.000000  35.000000  0
26.000000  -28.000000  35.500000  0
25.000000  -28.500000  35.000000  0
25.000000  -28.000000  35.500000  0
24.000000  -28.500000  35.000000  0
24.000000  -28.000000  35.500000  0
23.500000  -28.000000  35.000000  0
22.500000  -28.000000  35.000000  0
20.000000  -28.500000  35.000000  0
19.000000  -28.500000  35.000000  0
19.000000  -28.000000  35.500000  0
18.000000  -28.000000  35.500000  0
27.000000  -28.000000  34.500000  0
25.000000  -28.500000  34.000000  0
24.500000  -28.000000  34.000000  0
24.000000  -28.000000  34.500000  0
22.000000  -28.500000  34.000000  0
22.500000  -28.000000  34.000000  0
21.000000  -28.500000  34.000000  0
25.000000  -28.500000  33.000000  0
24.500000  -28.000000  33.000000  0
23.000000  -28.500000  33.000000  0
23.500000  -28.000000  33.000000  0
23.000000  -28.000000  33.500000  0
24.000000  -28.500000  32.000000  0
24.000000  -28.000000  32.500000  0
23.000000  -28.500000  32.000000  0
26.500000  -28.000000  31.000000  0
26.000000  -28.000000  31.500000  0
25.000000  -28.000000  31.500000  0
24.000000  -28.500000  31.000000  0
24.500000  -28.000000  31.000000  0
23.000000  -28.500000  31.000000  0
28.000000  -28.500000  30.000000  0
27.000000  -28.500000  30.000000  0
26.500000  -28.000000  30.000000  0
25.500000  -28.000000  30.000000  0
25.000000  -28.000000  30.500000  0
24.500000  -28.000000  30.000000  0
24.000000  -28.000000  30.500000  0
23.000000  -28.500000  30.000000  0
23.000000  -28.000000  30.500000  0
22.500000  -28.000000  30.000000  0
28.000000  -28.500000  29.000000  0
27.000000  -28.500000  29.000000  0
26.500000  -28.000000  29.000000  0
25.500000  -28.000000  29.000000  0
24.000000  -28.000000  29.500000  0
23.000000  -28.500000  29.000000  0
23.500000  -28.000000  29.000000  0
22.500000  -28.000000  29.000000  0
26.000000  -28.000000  28.500000  0
23.000000  -28.000000  28.500000  0
21.000000  -27.500000  46.000000  0
21.500000  -27.000000  46.000000  0
21.000000  -27.000000  46.500000  0
20.000000  -27.500000  46.000000  0
20.000000  -27.000000  46.500000  0
19.000000  -27.500000  46.000000  0
19.000000  -27.000000  46.500000  0
18.000000  -27.500000  46.000000  0
18.000000  -27.000000  46.500000  0
17.500000  -27.000000  46.000000  0
22.000000  -27.500000  45.000000  0
22.500000  -27.000000  45.000000  0
22.000000  -27.000000  45.500000  0
18.000000  -27.500000  45.000000  0
17.000000  -27.500000  45.000000  0
17.000000  -27.000000  45.500000  0
16.000000  -27.500000  45.000000  0
16.000000  -27.000000  45.500000  0
15.000000  -27.500000  45.000000  0
15.000000  -27.000000  45.500000  0
14.500000  -27.000000  45.000000  0
23.000000  -27.500000  44.000000  0
23.500000  -27.000000  44.000000  0
23.000000  -27.000000  44.500000  0
15.000000  -27.500000  44.000000  0
14.000000  -27.500000  44.000000  0
14.000000  -27.000000  44.500000  0
13.500000  -27.000000  44.000000  0
23.500000  -27.000000  43.000000  0
14.000000  -27.500000  43.000000  0
13.500000  -27.000000  43.000000  0
24.500000  -27.000000  42.000000  0
24.000000  -27.000000  42.500000  0
13.000000  -27.500000  42.000000  0
13.000000  -27.000000  42.500000  0
12.500000  -27.000000  42.000000  0
24.500000  -27.000000  41.000000  0
15.000000  -27.500000  41.000000  0
15.500000  -27.000000  41.000000  0
15.000000  -27.000000  41.500000  0
14.000000  -27.500000  41.000000  0
14.000000  -27.000000  41.500000  0
13.000000  -27.500000  41.000000  0
13.500000  -27.000000  41.000000  0
12.500000  -27.000000  41.000000  0
25.500000  -27.000000  40.000000  0
25.000000  -27.000000  40.500000  0
16.500000  -27.000000  40.000000  0
16.000000  -27.000000  40.500000  0
13.000000  -27.000000  40.500000  0
25.500000  -27.000000  39.000000  0
22.500000  -27.000000  39.000000  0
22.000000  -27.000000  39.500000  0
21.000000  -27.500000  39.000000  0
21.500000  -27.000000  39.000000  0
20.500000  -27.000000  39.000000  0
20.000000  -27.000000  39.500000  0
19.000000  -27.500000  39.000000  0
19.000000  -27.000000  39.500000  0
18.000000  -27.500000  39.000000  0
18.500000  -27.000000  39.000000  0
17.000000  -27.500000  39.000000  0
16.000000  -27.500000  39.000000  0
16.000000  -27.000000  39.500000  0
15.000000  -27.500000  39.000000  0
15.000000  -27.000000  39.500000  0
14.500000  -27.000000  39.000000  0
25.500000  -27.000000  38.000000  0
23.000000  -27.500000  38.000000  0
23.500000  -27.000000  38.000000  0
23.000000  -27.000000  38.500000  0
22.000000  -27.500000  38.000000  0
21.000000  -27.000000  38.500000  0
19.000000  -27.500000  38.000000  0
18.000000  -27.500000  38.000000  0
18.500000  -27.000000  38.000000  0
15.500000  -27.000000  38.000000  0
15.000000  -27.000000  38.500000  0
25.000000  -27.500000  37.000000  0
25.000000  -27.000000  37.500000  0
24.000000  -27.500000  37.000000  0
24.000000  -27.000000  37.500000  0
23.000000  -27.500000  37.000000  0
22.000000  -27.500000  37.000000  0
19.000000  -27.500000  37.000000  0
18.500000  -27.000000  37.000000  0
15.500000  -27.000000  37.000000  0
27.000000  -27.500000  36.000000  0
26.000000  -27.500000  36.000000  0
25.000000  -27.500000  36.000000  0
24.000000  -27.500000  36.000000  0
23.000000  -27.500000  36.000000  0
19.000000  -27.500000  36.000000  0
18.000000  -27.500000  36.000000  0
18.000000  -27.000000  36.500000  0
17.000000  -27.000000  36.500000  0
16.000000  -27.000000  36.500000  0
27.000000  -27.500000  35.000000  0
23.000000  -27.500000  35.000000  0
24.000000  -27.500000  34.000000  0
23.000000  -27.500000  34.000000  0
24.000000  -27.500000  33.000000  0
26.000000  -27.500000  31.000000  0
25.000000  -27.500000  31.000000  0
26.000000  -27.500000  30.000000  0
24.000000  -27.500000  30.000000  0
23.000000  -27.500000  30.000000  0
26.000000  -27.500000  29.000000  0
23.000000  -27.500000  29.000000  0
20.000000  -26.500000  48.000000  0
20.500000  -26.000000  48.000000  0
20.000000  -26.000000  48.500000  0
19.000000  -26.500000  48.000000  0
19.000000  -26.000000  48.500000  0
18.000000  -26.500000  48.000000  0
18.000000  -26.000000  48.500000  0
17.000000  -26.500000  48.000000  0
17.000000  -26.000000  48.500000  0
16.500000  -26.000000  48.000000  0
21.000000  -26.500000  47.000000  0
21.500000  -26.000000  47.000000  0
21.000000  -26.000000  47.500000  0
20.000000  -26.500000  47.000000  0
19.000000  -26.500000  47.000000  0
18.000000  -26.500000  47.000000  0
17.000000  -26.500000  47.000000  0
16.000000  -26.500000  47.000000  0
16.000000  -26.000000  47.500000  0
15.500000  -26.000000  47.000000  0
22.000000  -26.500000  46.000000  0
22.500000  -26.000000  46.000000  0
22.000000  -26.000000  46.500000  0
17.000000  -26.500000  46.000000  0
16.000000  -26.500000  46.000000  0
15.000000  -26.500000  46.000000  0
15.000000  -26.000000  46.500000  0
14.500000  -26.000000  46.000000  0
22.500000  -26.000000  45.000000  0
14.500000  -26.000000  45.000000  0
23.500000  -26.000000  44.000000  0
23.000000  -26.000000  44.500000  0
14.000000  -26.000000  44.500000  0
13.500000  -26.000000  44.000000  0
24.000000  -26.500000  43.000000  0
24.500000  -26.000000  43.000000  0
24.000000  -26.000000  43.500000  0
13.000000  -26.500000  43.000000  0
13.000000  -26.000000  43.500000  0
12.000000  -26.500000  43.000000  0
12.000000  -26.000000  43.500000  0
11.500000  -26.000000  43.000000  0
24.500000  -26.000000  42.000000  0
20.000000  -26.500000  42.000000  0
20.500000  -26.000000  42.000000  0
20.000000  -26.000000  42.500000  0
19.000000  -26.500000  42.000000  0
19.000000  -26.000000  42.500000  0
18.000000  -26.500000  42.000000  0
18.000000  -26.000000  42.500000  0
17.500000  -26.000000  42.000000  0
14.000000  -26.500000  42.000000  0
14.500000  -26.000000  42.000000  0
14.000000  -26.000000  42.500000  0
13.500000  -26.000000  42.000000  0
12.000000  -26.500000  42.000000  0
11.500000  -26.000000  42.000000  0
25.000000  -26.500000  41.000000  0
25.500000  -26.000000  41.000000  0
25.000000  -26.000000  41.500000  0
20.000000  -26.500000  41.000000  0
20.500000  -26.000000  41.000000  0
19.000000  -26.500000  41.000000  0
18.000000  -26.500000  41.000000  0
17.000000  -26.500000  41.000000  0
17.000000  -26.000000  41.500000  0
16.500000  -26.000000  41.000000  0
15.000000  -26.500000  41.000000  0
14.500000  -26.000000  41.000000  0
13.500000  -26.000000  41.000000  0
12.000000  -26.500000  41.000000  0
11.500000  -26.000000  41.000000  0
25.500000  -26.000000  40.000000  0
22.000000  -26.500000  40.000000  0
22.500000  -26.000000  40.000000  0
22.000000  -26.000000  40.500000  0
21.000000  -26.500000  40.000000  0
21.000000  -26.000000  40.500000  0
20.000000  -26.500000  40.000000  0
19.000000  -26.500000  40.000000  0
18.000000  -26.500000  40.000000  0
17.000000  -26.500000  40.000000  0
16.000000  -26.500000  40.000000  0
16.500000  -26.000000  40.000000  0
15.000000  -26.500000  40.000000  0
14.000000  -26.500000  40.000000  0
14.000000  -26.000000  40.500000  0
13.000000  -26.500000  40.000000  0
12.000000  -26.500000  40.000000  0
11.500000  -26.000000  40.000000  0
25.500000  -26.000000  39.000000  0
23.000000  -26.500000  39.000000  0
23.500000  -26.000000  39.000000  0
23.000000  -26.000000  39.500000  0
21.000000  -26.500000  39.000000  0
18.000000  -26.500000  39.000000  0
17.500000  -26.000000  39.000000  0
17.000000  -26.000000  39.500000  0
14.000000  -26.500000  39.000000  0
13.000000  -26.500000  39.000000  0
12.500000  -26.000000  39.000000  0
12.000000  -26.000000  39.500000  0
25.500000  -26.000000  38.000000  0
24.000000  -26.500000  38.000000  0
24.500000  -26.000000  38.000000  0
24.000000  -26.000000  38.500000  0
18.000000  -26.500000  38.000000  0
17.500000  -26.000000  38.000000  0
15.500000  -26.000000  38.000000  0
15.000000  -26.000000  38.500000  0
14.000000  -26.000000  38.500000  0
13.000000  -26.000000  38.500000  0
25.000000  -26.000000  37.500000  0
18.000000  -26.500000  37.000000  0
17.000000  -26.500000  37.000000  0
17.000000  -26.000000  37.500000  0
16.000000  -26.500000  37.000000  0
16.000000  -26.000000  37.500000  0
19.000000  -25.500000  49.000000  0
19.500000  -25.000000  49.000000  0
19.000000  -25.000000  49.500000  0
18.000000  -25.500000  49.000000  0
18.000000  -25.000000  49.500000  0
17.000000  -25.500000  49.000000  0
17.000000  -25.000000  49.500000  0
16.500000  -25.000000  49.000000  0
21.000000  -25.500000  48.000000  0
21.500000  -25.000000  48.000000  0
21.000000  -25.000000  48.500000  0
20.000000  -25.000000  48.500000  0
16.000000  -25.500000  48.000000  0
16.000000  -25.000000  48.500000  0
15.500000  -25.000000  48.000000  0
21.500000  -25.000000  47.000000  0
15.000000  -25.500000  47.000000  0
15.000000  -25.000000  47.500000  0
14.500000  -25.000000  47.000000  0
22.500000  -25.000000  46.000000  0
22.000000  -25.000000  46.500000  0
14.000000  -25.500000  46.000000  0
14.000000  -25.000000  46.500000  0
13.500000  -25.000000  46.000000  0
23.000000  -25.500000  45.000000  0
23.500000  -25.000000  45.000000  0
23.000000  -25.000000  45.500000  0
14.000000  -25.500000  45.000000  0
13.500000  -25.000000  45.000000  0
23.500000  -25.000000  44.000000  0
13.500000  -25.000000  44.000000  0
24.500000  -25.000000  43.000000  0
24.000000  -25.000000  43.500000  0
18.000000  -25.500000  43.000000  0
18.500000  -25.000000  43.000000  0
18.000000  -25.000000  43.500000  0
17.000000  -25.500000  43.000000  0
17.000000  -25.000000  43.500000  0
16.000000  -25.500000  43.000000  0
16.000000  -25.000000  43.500000  0
15.500000  -25.000000  43.000000  0
14.000000  -25.500000  43.000000  0
14.500000  -25.000000  43.000000  0
14.000000  -25.000000  43.500000  0
13.000000  -25.500000  43.000000  0
12.500000  -25.000000  43.000000  0
12.000000  -25.000000  43.500000  0
11.500000  -25.000000  43.000000  0
24.500000  -25.000000  42.000000  0
20.500000  -25.000000  42.000000  0
20.000000  -25.000000  42.500000  0
19.000000  -25.000000  42.500000  0
17.000000  -25.500000  42.000000  0
16.000000  -25.500000  42.000000  0
15.500000  -25.000000  42.000000  0
14.500000  -25.000000  42.000000  0
13.000000  -25.500000  42.000000  0
12.500000  -25.000000  42.000000  0
11.000000  -25.500000  42.000000  0
11.000000  -25.000000  42.500000  0
10.500000  -25.000000  42.000000  0
25.500000  -25.000000  41.000000  0
25.000000  -25.000000  41.500000  0
20.500000  -25.000000  41.000000  0
16.000000  -25.500000  41.000000  0
15.500000  -25.000000  41.000000  0
14.000000  -25.500000  41.000000  0
14.000000  -25.000000  41.500000  0
13.000000  -25.000000  41.500000  0
11.000000  -25.500000  41.000000  0
10.500000  -25.000000  41.000000  0
25.500000  -25.000000  40.000000  0
22.500000  -25.000000  40.000000  0
22.000000  -25.000000  40.500000  0
21.000000  -25.000000  40.500000  0
16.000000  -25.500000  40.000000  0
15.500000  -25.000000  40.000000  0
11.500000  -25.000000  40.000000  0
11.000000  -25.000000  40.500000  0
25.500000  -25.000000  39.000000  0
23.500000  -25.000000  39.000000  0
23.000000  -25.000000  39.500000  0
17.500000  -25.000000  39.000000  0
17.000000  -25.000000  39.500000  0
16.000000  -25.000000  39.500000  0
12.500000  -25.000000  39.000000  0
12.000000  -25.000000  39.500000  0
25.500000  -25.000000  38.000000  0
24.500000  -25.000000  38.000000  0
24.000000  -25.000000  38.500000  0
17.500000  -25.000000  38.000000  0
15.000000  -25.500000  38.000000  0
14.500000  -25.000000  38.000000  0
14.000000  -25.000000  38.500000  0
13.000000  -25.000000  38.500000  0
25.000000  -25.000000  37.500000  0
17.000000  -25.000000  37.500000  0
16.000000  -25.000000  37.500000  0
15.000000  -25.000000  37.500000  0
19.500000  -24.000000  49.000000  0
19.000000  -24.000000  49.500000  0
18.000000  -24.000000  49.500000  0
17.000000  -24.000000  49.500000  0
16.000000  -24.500000  49.000000  0
16.000000  -24.000000  49.500000  0
15.000000  -24.500000  49.000000  0
15.000000  -24.000000  49.500000  0
14.500000  -24.000000  49.000000  0
21.500000  -24.000000  48.000000  0
21.000000  -24.000000  48.500000  0
20.000000  -24.000000  48.500000  0
15.000000  -24.500000  48.000000  0
14.000000  -24.500000  48.000000  0
14.000000  -24.000000  48.500000  0
13.500000  -24.000000  48.000000  0
21.500000  -24.000000  47.000000  0
14.000000  -24.500000  47.000000  0
13.000000  -24.500000  47.000000  0
13.000000  -24.000000  47.500000  0
12.500000  -24.000000  47.000000  0
22.500000  -24.000000  46.000000  0
22.000000  -24.000000  46.500000  0
13.000000  -24.500000  46.000000  0
12.000000  -24.500000  46.000000  0
12.000000  -24.000000  46.500000  0
11.500000  -24.000000  46.000000  0
23.500000  -24.000000  45.000000  0
23.000000  -24.000000  45.500000  0
13.000000  -24.500000  45.000000  0
12.000000  -24.500000  45.000000  0
11.500000  -24.000000  45.000000  0
23.500000  -24.000000  44.000000  0
18.000000  -24.500000  44.000000  0
18.500000  -24.000000  44.000000  0
18.000000  -24.000000  44.500000  0
17.000000  -24.500000  44.000000  0
17.000000  -24.000000  44.500000  0
16.000000  -24.500000  44.000000  0
16.000000  -24.000000  44.500000  0
15.000000  -24.500000  44.000000  0
15.000000  -24.000000  44.500000  0
14.000000  -24.500000  44.000000  0
14.000000  -24.000000  44.500000  0
13.000000  -24.500000  44.000000  0
13.500000  -24.000000  44.000000  0
12.000000  -24.500000  44.000000  0
11.500000  -24.000000  44.000000  0
24.000000  -24.500000  43.000000  0
23.500000  -24.000000  43.000000  0
18.500000  -24.000000  43.000000  0
15.000000  -24.500000  43.000000  0
13.000000  -24.000000  43.500000  0
12.500000  -24.000000  43.000000  0
11.000000  -24.500000  43.000000  0
11.000000  -24.000000  43.500000  0
10.500000  -24.000000  43.000000  0
24.000000  -24.500000  42.000000  0
23.500000  -24.000000  42.000000  0
20.500000  -24.000000  42.000000  0
20.000000  -24.000000  42.500000  0
19.000000  -24.000000  42.500000  0
15.000000  -24.500000  42.000000  0
12.500000  -24.000000  42.000000  0
10.500000  -24.000000  42.000000  0
25.000000  -24.500000  41.000000  0
24.500000  -24.000000  41.000000  0
24.000000  -24.000000  41.500000  0
20.500000  -24.000000  41.000000  0
15.500000  -24.000000  41.000000  0
15.000000  -24.000000  41.500000  0
14.000000  -24.000000  41.500000  0
13.000000  -24.000000  41.500000  0
10.500000  -24.000000  41.000000  0
25.000000  -24.500000  40.000000  0
24.500000  -24.000000  40.000000  0
22.500000  -24.000000  40.000000  0
22.000000  -24.000000  40.500000  0
21.000000  -24.000000  40.500000  0
15.500000  -24.000000  40.000000  0
11.000000  -24.500000  40.000000  0
10.500000  -24.000000  40.000000  0
25.000000  -24.500000  39.000000  0
24.500000  -24.000000  39.000000  0
23.500000  -24.000000  39.000000  0
23.000000  -24.000000  39.500000  0
17.000000  -24.500000  39.000000  0
16.000000  -24.500000  39.000000  0
15.500000  -24.000000  39.000000  0
12.500000  -24.000000  39.000000  0
12.000000  -24.000000  39.500000  0
11.000000  -24.000000  39.500000  0
25.000000  -24.500000  38.000000  0
24.000000  -24.000000  38.500000  0
17.000000  -24.500000  38.000000  0
16.000000  -24.500000  38.000000  0
15.000000  -24.500000  38.000000  0
15.000000  -24.000000  38.500000  0
14.000000  -24.000000  38.500000  0
13.000000  -24.000000  38.500000  0
20.000000  -23.500000  49.000000  0
20.500000  -23.000000  49.000000  0
20.000000  -23.000000  49.500000  0
19.000000  -23.000000  49.500000  0
18.000000  -23.000000  49.500000  0
17.000000  -23.000000  49.500000  0
16.000000  -23.000000  49.500000  0
15.000000  -23.000000  49.500000  0
14.000000  -23.500000  49.000000  0
14.000000  -23.000000  49.500000  0
13.500000  -23.000000  49.000000  0
21.500000  -23.000000  48.000000  0
21.000000  -23.000000  48.500000  0
13.000000  -23.500000  48.000000  0
13.000000  -23.000000  48.500000  0
12.500000  -23.000000  48.000000  0
21.500000  -23.000000  47.000000  0
12.000000  -23.500000  47.000000  0
12.000000  -23.000000  47.500000  0
11.500000  -23.000000  47.000000  0
22.500000  -23.000000  46.000000  0
22.000000  -23.000000  46.500000  0
11.000000  -23.500000  46.000000  0
11.000000  -23.000000  46.500000  0
10.500000  -23.000000  46.000000  0
23.000000  -23.500000  45.000000  0
22.500000  -23.000000  45.000000  0
11.000000  -23.500000  45.000000  0
10.000000  -23.500000  45.000000  0
10.000000  -23.000000  45.500000  0
9.500000  -23.000000  45.000000  0
23.000000  -23.500000  44.000000  0
22.500000  -23.000000  44.000000  0
18.500000  -23.000000  44.000000  0
18.000000  -23.000000  44.500000  0
17.000000  -23.000000  44.500000  0
16.000000  -23.000000  44.500000  0
15.000000  -23.000000  44.500000  0
14.000000  -23.000000  44.500000  0
13.000000  -23.500000  44.000000  0
13.000000  -23.000000  44.500000  0
12.500000  -23.000000  44.000000  0
11.000000  -23.500000  44.000000  0
10.000000  -23.500000  44.000000  0
9.500000  -23.000000  44.000000  0
23.000000  -23.500000  43.000000  0
22.500000  -23.000000  43.000000  0
18.500000  -23.000000  43.000000  0
12.500000  -23.000000  43.000000  0
10.000000  -23.500000  43.000000  0
9.000000  -23.500000  43.000000  0
9.000000  -23.000000  43.500000  0
8.500000  -23.000000  43.000000  0
23.000000  -23.500000  42.000000  0
22.500000  -23.000000  42.000000  0
20.500000  -23.000000  42.000000  0
20.000000  -23.000000  42.500000  0
19.000000  -23.000000  42.500000  0
12.500000  -23.000000  42.000000  0
10.000000  -23.500000  42.000000  0
9.000000  -23.500000  42.000000  0
8.500000  -23.000000  42.000000  0
24.000000  -23.500000  41.000000  0
23.000000  -23.500000  41.000000  0
22.500000  -23.000000  41.000000  0
20.500000  -23.000000  41.000000  0
15.500000  -23.000000  41.000000  0
15.000000  -23.000000  41.500000  0
14.000000  -23.000000  41.500000  0
13.000000  -23.000000  41.500000  0
10.000000  -23.500000  41.000000  0
9.500000  -23.000000  41.000000  0
9.000000  -23.000000  41.500000  0
24.000000  -23.500000  40.000000  0
23.000000  -23.500000  40.000000  0
22.000000  -23.000000  40.500000  0
21.000000  -23.000000  40.500000  0
15.000000  -23.500000  40.000000  0
15.000000  -23.000000  40.500000  0
14.500000  -23.000000  40.000000  0
10.500000  -23.000000  40.000000  0
10.000000  -23.000000  40.500000  0
24.000000  -23.500000  39.000000  0
15.000000  -23.500000  39.000000  0
14.000000  -23.500000  39.000000  0
14.000000  -23.000000  39.500000  0
13.000000  -23.500000  39.000000  0
13.000000  -23.000000  39.500000  0
12.000000  -23.000000  39.500000  0
11.000000  -23.000000  39.500000  0
18.000000  -22.500000  50.000000  0
18.500000  -22.000000  50.000000  0
18.000000  -22.000000  50.500000  0
17.000000  -22.500000  50.000000  0
17.000000  -22.000000  50.500000  0
16.000000  -22.500000  50.000000  0
16.000000  -22.000000  50.500000  0
15.000000  -22.500000  50.000000  0
15.000000  -22.000000  50.500000  0
14.500000  -22.000000  50.000000  0
20.500000  -22.000000  49.000000  0
20.000000  -22.000000  49.500000  0
19.000000  -22.000000  49.500000  0
14.000000  -22.000000  49.500000  0
13.500000  -22.000000  49.000000  0
21.500000  -22.000000  48.000000  0
21.000000  -22.000000  48.500000  0
13.000000  -22.000000  48.500000  0
12.000000  -22.500000  48.000000  0
12.000000  -22.000000  48.500000  0
11.500000  -22.000000  48.000000  0
21.500000  -22.000000  47.000000  0
11.000000  -22.500000  47.000000  0
11.000000  -22.000000  47.500000  0
10.500000  -22.000000  47.000000  0
22.000000  -22.500000  46.000000  0
21.500000  -22.000000  46.000000  0
10.000000  -22.500000  46.000000  0
10.000000  -22.000000  46.500000  0
9.500000  -22.000000  46.000000  0
22.500000  -22.000000  45.000000  0
22.000000  -22.000000  45.500000  0
16.000000  -22.500000  45.000000  0
16.500000  -22.000000  45.000000  0
16.000000  -22.000000  45.500000  0
15.500000  -22.000000  45.000000  0
13.000000  -22.500000  45.000000  0
13.500000  -22.000000  45.000000  0
13.000000  -22.000000  45.500000  0
12.500000  -22.000000  45.000000  0
9.000000  -22.500000  45.000000  0
9.000000  -22.000000  45.500000  0
8.500000  -22.000000  45.000000  0
22.500000  -22.000000  44.000000  0
18.500000  -22.000000  44.000000  0
18.000000  -22.000000  44.500000  0
17.000000  -22.000000  44.500000  0
15.000000  -22.000000  44.500000  0
14.000000  -22.000000  44.500000  0
12.000000  -22.500000  44.000000  0
12.000000  -22.000000  44.500000  0
11.500000  -22.000000  44.000000  0
9.000000  -22.500000  44.000000  0
8.000000  -22.500000  44.000000  0
8.000000  -22.000000  44.500000  0
7.500000  -22.000000  44.000000  0
22.500000  -22.000000  43.000000  0
18.500000  -22.000000  43.000000  0
12.000000  -22.500000  43.000000  0
11.500000  -22.000000  43.000000  0
8.000000  -22.500000  43.000000  0
7.500000  -22.000000  43.000000  0
22.500000  -22.000000  42.000000  0
20.500000  -22.000000  42.000000  0
20.000000  -22.000000  42.500000  0
19.000000  -22.000000  42.500000  0
12.500000  -22.000000  42.000000  0
12.000000  -22.000000  42.500000  0
8.000000  -22.500000  42.000000  0
7.500000  -22.000000  42.000000  0
22.500000  -22.000000  41.000000  0
20.500000  -22.000000  41.000000  0
15.000000  -22.500000  41.000000  0
14.500000  -22.000000  41.000000  0
14.000000  -22.000000  41.500000  0
13.000000  -22.000000  41.500000  0
9.000000  -22.500000  41.000000  0
8.500000  -22.000000  41.000000  0
8.000000  -22.000000  41.500000  0
22.000000  -22.000000  40.500000  0
21.000000  -22.000000  40.500000  0
14.500000  -22.000000  40.000000  0
10.000000  -22.500000  40.000000  0
9.500000  -22.000000  40.000000  0
9.000000  -22.000000  40.500000  0
14.000000  -22.000000  39.500000  0
13.000000  -22.000000  39.500000  0
12.000000  -22.000000  39.500000  0
11.000000  -22.000000  39.500000  0
10.000000  -22.000000  39.500000  0
19.000000  -21.500000  50.000000  0
19.500000  -21.000000  50.000000  0
19.000000  -21.000000  50.500000  0
18.000000  -21.000000  50.500000  0
17.000000  -21.000000  50.500000  0
16.000000  -21.000000  50.500000  0
15.000000  -21.000000  50.500000  0
14.500000  -21.000000  50.000000  0
20.500000  -21.000000  49.000000  0
20.000000  -21.000000  49.500000  0
14.000000  -21.000000  49.500000  0
13.000000  -21.500000  49.000000  0
13.000000  -21.000000  49.500000  0
12.500000  -21.000000  49.000000  0
21.500000  -21.000000  48.000000  0
21.000000  -21.000000  48.500000  0
12.000000  -21.000000  48.500000  0
11.500000  -21.000000  48.000000  0
21.500000  -21.000000  47.000000  0
11.000000  -21.000000  47.500000  0
10.500000  -21.000000  47.000000  0
21.500000  -21.000000  46.000000  0
10.000000  -21.000000  46.500000  0
9.000000  -21.500000  46.000000  0
