#!ascii version of 
3150 6300
8.000000  -0.500000  24.000000  0
8.000000  0.000000  24.500000  0
7.500000  0.000000  24.000000  0
6.000000  0.000000  24.500000  0
5.000000  0.000000  24.500000  0
4.000000  0.000000  24.500000  0
3.000000  0.000000  24.500000  0
2.500000  0.000000  24.000000  0
7.500000  0.000000  23.000000  0
2.500000  0.000000  23.000000  0
8.000000  -0.500000  22.000000  0
7.500000  0.000000  22.000000  0
2.000000  0.000000  22.500000  0
1.500000  0.000000  22.000000  0
23.000000  -0.500000  21.000000  0
22.000000  -0.500000  21.000000  0
21.500000  0.000000  21.000000  0
21.000000  0.000000  21.500000  0
20.000000  0.000000  21.500000  0
19.000000  0.000000  21.500000  0
18.000000  0.000000  21.500000  0
17.000000  0.000000  21.500000  0
16.000000  0.000000  21.500000  0
15.000000  0.000000  21.500000  0
14.000000  0.000000  21.500000  0
13.000000  0.000000  21.500000  0
12.000000  0.000000  21.500000  0
11.000000  0.000000  21.500000  0
10.000000  0.000000  21.500000  0
9.000000  -0.500000  21.000000  0
9.500000  0.000000  21.000000  0
8.500000  0.000000  21.000000  0
8.000000  0.000000  21.500000  0
1.500000  0.000000  21.000000  0
23.000000  -0.500000  20.000000  0
22.000000  -0.500000  20.000000  0
21.500000  0.000000  20.000000  0
9.000000  0.000000  20.500000  0
1.500000  0.000000  20.000000  0
21.500000  0.000000  19.000000  0
1.500000  0.000000  19.000000  0
21.000000  0.000000  18.500000  0
20.000000  0.000000  18.500000  0
19.500000  0.000000  18.000000  0
1.500000  0.000000  18.000000  0
19.000000  0.000000  17.500000  0
18.000000  0.000000  17.500000  0
17.500000  0.000000  17.000000  0
1.500000  0.000000  17.000000  0
17.500000  0.000000  16.000000  0
2.000000  -0.500000  16.000000  0
1.500000  0.000000  16.000000  0
17.000000  0.000000  15.500000  0
16.000000  0.000000  15.500000  0
15.500000  0.000000  15.000000  0
4.000000  -0.500000  15.000000  0
3.500000  0.000000  15.000000  0
3.000000  0.000000  15.500000  0
2.000000  0.000000  15.500000  0
15.000000  -0.500000  14.000000  0
15.000000  0.000000  14.500000  0
14.000000  -0.500000  14.000000  0
14.000000  0.000000  14.500000  0
13.500000  0.000000  14.000000  0
6.000000  -0.500000  14.000000  0
6.500000  0.000000  14.000000  0
6.000000  0.000000  14.500000  0
5.000000  -0.500000  14.000000  0
5.000000  0.000000  14.500000  0
4.000000  0.000000  14.500000  0
13.500000  0.000000  13.000000  0
6.000000  -0.500000  13.000000  0
6.500000  0.000000  13.000000  0
13.000000  -0.500000  12.000000  0
13.000000  0.000000  12.500000  0
12.000000  -0.500000  12.000000  0
12.000000  0.000000  12.500000  0
11.000000  -0.500000  12.000000  0
11.000000  0.000000  12.500000  0
10.500000  0.000000  12.000000  0
6.500000  0.000000  12.000000  0
13.000000  -0.500000  11.000000  0
12.000000  -0.500000  11.000000  0
11.000000  -0.500000  11.000000  0
10.500000  0.000000  11.000000  0
7.000000  -0.500000  11.000000  0
6.000000  -0.500000  11.000000  0
6.000000  0.000000  11.500000  0
5.500000  0.000000  11.000000  0
12.000000  -0.500000  10.000000  0
11.000000  -0.500000  10.000000  0
10.000000  -0.500000  10.000000  0
10.000000  0.000000  10.500000  0
9.000000  -0.500000  10.000000  0
9.000000  0.000000  10.500000  0
8.000000  0.000000  10.500000  0
7.000000  0.000000  10.500000  0
6.000000  0.000000  10.500000  0
9.000000  0.500000  26.000000  0
8.000000  0.500000  26.000000  0
9.000000  0.500000  25.000000  0
8.000000  0.500000  25.000000  0
7.500000  1.000000  25.000000  0
7.000000  1.000000  25.500000  0
6.500000  1.000000  25.000000  0
7.500000  1.000000  24.000000  0
6.000000  1.000000  24.500000  0
5.000000  1.000000  24.500000  0
4.000000  1.000000  24.500000  0
3.000000  1.000000  24.500000  0
2.500000  1.000000  24.000000  0
7.500000  1.000000  23.000000  0
2.500000  1.000000  23.000000  0
11.000000  0.500000  22.000000  0
11.500000  1.000000  22.000000  0
11.000000  1.000000  22.500000  0
10.500000  1.000000  22.000000  0
8.000000  0.500000  22.000000  0
8.500000  1.000000  22.000000  0
8.000000  1.000000  22.500000  0
2.000000  0.500000  22.000000  0
2.500000  1.000000  22.000000  0
21.000000  0.500000  21.000000  0
20.000000  0.500000  21.000000  0
19.500000  1.000000  21.000000  0
19.000000  1.000000  21.500000  0
18.000000  1.000000  21.500000  0
17.000000  1.000000  21.500000  0
16.000000  1.000000  21.500000  0
15.000000  1.000000  21.500000  0
14.000000  1.000000  21.500000  0
13.000000  1.000000  21.500000  0
12.000000  1.000000  21.500000  0
10.000000  1.000000  21.500000  0
9.500000  1.000000  21.000000  0
8.500000  1.000000  21.000000  0
2.000000  1.000000  21.500000  0
1.500000  1.000000  21.000000  0
21.000000  0.500000  20.000000  0
20.500000  1.000000  20.000000  0
20.000000  1.000000  20.500000  0
9.000000  1.000000  20.500000  0
1.500000  1.000000  20.000000  0
21.000000  0.500000  19.000000  0
20.000000  0.500000  19.000000  0
20.000000  1.000000  19.500000  0
19.500000  1.000000  19.000000  0
1.500000  1.000000  19.000000  0
19.500000  1.000000  18.000000  0
1.500000  1.000000  18.000000  0
19.000000  1.000000  17.500000  0
18.000000  1.000000  17.500000  0
17.000000  0.500000  17.000000  0
17.000000  1.000000  17.500000  0
16.000000  0.500000  17.000000  0
16.000000  1.000000  17.500000  0
15.000000  0.500000  17.000000  0
15.000000  1.000000  17.500000  0
14.500000  1.000000  17.000000  0
1.500000  1.000000  17.000000  0
17.000000  0.500000  16.000000  0
16.000000  0.500000  16.000000  0
15.000000  0.500000  16.000000  0
14.000000  0.500000  16.000000  0
14.000000  1.000000  16.500000  0
13.000000  0.500000  16.000000  0
13.000000  1.000000  16.500000  0
12.000000  0.500000  16.000000  0
12.000000  1.000000  16.500000  0
11.000000  0.500000  16.000000  0
11.000000  1.000000  16.500000  0
10.000000  0.500000  16.000000  0
10.000000  1.000000  16.500000  0
9.500000  1.000000  16.000000  0
1.500000  1.000000  16.000000  0
15.000000  0.500000  15.000000  0
14.000000  0.500000  15.000000  0
13.000000  0.500000  15.000000  0
12.000000  0.500000  15.000000  0
11.000000  0.500000  15.000000  0
10.000000  0.500000  15.000000  0
9.000000  0.500000  15.000000  0
9.000000  1.000000  15.500000  0
8.000000  0.500000  15.000000  0
8.000000  1.000000  15.500000  0
7.500000  1.000000  15.000000  0
3.000000  0.500000  15.000000  0
2.000000  0.500000  15.000000  0
1.500000  1.000000  15.000000  0
13.000000  0.500000  14.000000  0
12.000000  0.500000  14.000000  0
11.000000  0.500000  14.000000  0
10.000000  0.500000  14.000000  0
9.000000  0.500000  14.000000  0
8.000000  0.500000  14.000000  0
7.000000  0.500000  14.000000  0
7.000000  1.000000  14.500000  0
6.000000  1.000000  14.500000  0
5.000000  1.000000  14.500000  0
4.000000  1.000000  14.500000  0
3.000000  1.000000  14.500000  0
2.000000  1.000000  14.500000  0
13.000000  0.500000  13.000000  0
12.000000  0.500000  13.000000  0
11.000000  0.500000  13.000000  0
10.000000  0.500000  13.000000  0
9.000000  0.500000  13.000000  0
8.000000  0.500000  13.000000  0
7.000000  0.500000  13.000000  0
10.000000  0.500000  12.000000  0
9.000000  0.500000  12.000000  0
8.000000  0.500000  12.000000  0
7.000000  0.500000  12.000000  0
10.000000  0.500000  11.000000  0
9.000000  0.500000  11.000000  0
8.000000  0.500000  11.000000  0
7.000000  0.500000  11.000000  0
6.000000  0.500000  11.000000  0
7.500000  2.000000  25.000000  0
7.000000  2.000000  25.500000  0
6.500000  2.000000  25.000000  0
7.500000  2.000000  24.000000  0
6.000000  2.000000  24.500000  0
5.000000  2.000000  24.500000  0
4.000000  2.000000  24.500000  0
3.000000  2.000000  24.500000  0
2.500000  2.000000  24.000000  0
7.500000  2.000000  23.000000  0
2.500000  2.000000  23.000000  0
11.000000  1.500000  22.000000  0
8.500000  2.000000  22.000000  0
8.000000  2.000000  22.500000  0
2.500000  2.000000  22.000000  0
19.500000  2.000000  21.000000  0
19.000000  2.000000  21.500000  0
18.000000  2.000000  21.500000  0
17.000000  2.000000  21.500000  0
16.000000  1.500000  21.000000  0
16.500000  2.000000  21.000000  0
15.000000  1.500000  21.000000  0
14.000000  1.500000  21.000000  0
13.000000  1.500000  21.000000  0
12.000000  1.500000  21.000000  0
11.000000  1.500000  21.000000  0
10.000000  1.500000  21.000000  0
8.500000  2.000000  21.000000  0
2.000000  1.500000  21.000000  0
2.500000  2.000000  21.000000  0
20.000000  1.500000  20.000000  0
19.000000  1.500000  20.000000  0
19.000000  2.000000  20.500000  0
18.500000  2.000000  20.000000  0
16.000000  2.000000  20.500000  0
15.000000  2.000000  20.500000  0
14.000000  2.000000  20.500000  0
13.000000  2.000000  20.500000  0
12.000000  2.000000  20.500000  0
11.000000  2.000000  20.500000  0
10.000000  2.000000  20.500000  0
9.000000  2.000000  20.500000  0
2.000000  2.000000  20.500000  0
1.500000  2.000000  20.000000  0
19.000000  1.500000  19.000000  0
18.000000  1.500000  19.000000  0
18.000000  2.000000  19.500000  0
17.500000  2.000000  19.000000  0
1.500000  2.000000  19.000000  0
19.000000  1.500000  18.000000  0
18.000000  1.500000  18.000000  0
17.500000  2.000000  18.000000  0
1.500000  2.000000  18.000000  0
17.000000  2.000000  17.500000  0
16.000000  2.000000  17.500000  0
15.000000  2.000000  17.500000  0
14.500000  2.000000  17.000000  0
1.500000  2.000000  17.000000  0
14.000000  2.000000  16.500000  0
13.000000  2.000000  16.500000  0
12.000000  2.000000  16.500000  0
11.000000  2.000000  16.500000  0
10.000000  2.000000  16.500000  0
9.000000  1.500000  16.000000  0
9.000000  2.000000  16.500000  0
8.000000  1.500000  16.000000  0
8.000000  2.000000  16.500000  0
7.500000  2.000000  16.000000  0
1.500000  2.000000  16.000000  0
7.000000  1.500000  15.000000  0
7.000000  2.000000  15.500000  0
6.000000  1.500000  15.000000  0
6.000000  2.000000  15.500000  0
5.000000  1.500000  15.000000  0
5.000000  2.000000  15.500000  0
4.000000  1.500000  15.000000  0
4.000000  2.000000  15.500000  0
3.500000  2.000000  15.000000  0
1.500000  2.000000  15.000000  0
3.000000  2.000000  14.500000  0
2.000000  2.000000  14.500000  0
7.000000  2.500000  26.000000  0
7.500000  3.000000  26.000000  0
7.000000  3.000000  26.500000  0
6.000000  2.500000  26.000000  0
6.000000  3.000000  26.500000  0
5.000000  2.500000  26.000000  0
5.000000  3.000000  26.500000  0
4.500000  3.000000  26.000000  0
7.500000  3.000000  25.000000  0
6.000000  2.500000  25.000000  0
5.000000  2.500000  25.000000  0
4.000000  2.500000  25.000000  0
4.000000  3.000000  25.500000  0
3.000000  2.500000  25.000000  0
3.000000  3.000000  25.500000  0
2.500000  3.000000  25.000000  0
8.000000  2.500000  24.000000  0
8.500000  3.000000  24.000000  0
8.000000  3.000000  24.500000  0
2.500000  3.000000  24.000000  0
8.000000  3.000000  23.500000  0
7.000000  2.500000  23.000000  0
7.000000  3.000000  23.500000  0
6.500000  3.000000  23.000000  0
2.500000  3.000000  23.000000  0
8.500000  3.000000  22.000000  0
8.000000  3.000000  22.500000  0
7.000000  3.000000  22.500000  0
2.500000  3.000000  22.000000  0
19.500000  3.000000  21.000000  0
19.000000  3.000000  21.500000  0
18.000000  3.000000  21.500000  0
17.000000  3.000000  21.500000  0
16.500000  3.000000  21.000000  0
8.500000  3.000000  21.000000  0
2.500000  3.000000  21.000000  0
19.000000  3.000000  20.500000  0
18.000000  2.500000  20.000000  0
18.000000  3.000000  20.500000  0
17.500000  3.000000  20.000000  0
16.000000  3.000000  20.500000  0
15.000000  3.000000  20.500000  0
14.000000  3.000000  20.500000  0
13.000000  3.000000  20.500000  0
12.000000  3.000000  20.500000  0
11.000000  3.000000  20.500000  0
10.000000  3.000000  20.500000  0
9.000000  3.000000  20.500000  0
2.000000  2.500000  20.000000  0
2.500000  3.000000  20.000000  0
17.000000  2.500000  19.000000  0
17.000000  3.000000  19.500000  0
16.500000  3.000000  19.000000  0
2.000000  3.000000  19.500000  0
1.500000  3.000000  19.000000  0
17.000000  2.500000  18.000000  0
16.000000  2.500000  18.000000  0
16.000000  3.000000  18.500000  0
15.000000  2.500000  18.000000  0
15.000000  3.000000  18.500000  0
14.500000  3.000000  18.000000  0
1.500000  3.000000  18.000000  0
14.000000  2.500000  17.000000  0
14.000000  3.000000  17.500000  0
13.500000  3.000000  17.000000  0
1.500000  3.000000  17.000000  0
13.000000  3.000000  16.500000  0
12.000000  3.000000  16.500000  0
11.000000  3.000000  16.500000  0
10.000000  3.000000  16.500000  0
9.000000  3.000000  16.500000  0
8.000000  3.000000  16.500000  0
7.000000  2.500000  16.000000  0
7.000000  3.000000  16.500000  0
6.000000  2.500000  16.000000  0
6.000000  3.000000  16.500000  0
5.500000  3.000000  16.000000  0
1.500000  3.000000  16.000000  0
5.000000  3.000000  15.500000  0
4.000000  3.000000  15.500000  0
3.000000  2.500000  15.000000  0
3.000000  3.000000  15.500000  0
2.000000  2.500000  15.000000  0
2.000000  3.000000  15.500000  0
8.000000  3.500000  26.000000  0
8.500000  4.000000  26.000000  0
8.000000  4.000000  26.500000  0
7.000000  4.000000  26.500000  0
6.000000  4.000000  26.500000  0
5.000000  4.000000  26.500000  0
4.500000  4.000000  26.000000  0
8.000000  3.500000  25.000000  0
8.500000  4.000000  25.000000  0
4.000000  4.000000  25.500000  0
3.000000  4.000000  25.500000  0
2.500000  4.000000  25.000000  0
8.500000  4.000000  24.000000  0
2.500000  4.000000  24.000000  0
8.000000  4.000000  23.500000  0
7.000000  4.000000  23.500000  0
6.500000  4.000000  23.000000  0
2.500000  4.000000  23.000000  0
8.500000  4.000000  22.000000  0
8.000000  4.000000  22.500000  0
7.000000  4.000000  22.500000  0
2.500000  4.000000  22.000000  0
19.000000  3.500000  21.000000  0
18.000000  3.500000  21.000000  0
17.000000  3.500000  21.000000  0
8.500000  4.000000  21.000000  0
2.500000  4.000000  21.000000  0
17.500000  4.000000  20.000000  0
17.000000  4.000000  20.500000  0
16.000000  4.000000  20.500000  0
15.000000  4.000000  20.500000  0
14.000000  4.000000  20.500000  0
13.000000  4.000000  20.500000  0
12.000000  4.000000  20.500000  0
11.000000  4.000000  20.500000  0
10.000000  4.000000  20.500000  0
9.000000  4.000000  20.500000  0
2.500000  4.000000  20.000000  0
17.000000  4.000000  19.500000  0
16.500000  4.000000  19.000000  0
2.000000  3.500000  19.000000  0
2.500000  4.000000  19.000000  0
16.000000  4.000000  18.500000  0
15.000000  4.000000  18.500000  0
14.500000  4.000000  18.000000  0
2.000000  3.500000  18.000000  0
2.500000  4.000000  18.000000  0
14.000000  4.000000  17.500000  0
13.500000  4.000000  17.000000  0
2.000000  3.500000  17.000000  0
2.500000  4.000000  17.000000  0
13.000000  4.000000  16.500000  0
12.000000  4.000000  16.500000  0
11.000000  4.000000  16.500000  0
10.000000  4.000000  16.500000  0
9.000000  4.000000  16.500000  0
8.000000  4.000000  16.500000  0
7.000000  4.000000  16.500000  0
6.000000  4.000000  16.500000  0
5.000000  3.500000  16.000000  0
5.000000  4.000000  16.500000  0
4.500000  4.000000  16.000000  0
2.000000  4.000000  16.500000  0
1.500000  4.000000  16.000000  0
4.000000  4.000000  15.500000  0
3.000000  4.000000  15.500000  0
2.000000  4.000000  15.500000  0
8.000000  4.500000  26.000000  0
7.000000  4.500000  26.000000  0
6.500000  5.000000  26.000000  0
6.000000  5.000000  26.500000  0
5.000000  5.000000  26.500000  0
4.500000  5.000000  26.000000  0
8.000000  4.500000  25.000000  0
7.000000  4.500000  25.000000  0
6.500000  5.000000  25.000000  0
4.000000  5.000000  25.500000  0
3.000000  5.000000  25.500000  0
2.500000  5.000000  25.000000  0
8.000000  4.500000  24.000000  0
7.000000  4.500000  24.000000  0
6.500000  5.000000  24.000000  0
2.500000  5.000000  24.000000  0
6.500000  5.000000  23.000000  0
2.500000  5.000000  23.000000  0
8.000000  4.500000  22.000000  0
7.000000  4.500000  22.000000  0
6.500000  5.000000  22.000000  0
2.500000  5.000000  22.000000  0
8.500000  5.000000  21.000000  0
8.000000  5.000000  21.500000  0
7.000000  5.000000  21.500000  0
2.500000  5.000000  21.000000  0
17.500000  5.000000  20.000000  0
17.000000  5.000000  20.500000  0
16.000000  5.000000  20.500000  0
15.000000  5.000000  20.500000  0
14.000000  5.000000  20.500000  0
13.000000  5.000000  20.500000  0
12.000000  5.000000  20.500000  0
11.000000  5.000000  20.500000  0
10.000000  5.000000  20.500000  0
9.000000  5.000000  20.500000  0
2.500000  5.000000  20.000000  0
17.000000  5.000000  19.500000  0
16.500000  5.000000  19.000000  0
2.500000  5.000000  19.000000  0
16.000000  5.000000  18.500000  0
15.000000  5.000000  18.500000  0
14.500000  5.000000  18.000000  0
2.500000  5.000000  18.000000  0
14.000000  5.000000  17.500000  0
13.000000  4.500000  17.000000  0
13.000000  5.000000  17.500000  0
12.500000  5.000000  17.000000  0
10.000000  4.500000  17.000000  0
10.500000  5.000000  17.000000  0
10.000000  5.000000  17.500000  0
9.000000  4.500000  17.000000  0
9.000000  5.000000  17.500000  0
8.000000  4.500000  17.000000  0
8.000000  5.000000  17.500000  0
7.000000  4.500000  17.000000  0
7.000000  5.000000  17.500000  0
6.500000  5.000000  17.000000  0
2.500000  5.000000  17.000000  0
12.000000  5.000000  16.500000  0
11.000000  5.000000  16.500000  0
6.000000  5.000000  16.500000  0
5.000000  5.000000  16.500000  0
4.500000  5.000000  16.000000  0
2.000000  5.000000  16.500000  0
1.500000  5.000000  16.000000  0
4.000000  5.000000  15.500000  0
3.000000  5.000000  15.500000  0
2.000000  5.000000  15.500000  0
6.500000  6.000000  26.000000  0
6.000000  6.000000  26.500000  0
5.000000  6.000000  26.500000  0
4.000000  5.500000  26.000000  0
4.000000  6.000000  26.500000  0
3.000000  5.500000  26.000000  0
3.000000  6.000000  26.500000  0
2.500000  6.000000  26.000000  0
6.500000  6.000000  25.000000  0
2.500000  6.000000  25.000000  0
6.500000  6.000000  24.000000  0
2.500000  6.000000  24.000000  0
7.000000  5.500000  23.000000  0
7.500000  6.000000  23.000000  0
7.000000  6.000000  23.500000  0
2.500000  6.000000  23.000000  0
7.000000  5.500000  22.000000  0
7.500000  6.000000  22.000000  0
2.500000  6.000000  22.000000  0
9.000000  5.500000  21.000000  0
9.500000  6.000000  21.000000  0
9.000000  6.000000  21.500000  0
8.000000  6.000000  21.500000  0
2.500000  6.000000  21.000000  0
17.500000  6.000000  20.000000  0
17.000000  6.000000  20.500000  0
16.000000  6.000000  20.500000  0
15.000000  6.000000  20.500000  0
14.000000  6.000000  20.500000  0
13.000000  6.000000  20.500000  0
12.000000  6.000000  20.500000  0
11.000000  6.000000  20.500000  0
10.000000  6.000000  20.500000  0
2.500000  6.000000  20.000000  0
17.000000  6.000000  19.500000  0
16.500000  6.000000  19.000000  0
2.500000  6.000000  19.000000  0
16.000000  6.000000  18.500000  0
15.000000  5.500000  18.000000  0
15.500000  6.000000  18.000000  0
2.500000  6.000000  18.000000  0
15.000000  6.000000  17.500000  0
14.000000  6.000000  17.500000  0
13.000000  5.500000  17.000000  0
13.500000  6.000000  17.000000  0
10.000000  5.500000  17.000000  0
9.000000  5.500000  17.000000  0
8.500000  6.000000  17.000000  0
8.000000  6.000000  17.500000  0
7.000000  6.000000  17.500000  0
6.500000  6.000000  17.000000  0
2.500000  6.000000  17.000000  0
13.000000  6.000000  16.500000  0
12.000000  6.000000  16.500000  0
11.000000  6.000000  16.500000  0
10.000000  6.000000  16.500000  0
9.000000  6.000000  16.500000  0
6.000000  6.000000  16.500000  0
5.000000  5.500000  16.000000  0
5.500000  6.000000  16.000000  0
2.000000  6.000000  16.500000  0
1.500000  6.000000  16.000000  0
5.000000  6.000000  15.500000  0
4.000000  6.000000  15.500000  0
3.000000  5.500000  15.000000  0
3.500000  6.000000  15.000000  0
2.000000  5.500000  15.000000  0
1.500000  6.000000  15.000000  0
3.000000  6.000000  14.500000  0
2.000000  6.000000  14.500000  0
6.500000  7.000000  26.000000  0
6.000000  7.000000  26.500000  0
5.000000  7.000000  26.500000  0
4.000000  7.000000  26.500000  0
3.000000  7.000000  26.500000  0
2.500000  7.000000  26.000000  0
6.500000  7.000000  25.000000  0
2.500000  7.000000  25.000000  0
6.500000  7.000000  24.000000  0
2.500000  7.000000  24.000000  0
7.000000  6.500000  23.000000  0
6.500000  7.000000  23.000000  0
2.500000  7.000000  23.000000  0
7.000000  6.500000  22.000000  0
6.500000  7.000000  22.000000  0
2.500000  7.000000  22.000000  0
9.000000  6.500000  21.000000  0
8.000000  6.500000  21.000000  0
7.500000  7.000000  21.000000  0
7.000000  7.000000  21.500000  0
2.500000  7.000000  21.000000  0
17.500000  7.000000  20.000000  0
17.000000  7.000000  20.500000  0
16.000000  7.000000  20.500000  0
15.000000  7.000000  20.500000  0
14.000000  7.000000  20.500000  0
13.000000  7.000000  20.500000  0
12.000000  7.000000  20.500000  0
11.000000  7.000000  20.500000  0
10.000000  7.000000  20.500000  0
9.000000  7.000000  20.500000  0
8.000000  7.000000  20.500000  0
2.500000  7.000000  20.000000  0
17.000000  7.000000  19.500000  0
16.500000  7.000000  19.000000  0
2.500000  7.000000  19.000000  0
16.000000  7.000000  18.500000  0
15.500000  7.000000  18.000000  0
2.500000  7.000000  18.000000  0
15.000000  7.000000  17.500000  0
14.000000  7.000000  17.500000  0
13.500000  7.000000  17.000000  0
8.000000  6.500000  17.000000  0
7.000000  6.500000  17.000000  0
2.500000  7.000000  17.000000  0
13.000000  7.000000  16.500000  0
12.000000  7.000000  16.500000  0
11.000000  7.000000  16.500000  0
10.000000  7.000000  16.500000  0
9.000000  7.000000  16.500000  0
8.000000  7.000000  16.500000  0
7.000000  7.000000  16.500000  0
6.000000  7.000000  16.500000  0
5.500000  7.000000  16.000000  0
2.000000  7.000000  16.500000  0
1.500000  7.000000  16.000000  0
5.000000  7.000000  15.500000  0
4.000000  6.500000  15.000000  0
4.500000  7.000000  15.000000  0
1.500000  7.000000  15.000000  0
4.000000  7.000000  14.500000  0
3.000000  7.000000  14.500000  0
2.000000  6.500000  14.000000  0
2.500000  7.000000  14.000000  0
1.500000  7.000000  14.000000  0
2.000000  7.000000  13.500000  0
6.500000  8.000000  26.000000  0
6.000000  8.000000  26.500000  0
5.000000  8.000000  26.500000  0
4.000000  8.000000  26.500000  0
3.000000  8.000000  26.500000  0
2.500000  8.000000  26.000000  0
6.500000  8.000000  25.000000  0
2.500000  8.000000  25.000000  0
6.500000  8.000000  24.000000  0
2.500000  8.000000  24.000000  0
6.500000  8.000000  23.000000  0
2.500000  8.000000  23.000000  0
6.500000  8.000000  22.000000  0
2.500000  8.000000  22.000000  0
7.500000  8.000000  21.000000  0
7.000000  8.000000  21.500000  0
2.500000  8.000000  21.000000  0
17.000000  7.500000  20.000000  0
16.000000  7.500000  20.000000  0
15.000000  7.500000  20.000000  0
14.000000  7.500000  20.000000  0
13.000000  7.500000  20.000000  0
12.500000  8.000000  20.000000  0
12.000000  8.000000  20.500000  0
11.000000  8.000000  20.500000  0
10.000000  8.000000  20.500000  0
9.000000  8.000000  20.500000  0
8.000000  8.000000  20.500000  0
2.500000  8.000000  20.000000  0
16.000000  7.500000  19.000000  0
15.000000  7.500000  19.000000  0
14.000000  7.500000  19.000000  0
13.000000  7.500000  19.000000  0
12.500000  8.000000  19.000000  0
2.500000  8.000000  19.000000  0
15.500000  8.000000  18.000000  0
15.000000  8.000000  18.500000  0
14.000000  7.500000  18.000000  0
14.500000  8.000000  18.000000  0
13.000000  7.500000  18.000000  0
12.500000  8.000000  18.000000  0
2.500000  8.000000  18.000000  0
15.000000  8.000000  17.500000  0
13.000000  7.500000  17.000000  0
12.000000  7.500000  17.000000  0
12.000000  8.000000  17.500000  0
11.500000  8.000000  17.000000  0
2.500000  8.000000  17.000000  0
11.000000  8.000000  16.500000  0
10.000000  8.000000  16.500000  0
9.000000  7.500000  16.000000  0
9.500000  8.000000  16.000000  0
8.000000  7.500000  16.000000  0
7.000000  7.500000  16.000000  0
6.000000  7.500000  16.000000  0
2.000000  8.000000  16.500000  0
1.500000  8.000000  16.000000  0
9.000000  8.000000  15.500000  0
8.000000  7.500000  15.000000  0
8.500000  8.000000  15.000000  0
7.000000  7.500000  15.000000  0
6.000000  7.500000  15.000000  0
5.000000  7.500000  15.000000  0
1.500000  8.000000  15.000000  0
8.000000  8.000000  14.500000  0
7.000000  8.000000  14.500000  0
6.000000  8.000000  14.500000  0
5.000000  8.000000  14.500000  0
4.000000  8.000000  14.500000  0
3.000000  8.000000  14.500000  0
2.500000  8.000000  14.000000  0
1.500000  8.000000  14.000000  0
2.000000  7.500000  13.000000  0
2.500000  8.000000  13.000000  0
1.500000  8.000000  13.000000  0
2.000000  8.000000  12.500000  0
6.500000  9.000000  26.000000  0
6.000000  9.000000  26.500000  0
5.000000  9.000000  26.500000  0
4.000000  9.000000  26.500000  0
3.000000  9.000000  26.500000  0
2.500000  9.000000  26.000000  0
6.500000  9.000000  25.000000  0
2.500000  9.000000  25.000000  0
6.500000  9.000000  24.000000  0
2.500000  9.000000  24.000000  0
6.500000  9.000000  23.000000  0
2.500000  9.000000  23.000000  0
6.500000  9.000000  22.000000  0
2.500000  9.000000  22.000000  0
7.500000  9.000000  21.000000  0
7.000000  9.000000  21.500000  0
2.500000  9.000000  21.000000  0
12.000000  8.500000  20.000000  0
11.500000  9.000000  20.000000  0
11.000000  9.000000  20.500000  0
10.000000  9.000000  20.500000  0
9.000000  9.000000  20.500000  0
8.000000  9.000000  20.500000  0
2.500000  9.000000  20.000000  0
12.000000  8.500000  19.000000  0
11.500000  9.000000  19.000000  0
2.500000  9.000000  19.000000  0
15.000000  8.500000  18.000000  0
12.000000  8.500000  18.000000  0
11.500000  9.000000  18.000000  0
2.500000  9.000000  18.000000  0
11.000000  8.500000  17.000000  0
11.000000  9.000000  17.500000  0
10.000000  8.500000  17.000000  0
10.000000  9.000000  17.500000  0
9.500000  9.000000  17.000000  0
2.500000  9.000000  17.000000  0
9.500000  9.000000  16.000000  0
2.000000  9.000000  16.500000  0
1.500000  9.000000  16.000000  0
9.000000  9.000000  15.500000  0
8.500000  9.000000  15.000000  0
3.000000  8.500000  15.000000  0
3.500000  9.000000  15.000000  0
3.000000  9.000000  15.500000  0
2.000000  8.500000  15.000000  0
2.000000  9.000000  15.500000  0
8.000000  9.000000  14.500000  0
7.000000  9.000000  14.500000  0
6.000000  9.000000  14.500000  0
5.000000  9.000000  14.500000  0
4.000000  9.000000  14.500000  0
2.000000  8.500000  14.000000  0
2.000000  8.500000  13.000000  0
6.000000  9.500000  26.000000  0
5.000000  9.500000  26.000000  0
4.000000  9.500000  26.000000  0
3.000000  9.500000  26.000000  0
6.000000  9.500000  25.000000  0
5.000000  9.500000  25.000000  0
4.000000  9.500000  25.000000  0
3.000000  9.500000  25.000000  0
2.000000  9.500000  25.000000  0
2.500000  10.000000  25.000000  0
2.000000  10.000000  25.500000  0
1.500000  10.000000  25.000000  0
6.000000  9.500000  24.000000  0
5.000000  9.500000  24.000000  0
4.500000  10.000000  24.000000  0
4.000000  10.000000  24.500000  0
3.000000  10.000000  24.500000  0
2.000000  9.500000  24.000000  0
1.500000  10.000000  24.000000  0
6.000000  9.500000  23.000000  0
5.000000  9.500000  23.000000  0
4.500000  10.000000  23.000000  0
2.500000  10.000000  23.000000  0
2.000000  10.000000  23.500000  0
6.500000  10.000000  22.000000  0
6.000000  10.000000  22.500000  0
5.000000  10.000000  22.500000  0
2.500000  10.000000  22.000000  0
7.000000  9.500000  21.000000  0
6.500000  10.000000  21.000000  0
2.500000  10.000000  21.000000  0
11.000000  9.500000  20.000000  0
10.000000  9.500000  20.000000  0
9.000000  9.500000  20.000000  0
8.500000  10.000000  20.000000  0
8.000000  10.000000  20.500000  0
7.000000  10.000000  20.500000  0
2.500000  10.000000  20.000000  0
11.000000  9.500000  19.000000  0
10.000000  9.500000  19.000000  0
9.000000  9.500000  19.000000  0
8.500000  10.000000  19.000000  0
2.500000  10.000000  19.000000  0
11.000000  9.500000  18.000000  0
10.000000  9.500000  18.000000  0
9.000000  9.500000  18.000000  0
8.500000  10.000000  18.000000  0
2.500000  10.000000  18.000000  0
9.000000  9.500000  17.000000  0
8.500000  10.000000  17.000000  0
2.500000  10.000000  17.000000  0
9.000000  9.500000  16.000000  0
8.500000  10.000000  16.000000  0
2.000000  10.000000  16.500000  0
1.500000  10.000000  16.000000  0
8.000000  9.500000  15.000000  0
8.000000  10.000000  15.500000  0
7.000000  9.500000  15.000000  0
7.000000  10.000000  15.500000  0
6.000000  9.500000  15.000000  0
6.000000  10.000000  15.500000  0
5.000000  9.500000  15.000000  0
5.000000  10.000000  15.500000  0
4.000000  9.500000  15.000000  0
4.000000  10.000000  15.500000  0
3.000000  10.000000  15.500000  0
2.000000  10.000000  15.500000  0
2.500000  11.000000  25.000000  0
2.000000  11.000000  25.500000  0
1.500000  11.000000  25.000000  0
4.500000  11.000000  24.000000  0
4.000000  11.000000  24.500000  0
3.000000  11.000000  24.500000  0
1.500000  11.000000  24.000000  0
4.500000  11.000000  23.000000  0
2.000000  10.500000  23.000000  0
1.500000  11.000000  23.000000  0
6.500000  11.000000  22.000000  0
6.000000  11.000000  22.500000  0
5.000000  11.000000  22.500000  0
2.000000  10.500000  22.000000  0
1.500000  11.000000  22.000000  0
6.500000  11.000000  21.000000  0
2.000000  10.500000  21.000000  0
1.500000  11.000000  21.000000  0
8.000000  10.500000  20.000000  0
7.000000  10.500000  20.000000  0
6.500000  11.000000  20.000000  0
4.000000  10.500000  20.000000  0
4.500000  11.000000  20.000000  0
4.000000  11.000000  20.500000  0
3.000000  10.500000  20.000000  0
3.000000  11.000000  20.500000  0
2.000000  11.000000  20.500000  0
8.000000  10.500000  19.000000  0
7.000000  10.500000  19.000000  0
6.500000  11.000000  19.000000  0
4.000000  10.500000  19.000000  0
4.500000  11.000000  19.000000  0
3.000000  10.500000  19.000000  0
8.000000  10.500000  18.000000  0
7.000000  10.500000  18.000000  0
6.000000  10.500000  18.000000  0
6.000000  11.000000  18.500000  0
5.000000  10.500000  18.000000  0
5.000000  11.000000  18.500000  0
4.000000  10.500000  18.000000  0
3.000000  10.500000  18.000000  0
8.000000  10.500000  17.000000  0
7.000000  10.500000  17.000000  0
6.000000  10.500000  17.000000  0
5.000000  10.500000  17.000000  0
4.000000  10.500000  17.000000  0
3.000000  10.500000  17.000000  0
8.000000  10.500000  16.000000  0
7.000000  10.500000  16.000000  0
6.000000  10.500000  16.000000  0
5.000000  10.500000  16.000000  0
4.000000  10.500000  16.000000  0
3.000000  10.500000  16.000000  0
2.000000  10.500000  16.000000  0
2.000000  11.500000  25.000000  0
4.000000  11.500000  24.000000  0
3.000000  11.500000  24.000000  0
2.000000  11.500000  24.000000  0
4.000000  11.500000  23.000000  0
3.000000  11.500000  23.000000  0
2.000000  11.500000  23.000000  0
6.000000  11.500000  22.000000  0
5.000000  11.500000  22.000000  0
4.000000  11.500000  22.000000  0
3.000000  11.500000  22.000000  0
2.000000  11.500000  22.000000  0
6.000000  11.500000  21.000000  0
5.000000  11.500000  21.000000  0
4.000000  11.500000  21.000000  0
3.000000  11.500000  21.000000  0
2.000000  11.500000  21.000000  0
6.000000  11.500000  20.000000  0
5.000000  11.500000  20.000000  0
6.000000  11.500000  19.000000  0
5.000000  11.500000  19.000000  0
2 0 1 0
2 3 0 0
4 3 2 0
4 5 3 0
6 5 4 0
6 7 5 0
8 7 6 0
8 9 7 0
10 9 8 0
11 9 10 0
0 13 1 0
12 13 0 0
14 0 3 0
12 0 14 0
15 3 5 0
14 3 15 0
16 5 7 0
15 5 16 0
17 7 9 0
16 7 17 0
11 17 9 0
18 17 11 0
12 20 13 0
19 20 12 0
21 12 14 0
19 12 21 0
22 14 15 0
21 14 22 0
22 15 16 0
23 22 16 0
24 23 16 0
16 25 24 0
17 25 16 0
17 18 25 0
20 19 26 0
19 27 26 0
21 27 19 0
21 28 27 0
22 28 21 0
22 23 28 0
31 29 30 0
31 32 29 0
33 32 31 0
33 34 32 0
35 34 33 0
35 36 34 0
37 36 35 0
37 38 36 0
39 38 37 0
39 40 38 0
41 40 39 0
41 42 40 0
43 42 41 0
43 44 42 0
45 44 43 0
45 46 44 0
47 46 45 0
48 46 47 0
29 50 30 0
49 50 29 0
51 29 32 0
49 29 51 0
52 32 34 0
51 32 52 0
53 34 36 0
52 34 53 0
54 36 38 0
53 36 54 0
55 38 40 0
54 38 55 0
56 40 42 0
55 40 56 0
57 42 44 0
56 42 57 0
58 44 46 0
57 44 58 0
48 58 46 0
59 58 48 0
62 60 61 0
62 63 60 0
64 63 62 0
65 63 64 0
49 67 50 0
66 67 49 0
68 49 51 0
66 49 68 0
69 51 52 0
68 51 69 0
70 52 53 0
69 52 70 0
71 53 54 0
70 53 71 0
72 54 55 0
71 54 72 0
73 55 56 0
72 55 73 0
73 56 57 0
73 57 2 0
73 2 1 0
57 58 2 0
2 58 4 0
74 6 4 0
74 4 58 0
74 58 59 0
75 6 74 0
8 6 75 0
10 8 75 0
10 75 61 0
10 61 60 0
60 63 10 0
63 11 10 0
63 77 11 0
77 76 11 0
63 65 77 0
66 79 67 0
78 79 66 0
80 66 68 0
78 66 80 0
81 68 69 0
80 68 81 0
82 69 70 0
81 69 82 0
83 70 71 0
82 70 83 0
84 71 72 0
83 71 84 0
85 72 73 0
84 72 85 0
1 13 73 0
73 13 85 0
18 76 86 0
11 76 18 0
78 88 79 0
87 88 78 0
89 78 80 0
87 78 89 0
90 80 81 0
89 80 90 0
91 81 82 0
90 81 91 0
92 82 83 0
91 82 92 0
93 83 84 0
92 83 93 0
94 84 85 0
93 84 94 0
13 20 85 0
85 20 94 0
95 23 96 0
96 23 24 0
96 25 97 0
24 25 96 0
18 97 25 0
86 97 18 0
88 87 98 0
87 89 99 0
98 87 99 0
100 98 99 0
101 89 90 0
99 89 101 0
102 90 91 0
101 90 102 0
103 91 92 0
102 91 103 0
104 92 93 0
103 92 104 0
105 93 94 0
104 93 105 0
106 105 94 0
106 94 20 0
106 20 26 0
107 106 27 0
27 106 26 0
27 28 109 0
27 109 108 0
27 108 107 0
23 109 28 0
95 109 23 0
99 111 100 0
110 111 99 0
112 99 101 0
110 99 112 0
113 101 102 0
112 101 113 0
114 102 103 0
113 102 114 0
115 103 104 0
114 103 115 0
116 104 105 0
115 104 116 0
116 105 106 0
117 116 106 0
118 117 106 0
106 119 118 0
107 119 106 0
107 108 119 0
110 121 111 0
120 121 110 0
122 110 112 0
120 110 122 0
123 112 113 0
122 112 123 0
124 113 114 0
123 113 124 0
125 114 115 0
124 114 125 0
126 115 116 0
125 115 126 0
117 126 116 0
127 126 117 0
120 129 121 0
128 129 120 0
130 120 122 0
128 120 130 0
131 122 123 0
130 122 131 0
131 123 124 0
132 131 124 0
133 132 124 0
124 134 133 0
125 134 124 0
125 135 134 0
126 135 125 0
126 127 135 0
129 128 136 0
128 137 136 0
130 137 128 0
130 138 137 0
131 138 130 0
131 132 138 0
141 139 140 0
141 142 139 0
143 142 141 0
144 142 143 0
147 145 146 0
147 148 145 0
149 148 147 0
139 150 148 0
140 139 148 0
149 140 148 0
151 139 142 0
150 139 151 0
152 151 142 0
153 152 142 0
144 153 142 0
154 152 153 0
157 155 156 0
157 158 155 0
159 158 157 0
159 160 158 0
161 160 159 0
145 162 160 0
146 145 160 0
161 146 160 0
163 145 148 0
162 145 163 0
164 148 150 0
163 148 164 0
165 150 151 0
164 150 165 0
166 151 152 0
165 151 166 0
167 166 152 0
168 167 152 0
154 168 152 0
168 169 167 0
170 169 168 0
170 171 169 0
172 171 170 0
172 173 171 0
174 173 172 0
174 175 173 0
176 175 174 0
176 177 175 0
178 177 176 0
179 177 178 0
155 181 156 0
180 181 155 0
180 155 158 0
180 158 31 0
180 31 30 0
158 160 31 0
31 160 33 0
160 162 33 0
33 162 35 0
162 163 35 0
35 163 37 0
163 164 37 0
37 164 39 0
164 165 39 0
39 165 41 0
165 166 41 0
41 166 43 0
166 167 43 0
43 167 45 0
167 169 45 0
45 169 47 0
169 171 182 0
169 182 48 0
169 48 47 0
183 171 173 0
182 171 183 0
184 173 175 0
183 173 184 0
185 175 177 0
184 175 185 0
179 185 177 0
186 185 179 0
181 180 187 0
30 50 188 0
30 188 187 0
30 187 180 0
59 48 189 0
189 48 182 0
190 182 183 0
189 182 190 0
190 183 184 0
190 184 62 0
190 62 61 0
184 185 62 0
62 185 64 0
186 191 65 0
185 186 65 0
64 185 65 0
50 192 188 0
67 192 50 0
74 59 189 0
189 190 74 0
74 190 75 0
190 61 75 0
193 76 77 0
65 191 194 0
77 65 194 0
193 77 194 0
67 195 192 0
79 195 67 0
196 86 76 0
196 76 193 0
196 193 197 0
193 194 197 0
79 198 195 0
88 198 79 0
199 95 96 0
96 97 201 0
96 201 200 0
96 200 199 0
86 201 97 0
196 201 86 0
198 98 202 0
88 98 198 0
202 98 203 0
203 98 100 0
204 108 205 0
205 108 109 0
206 205 109 0
199 206 109 0
95 199 109 0
199 200 206 0
100 207 203 0
111 207 100 0
208 117 209 0
209 117 118 0
209 119 210 0
118 119 209 0
108 210 119 0
204 210 108 0
111 211 207 0
121 211 111 0
127 208 212 0
117 208 127 0
121 213 211 0
129 213 121 0
214 132 215 0
215 132 133 0
215 134 216 0
133 134 215 0
216 135 217 0
134 135 216 0
127 217 135 0
212 217 127 0
213 136 218 0
129 136 213 0
218 137 219 0
136 137 218 0
219 138 220 0
137 138 219 0
132 220 138 0
214 220 132 0
223 221 222 0
223 224 221 0
225 224 223 0
225 226 141 0
224 225 141 0
140 224 141 0
227 141 226 0
143 141 227 0
228 143 227 0
144 143 228 0
146 229 222 0
147 146 222 0
221 147 222 0
221 224 147 0
147 224 149 0
224 140 149 0
230 153 228 0
228 153 144 0
153 230 232 0
154 153 232 0
231 154 232 0
233 231 232 0
157 156 234 0
159 234 235 0
157 234 159 0
237 161 159 0
236 237 159 0
235 236 159 0
161 237 146 0
146 237 229 0
168 154 231 0
238 170 168 0
238 168 231 0
238 231 233 0
239 170 238 0
172 170 239 0
240 172 239 0
174 172 240 0
241 174 240 0
176 174 241 0
242 176 241 0
178 176 242 0
243 178 242 0
179 178 243 0
244 156 181 0
234 156 244 0
235 234 244 0
235 244 245 0
235 245 246 0
246 236 235 0
186 243 247 0
179 243 186 0
244 181 187 0
188 248 245 0
188 245 244 0
188 244 187 0
191 247 249 0
186 247 191 0
188 250 248 0
192 250 188 0
194 249 251 0
191 249 194 0
192 252 250 0
195 252 192 0
253 196 197 0
194 251 254 0
197 194 254 0
253 197 254 0
195 255 252 0
198 255 195 0
256 200 201 0
253 257 256 0
253 256 201 0
253 201 196 0
254 257 253 0
258 257 254 0
260 255 198 0
259 260 198 0
202 259 198 0
203 259 202 0
262 261 263 0
205 264 263 0
205 263 261 0
205 261 204 0
264 206 265 0
205 206 264 0
266 265 206 0
256 266 206 0
200 256 206 0
256 267 266 0
257 267 256 0
257 258 267 0
260 259 268 0
203 207 269 0
203 269 268 0
203 268 259 0
270 208 271 0
271 208 209 0
271 209 210 0
262 271 210 0
261 262 210 0
210 204 261 0
207 272 269 0
211 272 207 0
212 270 273 0
208 270 212 0
211 274 272 0
213 274 211 0
275 214 276 0
276 214 215 0
276 216 277 0
215 216 276 0
277 217 278 0
216 217 277 0
212 278 217 0
273 278 212 0
274 218 279 0
213 218 274 0
279 219 280 0
218 219 279 0
280 220 281 0
219 220 280 0
214 281 220 0
275 281 214 0
284 282 283 0
284 285 282 0
286 285 284 0
287 285 286 0
222 288 283 0
223 222 283 0
282 223 283 0
282 285 223 0
223 285 225 0
289 226 225 0
289 225 285 0
289 285 287 0
290 226 289 0
227 226 290 0
291 227 290 0
228 227 291 0
294 292 293 0
294 295 292 0
296 295 294 0
296 297 295 0
298 297 296 0
299 297 298 0
222 300 288 0
229 300 222 0
301 230 291 0
291 230 228 0
232 230 301 0
302 232 301 0
303 302 301 0
232 302 233 0
292 305 293 0
304 305 292 0
306 292 295 0
304 292 306 0
307 295 297 0
306 295 307 0
299 307 297 0
308 307 299 0
310 236 309 0
237 236 310 0
237 310 229 0
229 310 300 0
311 302 303 0
311 233 302 0
311 313 233 0
313 238 233 0
312 238 313 0
239 312 314 0
238 312 239 0
240 314 315 0
239 314 240 0
241 315 316 0
240 315 241 0
242 316 317 0
241 316 242 0
320 318 319 0
242 317 243 0
320 321 318 0
322 321 320 0
322 323 321 0
324 323 322 0
324 325 323 0
326 325 324 0
304 327 325 0
305 304 325 0
326 305 325 0
328 304 306 0
327 304 328 0
329 306 307 0
328 306 329 0
330 329 307 0
331 330 307 0
308 331 307 0
331 332 330 0
333 332 331 0
334 332 333 0
336 245 335 0
246 245 336 0
246 336 236 0
236 336 309 0
337 312 313 0
337 338 312 0
312 338 314 0
338 339 314 0
314 339 315 0
339 340 315 0
315 340 316 0
340 341 316 0
316 341 317 0
247 341 342 0
247 243 341 0
243 317 341 0
342 341 318 0
318 341 319 0
343 318 321 0
342 318 343 0
344 321 323 0
343 321 344 0
345 323 325 0
344 323 345 0
346 325 327 0
345 325 346 0
347 327 328 0
346 327 347 0
348 328 329 0
347 328 348 0
349 329 330 0
348 329 349 0
350 330 332 0
349 330 350 0
334 350 332 0
351 350 334 0
245 352 335 0
248 352 245 0
249 247 353 0
353 247 342 0
354 342 343 0
353 342 354 0
355 343 344 0
354 343 355 0
356 344 345 0
355 344 356 0
357 345 346 0
356 345 357 0
358 346 347 0
357 346 358 0
359 347 348 0
358 347 359 0
360 348 349 0
359 348 360 0
361 349 350 0
360 349 361 0
351 361 350 0
362 361 351 0
248 363 352 0
250 363 248 0
251 249 364 0
364 249 353 0
365 353 354 0
364 353 365 0
366 354 355 0
365 354 366 0
367 355 356 0
366 355 367 0
368 356 357 0
367 356 368 0
369 357 358 0
368 357 369 0
370 358 359 0
369 358 370 0
371 359 360 0
370 359 371 0
372 360 361 0
371 360 372 0
362 372 361 0
373 372 362 0
250 374 363 0
252 374 250 0
254 251 375 0
375 251 364 0
376 364 365 0
375 364 376 0
377 365 366 0
376 365 377 0
378 366 367 0
377 366 378 0
379 367 368 0
378 367 379 0
380 368 369 0
379 368 380 0
381 369 370 0
380 369 381 0
382 370 371 0
381 370 382 0
383 371 372 0
382 371 383 0
373 383 372 0
384 383 373 0
387 385 386 0
374 252 255 0
374 255 385 0
374 385 387 0
258 254 388 0
388 254 375 0
388 375 376 0
389 388 376 0
390 389 376 0
376 391 390 0
377 391 376 0
377 378 392 0
391 377 392 0
393 391 392 0
394 378 379 0
392 378 394 0
395 379 380 0
394 379 395 0
396 380 381 0
395 380 396 0
397 381 382 0
396 381 397 0
398 382 383 0
397 382 398 0
384 398 383 0
399 398 384 0
385 401 386 0
400 401 385 0
255 260 385 0
385 260 400 0
403 402 404 0
263 405 406 0
263 406 404 0
262 263 404 0
402 262 404 0
407 405 264 0
264 405 263 0
264 265 409 0
264 409 408 0
264 408 407 0
409 266 410 0
265 266 409 0
410 267 411 0
266 267 410 0
412 411 267 0
388 412 267 0
258 388 267 0
388 389 412 0
393 392 413 0
392 414 413 0
394 414 392 0
394 415 414 0
395 415 394 0
395 416 415 0
396 416 395 0
396 417 416 0
397 417 396 0
397 418 417 0
398 418 397 0
398 399 418 0
421 419 420 0
400 422 419 0
401 400 419 0
421 401 419 0
423 422 400 0
423 400 260 0
423 260 268 0
269 423 268 0
403 424 270 0
403 270 271 0
403 271 402 0
271 262 402 0
425 406 405 0
405 426 425 0
407 426 405 0
407 408 426 0
420 419 427 0
419 428 427 0
422 428 419 0
422 429 428 0
423 429 422 0
431 429 430 0
429 272 430 0
429 423 272 0
423 269 272 0
430 432 431 0
431 432 433 0
433 432 434 0
273 424 435 0
270 424 273 0
436 272 274 0
430 272 436 0
436 432 430 0
437 432 436 0
432 437 438 0
432 438 439 0
432 439 434 0
276 440 439 0
276 439 438 0
276 438 275 0
440 277 441 0
276 277 440 0
441 278 442 0
277 278 441 0
273 442 278 0
435 442 273 0
436 274 279 0
279 437 436 0
280 437 279 0
280 438 437 0
281 438 280 0
281 275 438 0
284 283 443 0
286 443 444 0
284 443 286 0
286 444 287 0
283 288 445 0
443 283 445 0
446 443 445 0
446 447 443 0
443 447 444 0
447 448 289 0
447 289 287 0
447 287 444 0
290 289 448 0
449 290 448 0
450 449 448 0
290 449 291 0
452 293 451 0
294 293 452 0
453 294 452 0
296 294 453 0
454 296 453 0
298 296 454 0
455 298 454 0
299 298 455 0
458 456 457 0
445 288 300 0
445 300 456 0
445 456 458 0
459 449 450 0
459 291 449 0
459 461 291 0
461 301 291 0
460 301 461 0
301 460 303 0
293 462 451 0
305 462 293 0
308 455 463 0
299 455 308 0
309 464 457 0
310 309 457 0
456 310 457 0
456 300 310 0
465 460 461 0
465 303 460 0
465 467 303 0
467 311 303 0
466 311 467 0
311 466 313 0
469 319 468 0
320 319 469 0
470 320 469 0
322 320 470 0
471 322 470 0
324 322 471 0
472 324 471 0
326 324 472 0
326 472 305 0
305 472 462 0
473 331 463 0
463 331 308 0
474 331 473 0
333 331 474 0
475 333 474 0
334 333 475 0
477 335 476 0
336 335 477 0
336 477 309 0
309 477 464 0
478 466 467 0
478 479 337 0
478 337 313 0
478 313 466 0
480 337 479 0
338 337 480 0
481 338 480 0
339 338 481 0
482 339 481 0
340 339 482 0
483 340 482 0
341 340 483 0
341 483 319 0
319 483 468 0
351 475 484 0
334 475 351 0
335 485 476 0
352 485 335 0
362 484 486 0
351 484 362 0
352 487 485 0
363 487 352 0
373 486 488 0
362 486 373 0
491 489 490 0
491 492 489 0
493 492 491 0
487 363 374 0
487 374 492 0
487 492 493 0
384 488 494 0
373 488 384 0
489 496 490 0
495 496 489 0
495 489 492 0
495 492 387 0
495 387 386 0
492 374 387 0
497 389 390 0
498 497 391 0
391 497 390 0
393 498 391 0
399 494 499 0
384 494 399 0
495 501 496 0
500 501 495 0
386 401 495 0
495 401 500 0
502 403 404 0
406 502 404 0
503 408 504 0
504 408 409 0
504 410 505 0
409 410 504 0
505 410 411 0
505 411 506 0
505 506 507 0
508 506 412 0
412 506 411 0
497 509 508 0
497 508 412 0
497 412 389 0
509 497 498 0
510 509 498 0
511 510 498 0
413 512 511 0
393 413 511 0
498 393 511 0
512 414 513 0
413 414 512 0
513 415 514 0
414 415 513 0
514 415 416 0
514 416 515 0
514 515 516 0
517 515 417 0
417 515 416 0
518 517 418 0
418 517 417 0
399 499 519 0
418 399 519 0
518 418 519 0
501 500 521 0
420 520 421 0
522 521 500 0
522 500 401 0
520 522 401 0
421 520 401 0
524 523 525 0
525 502 526 0
525 403 502 0
523 403 525 0
424 403 523 0
425 527 526 0
406 425 526 0
502 406 526 0
527 426 528 0
425 426 527 0
408 528 426 0
503 528 408 0
507 506 529 0
506 530 529 0
508 530 506 0
508 531 530 0
509 531 508 0
509 510 531 0
516 515 532 0
515 533 532 0
517 533 515 0
517 534 533 0
518 534 517 0
518 519 534 0
520 420 427 0
427 428 535 0
520 427 535 0
522 520 535 0
535 429 536 0
428 429 535 0
536 431 537 0
429 431 536 0
537 433 538 0
431 433 537 0
538 433 539 0
539 433 434 0
524 541 523 0
523 541 540 0
523 435 424 0
540 435 523 0
539 439 542 0
434 439 539 0
542 440 543 0
439 440 542 0
543 441 544 0
440 441 543 0
544 441 442 0
541 544 442 0
540 541 442 0
442 435 540 0
446 445 545 0
447 545 546 0
446 545 447 0
448 546 547 0
447 546 448 0
448 547 450 0
452 451 548 0
453 548 549 0
452 548 453 0
551 454 453 0
550 551 453 0
549 550 453 0
552 454 551 0
455 454 552 0
554 457 553 0
458 457 554 0
458 554 555 0
458 555 545 0
458 545 445 0
555 556 545 0
545 556 546 0
556 557 546 0
546 557 547 0
557 558 459 0
557 459 450 0
557 450 547 0
559 459 558 0
461 459 559 0
451 462 560 0
548 451 560 0
561 548 560 0
561 562 548 0
548 562 549 0
562 550 549 0
463 552 563 0
455 552 463 0
457 564 553 0
464 564 457 0
461 559 566 0
461 566 565 0
461 565 465 0
465 565 467 0
569 567 568 0
569 570 567 0
571 570 569 0
571 572 469 0
570 571 469 0
468 570 469 0
573 469 572 0
470 469 573 0
574 470 573 0
471 470 574 0
575 471 574 0
472 471 575 0
472 575 462 0
462 575 560 0
576 473 563 0
563 473 463 0
577 473 576 0
474 473 577 0
578 474 577 0
475 474 578 0
580 476 579 0
477 476 580 0
477 580 464 0
464 580 564 0
581 565 566 0
581 582 478 0
581 478 467 0
581 467 565 0
583 478 582 0
479 478 583 0
584 479 583 0
480 479 584 0
585 480 584 0
481 480 585 0
482 481 585 0
482 585 568 0
482 568 567 0
567 570 482 0
482 570 483 0
570 468 483 0
484 578 586 0
475 578 484 0
476 587 579 0
485 587 476 0
486 586 588 0
484 586 486 0
485 589 587 0
487 589 485 0
488 588 590 0
486 588 488 0
592 490 591 0
491 490 592 0
593 491 592 0
493 491 593 0
493 593 487 0
487 593 589 0
494 590 594 0
488 590 494 0
490 595 591 0
496 595 490 0
597 596 598 0
596 599 598 0
598 599 600 0
600 599 601 0
499 594 602 0
494 594 499 0
496 603 595 0
501 603 496 0
605 604 606 0
606 604 607 0
597 609 596 0
596 609 608 0
608 599 596 0
610 599 608 0
599 504 601 0
599 610 504 0
610 503 504 0
601 504 612 0
612 504 611 0
613 611 505 0
505 611 504 0
507 613 505 0
614 510 511 0
615 614 512 0
512 614 511 0
616 615 513 0
513 615 512 0
617 616 514 0
514 616 513 0
516 617 514 0
519 602 618 0
499 602 519 0
603 521 619 0
501 521 603 0
619 521 620 0
620 521 522 0
605 621 524 0
605 524 525 0
605 525 604 0
525 526 622 0
604 525 622 0
607 604 622 0
622 526 527 0
609 622 527 0
608 609 527 0
527 610 608 0
528 610 527 0
528 503 610 0
623 612 611 0
611 624 623 0
613 624 611 0
529 625 624 0
507 529 624 0
613 507 624 0
625 530 626 0
529 530 625 0
626 531 627 0
530 531 626 0
628 627 531 0
614 628 531 0
510 614 531 0
614 629 628 0
615 629 614 0
615 630 629 0
616 630 615 0
616 631 630 0
617 631 616 0
532 632 631 0
516 532 631 0
617 516 631 0
632 533 633 0
532 533 632 0
633 534 634 0
533 534 633 0
519 634 534 0
618 634 519 0
636 620 522 0
635 636 522 0
535 635 522 0
637 635 536 0
536 635 535 0
638 637 537 0
537 637 536 0
639 638 538 0
538 638 537 0
539 639 538 0
541 621 640 0
524 621 541 0
636 635 641 0
635 642 641 0
637 642 635 0
637 643 642 0
638 643 637 0
638 644 643 0
639 644 638 0
542 645 644 0
539 542 644 0
639 539 644 0
645 543 646 0
542 543 645 0
646 544 647 0
543 544 646 0
541 647 544 0
640 647 541 0
649 550 648 0
551 550 649 0
650 551 649 0
552 551 650 0
652 553 651 0
554 553 652 0
653 554 652 0
555 554 653 0
654 555 653 0
556 555 654 0
655 556 654 0
557 556 655 0
656 557 655 0
558 557 656 0
657 558 656 0
559 558 657 0
659 560 658 0
561 560 659 0
660 561 659 0
562 561 660 0
562 660 550 0
550 660 648 0
563 552 650 0
563 650 662 0
563 662 661 0
663 661 662 0
666 664 665 0
651 553 564 0
651 564 664 0
651 664 666 0
566 657 667 0
559 657 566 0
670 668 669 0
670 671 668 0
672 671 670 0
672 673 671 0
674 673 672 0
674 675 569 0
673 674 569 0
568 673 569 0
676 569 675 0
