#!ascii version of 
254 504
21.000000  -29.500000  39.000000  0
21.500000  -29.000000  39.000000  0
21.000000  -29.000000  39.500000  0
20.500000  -29.000000  39.000000  0
22.000000  -29.500000  38.000000  0
22.500000  -29.000000  38.000000  0
22.000000  -29.000000  38.500000  0
21.000000  -29.500000  38.000000  0
20.500000  -29.000000  38.000000  0
22.000000  -29.000000  37.500000  0
21.000000  -29.500000  37.000000  0
21.500000  -29.000000  37.000000  0
20.500000  -29.000000  37.000000  0
22.000000  -29.500000  36.000000  0
22.500000  -29.000000  36.000000  0
22.000000  -29.000000  36.500000  0
21.000000  -29.500000  36.000000  0
20.500000  -29.000000  36.000000  0
22.000000  -29.500000  35.000000  0
22.500000  -29.000000  35.000000  0
21.000000  -29.500000  35.000000  0
20.500000  -29.000000  35.000000  0
22.000000  -29.000000  34.500000  0
21.000000  -29.000000  34.500000  0
22.000000  -28.500000  39.000000  0
22.500000  -28.000000  39.000000  0
22.000000  -28.000000  39.500000  0
21.000000  -28.000000  39.500000  0
20.000000  -28.500000  39.000000  0
20.000000  -28.000000  39.500000  0
19.500000  -28.000000  39.000000  0
22.000000  -28.500000  38.000000  0
22.000000  -28.000000  38.500000  0
21.500000  -28.000000  38.000000  0
20.000000  -28.500000  38.000000  0
19.500000  -28.000000  38.000000  0
21.500000  -28.000000  37.000000  0
20.000000  -28.500000  37.000000  0
19.500000  -28.000000  37.000000  0
22.500000  -28.000000  36.000000  0
22.000000  -28.000000  36.500000  0
20.000000  -28.500000  36.000000  0
19.500000  -28.000000  36.000000  0
22.500000  -28.000000  35.000000  0
20.500000  -28.000000  35.000000  0
20.000000  -28.000000  35.500000  0
22.000000  -28.000000  34.500000  0
21.000000  -28.000000  34.500000  0
22.000000  -27.500000  39.000000  0
21.000000  -27.500000  39.000000  0
20.500000  -27.000000  39.000000  0
20.000000  -27.000000  39.500000  0
19.000000  -27.500000  39.000000  0
19.000000  -27.000000  39.500000  0
18.500000  -27.000000  39.000000  0
21.500000  -27.000000  38.000000  0
21.000000  -27.000000  38.500000  0
19.000000  -27.500000  38.000000  0
18.500000  -27.000000  38.000000  0
21.500000  -27.000000  37.000000  0
19.000000  -27.500000  37.000000  0
18.500000  -27.000000  37.000000  0
22.500000  -27.000000  36.000000  0
22.000000  -27.000000  36.500000  0
20.000000  -27.500000  36.000000  0
20.500000  -27.000000  36.000000  0
20.000000  -27.000000  36.500000  0
19.000000  -27.000000  36.500000  0
22.000000  -27.500000  35.000000  0
22.000000  -27.000000  35.500000  0
21.000000  -27.500000  35.000000  0
21.000000  -27.000000  35.500000  0
20.000000  -26.500000  42.000000  0
20.500000  -26.000000  42.000000  0
20.000000  -26.000000  42.500000  0
19.000000  -26.500000  42.000000  0
19.000000  -26.000000  42.500000  0
18.000000  -26.500000  42.000000  0
18.000000  -26.000000  42.500000  0
17.500000  -26.000000  42.000000  0
20.000000  -26.500000  41.000000  0
20.500000  -26.000000  41.000000  0
19.000000  -26.500000  41.000000  0
18.000000  -26.500000  41.000000  0
17.000000  -26.500000  41.000000  0
17.000000  -26.000000  41.500000  0
16.500000  -26.000000  41.000000  0
20.000000  -26.000000  40.500000  0
19.000000  -26.500000  40.000000  0
19.500000  -26.000000  40.000000  0
18.000000  -26.500000  40.000000  0
17.000000  -26.500000  40.000000  0
16.500000  -26.000000  40.000000  0
20.000000  -26.500000  39.000000  0
19.500000  -26.000000  39.000000  0
18.000000  -26.500000  39.000000  0
17.500000  -26.000000  39.000000  0
17.000000  -26.000000  39.500000  0
21.000000  -26.500000  38.000000  0
20.500000  -26.000000  38.000000  0
20.000000  -26.000000  38.500000  0
18.000000  -26.500000  38.000000  0
17.500000  -26.000000  38.000000  0
21.500000  -26.000000  37.000000  0
21.000000  -26.000000  37.500000  0
19.000000  -26.500000  37.000000  0
19.500000  -26.000000  37.000000  0
19.000000  -26.000000  37.500000  0
18.000000  -26.000000  37.500000  0
22.000000  -26.500000  36.000000  0
21.000000  -26.500000  36.000000  0
21.000000  -26.000000  36.500000  0
20.000000  -26.000000  36.500000  0
18.000000  -25.500000  43.000000  0
18.500000  -25.000000  43.000000  0
18.000000  -25.000000  43.500000  0
17.000000  -25.500000  43.000000  0
17.000000  -25.000000  43.500000  0
16.000000  -25.500000  43.000000  0
16.000000  -25.000000  43.500000  0
15.500000  -25.000000  43.000000  0
20.500000  -25.000000  42.000000  0
20.000000  -25.000000  42.500000  0
19.000000  -25.000000  42.500000  0
17.500000  -25.000000  42.000000  0
17.000000  -25.000000  42.500000  0
16.000000  -25.000000  42.500000  0
20.500000  -25.000000  41.000000  0
17.000000  -25.500000  41.000000  0
17.500000  -25.000000  41.000000  0
20.000000  -25.000000  40.500000  0
19.500000  -25.000000  40.000000  0
17.000000  -25.000000  40.500000  0
16.500000  -25.000000  40.000000  0
19.500000  -25.000000  39.000000  0
17.500000  -25.000000  39.000000  0
17.000000  -25.000000  39.500000  0
20.500000  -25.000000  38.000000  0
20.000000  -25.000000  38.500000  0
17.500000  -25.000000  38.000000  0
21.000000  -25.500000  37.000000  0
20.500000  -25.000000  37.000000  0
19.500000  -25.000000  37.000000  0
19.000000  -25.000000  37.500000  0
18.000000  -25.000000  37.500000  0
20.000000  -25.000000  36.500000  0
18.000000  -24.500000  44.000000  0
18.500000  -24.000000  44.000000  0
18.000000  -24.000000  44.500000  0
17.000000  -24.500000  44.000000  0
17.000000  -24.000000  44.500000  0
16.000000  -24.500000  44.000000  0
16.000000  -24.000000  44.500000  0
15.000000  -24.500000  44.000000  0
15.000000  -24.000000  44.500000  0
14.000000  -24.500000  44.000000  0
14.000000  -24.000000  44.500000  0
13.500000  -24.000000  44.000000  0
18.500000  -24.000000  43.000000  0
15.000000  -24.500000  43.000000  0
14.500000  -24.000000  43.000000  0
14.000000  -24.000000  43.500000  0
20.500000  -24.000000  42.000000  0
20.000000  -24.000000  42.500000  0
19.000000  -24.000000  42.500000  0
18.000000  -24.500000  42.000000  0
18.500000  -24.000000  42.000000  0
18.000000  -24.000000  42.500000  0
17.000000  -24.000000  42.500000  0
16.000000  -24.000000  42.500000  0
15.000000  -24.000000  42.500000  0
20.000000  -24.500000  41.000000  0
20.000000  -24.000000  41.500000  0
19.000000  -24.500000  41.000000  0
19.000000  -24.000000  41.500000  0
18.000000  -24.500000  41.000000  0
19.000000  -24.500000  40.000000  0
18.000000  -24.500000  40.000000  0
17.500000  -24.000000  40.000000  0
17.000000  -24.000000  40.500000  0
16.000000  -24.500000  40.000000  0
16.000000  -24.000000  40.500000  0
15.500000  -24.000000  40.000000  0
19.000000  -24.500000  39.000000  0
18.500000  -24.000000  39.000000  0
18.000000  -24.000000  39.500000  0
17.000000  -24.500000  39.000000  0
16.000000  -24.500000  39.000000  0
15.500000  -24.000000  39.000000  0
20.000000  -24.500000  38.000000  0
19.500000  -24.000000  38.000000  0
19.000000  -24.000000  38.500000  0
17.000000  -24.500000  38.000000  0
16.000000  -24.500000  38.000000  0
15.500000  -24.000000  38.000000  0
20.000000  -24.500000  37.000000  0
19.000000  -24.000000  37.500000  0
18.000000  -24.000000  37.500000  0
17.000000  -24.000000  37.500000  0
16.000000  -24.000000  37.500000  0
18.500000  -23.000000  44.000000  0
18.000000  -23.000000  44.500000  0
17.000000  -23.000000  44.500000  0
16.000000  -23.000000  44.500000  0
15.000000  -23.000000  44.500000  0
14.000000  -23.500000  44.000000  0
14.500000  -23.000000  44.000000  0
18.500000  -23.000000  43.000000  0
17.000000  -23.500000  43.000000  0
17.500000  -23.000000  43.000000  0
17.000000  -23.000000  43.500000  0
16.000000  -23.500000  43.000000  0
16.000000  -23.000000  43.500000  0
15.000000  -23.500000  43.000000  0
15.000000  -23.000000  43.500000  0
20.500000  -23.000000  42.000000  0
20.000000  -23.000000  42.500000  0
19.000000  -23.500000  42.000000  0
19.500000  -23.000000  42.000000  0
18.000000  -23.000000  42.500000  0
20.000000  -23.000000  41.500000  0
17.500000  -23.000000  40.000000  0
17.000000  -23.000000  40.500000  0
16.000000  -23.000000  40.500000  0
15.000000  -23.500000  40.000000  0
15.000000  -23.000000  40.500000  0
14.500000  -23.000000  40.000000  0
18.000000  -23.500000  39.000000  0
17.500000  -23.000000  39.000000  0
15.000000  -23.500000  39.000000  0
14.500000  -23.000000  39.000000  0
19.000000  -23.500000  38.000000  0
18.000000  -23.500000  38.000000  0
17.000000  -23.500000  38.000000  0
17.000000  -23.000000  38.500000  0
16.000000  -23.500000  38.000000  0
16.000000  -23.000000  38.500000  0
15.000000  -23.000000  38.500000  0
18.500000  -22.000000  44.000000  0
18.000000  -22.000000  44.500000  0
17.000000  -22.500000  44.000000  0
17.500000  -22.000000  44.000000  0
16.000000  -22.500000  44.000000  0
15.000000  -22.500000  44.000000  0
18.000000  -22.500000  43.000000  0
18.000000  -22.000000  43.500000  0
20.000000  -22.500000  42.000000  0
17.000000  -22.500000  40.000000  0
16.000000  -22.500000  40.000000  0
15.000000  -22.500000  40.000000  0
17.000000  -22.500000  39.000000  0
16.000000  -22.500000  39.000000  0
15.000000  -22.500000  39.000000  0
18.000000  -21.500000  44.000000  0
2 0 1 0
3 0 2 0
6 4 5 0
0 7 4 0
1 0 4 0
6 1 4 0
3 7 0 0
8 7 3 0
5 4 9 0
4 7 10 0
9 4 10 0
11 9 10 0
8 10 7 0
12 10 8 0
15 13 14 0
10 16 13 0
11 10 13 0
15 11 13 0
12 16 10 0
17 16 12 0
13 19 14 0
18 19 13 0
20 13 16 0
18 13 20 0
17 20 16 0
21 20 17 0
19 18 22 0
18 23 22 0
20 23 18 0
20 21 23 0
26 24 25 0
26 27 2 0
24 26 2 0
1 24 2 0
2 27 29 0
3 2 29 0
28 3 29 0
30 28 29 0
25 24 32 0
5 31 6 0
33 32 24 0
33 24 1 0
31 33 1 0
6 31 1 0
8 3 34 0
34 3 28 0
30 34 28 0
35 34 30 0
31 5 9 0
11 36 33 0
11 33 31 0
11 31 9 0
12 8 37 0
37 8 34 0
35 37 34 0
38 37 35 0
40 14 39 0
15 14 40 0
15 40 11 0
11 40 36 0
17 12 41 0
41 12 37 0
38 41 37 0
42 41 38 0
14 43 39 0
19 43 14 0
44 21 17 0
44 17 41 0
44 41 45 0
41 42 45 0
43 22 46 0
19 22 43 0
46 23 47 0
22 23 46 0
21 47 23 0
44 47 21 0
26 25 48 0
27 48 49 0
26 48 27 0
51 29 27 0
50 51 27 0
49 50 27 0
29 51 53 0
30 29 53 0
52 30 53 0
54 52 53 0
48 25 32 0
49 48 56 0
48 55 56 0
48 32 55 0
32 33 55 0
56 50 49 0
35 30 57 0
57 30 52 0
54 57 52 0
58 57 54 0
33 59 55 0
36 59 33 0
38 35 60 0
60 35 57 0
60 58 61 0
57 58 60 0
63 39 62 0
40 39 63 0
40 63 36 0
36 63 59 0
65 64 66 0
66 60 67 0
66 38 60 0
64 38 66 0
42 38 64 0
60 61 67 0
62 39 43 0
69 62 43 0
68 69 43 0
68 70 69 0
69 70 71 0
70 65 71 0
70 44 65 0
44 64 65 0
45 64 44 0
45 42 64 0
68 43 46 0
46 70 68 0
47 70 46 0
47 44 70 0
74 72 73 0
74 75 72 0
76 75 74 0
76 77 75 0
78 77 76 0
79 77 78 0
72 81 73 0
80 81 72 0
82 72 75 0
80 72 82 0
83 75 77 0
82 75 83 0
84 83 77 0
85 84 77 0
79 85 77 0
86 84 85 0
81 80 87 0
80 82 88 0
87 80 88 0
89 87 88 0
90 82 83 0
88 82 90 0
91 83 84 0
90 83 91 0
86 91 84 0
92 91 86 0
51 50 93 0
94 89 93 0
89 51 93 0
89 88 51 0
88 53 51 0
88 90 95 0
88 95 54 0
88 54 53 0
95 90 91 0
96 95 91 0
97 96 91 0
91 92 97 0
56 55 98 0
93 99 100 0
93 50 99 0
50 98 99 0
56 98 50 0
100 94 93 0
58 54 101 0
101 54 95 0
96 101 95 0
102 101 96 0
55 59 103 0
98 55 103 0
104 98 103 0
104 99 98 0
106 105 107 0
107 101 108 0
107 58 101 0
105 58 107 0
61 58 105 0
101 102 108 0
63 62 109 0
59 111 103 0
59 110 111 0
63 110 59 0
109 110 63 0
66 112 111 0
66 111 110 0
66 110 65 0
112 66 67 0
106 112 67 0
105 106 67 0
67 61 105 0
109 62 69 0
69 110 109 0
71 110 69 0
71 65 110 0
115 113 114 0
115 116 113 0
117 116 115 0
117 118 116 0
119 118 117 0
120 118 119 0
122 73 121 0
74 73 122 0
123 74 122 0
76 74 123 0
78 76 123 0
78 123 114 0
78 114 113 0
113 116 78 0
116 79 78 0
116 125 79 0
125 124 79 0
116 126 125 0
118 126 116 0
118 120 126 0
73 127 121 0
81 127 73 0
79 124 129 0
79 129 128 0
79 128 85 0
85 128 86 0
127 87 130 0
81 87 127 0
130 87 131 0
131 87 89 0
132 128 129 0
133 92 86 0
132 133 86 0
128 132 86 0
89 134 131 0
94 134 89 0
135 96 136 0
136 96 97 0
92 136 97 0
133 136 92 0
138 99 137 0
100 99 138 0
100 138 94 0
94 138 134 0
102 135 139 0
96 135 102 0
104 103 140 0
141 137 99 0
141 99 104 0
141 104 140 0
142 106 143 0
143 106 107 0
143 108 144 0
107 108 143 0
102 144 108 0
139 144 102 0
140 103 111 0
111 112 145 0
140 111 145 0
141 140 145 0
106 145 112 0
142 145 106 0
148 146 147 0
148 149 146 0
150 149 148 0
150 151 149 0
152 151 150 0
152 153 151 0
154 153 152 0
154 155 153 0
156 155 154 0
157 155 156 0
114 158 147 0
115 114 147 0
146 115 147 0
146 149 115 0
115 149 117 0
149 151 117 0
117 151 119 0
151 153 159 0
151 159 120 0
151 120 119 0
159 153 155 0
160 159 155 0
161 160 155 0
155 157 161 0
163 121 162 0
122 121 163 0
164 122 163 0
123 122 164 0
123 165 114 0
123 164 165 0
164 166 165 0
114 165 158 0
158 165 167 0
125 168 167 0
125 167 165 0
125 165 124 0
168 126 169 0
125 126 168 0
170 169 126 0
159 170 126 0
120 159 126 0
159 160 170 0
162 121 127 0
172 162 127 0
171 172 127 0
171 173 172 0
172 173 174 0
173 175 165 0
173 165 166 0
173 166 174 0
165 129 124 0
175 129 165 0
171 127 130 0
176 173 171 0
131 176 171 0
130 131 171 0
176 175 173 0
177 175 176 0
177 129 175 0
177 132 129 0
178 132 177 0
179 132 178 0
132 179 181 0
133 132 181 0
180 133 181 0
182 180 181 0
183 131 134 0
176 131 183 0
177 176 183 0
177 183 184 0
177 184 185 0
185 178 177 0
136 186 135 0
180 187 186 0
180 186 136 0
180 136 133 0
182 187 180 0
188 187 182 0
138 137 189 0
183 190 191 0
183 134 190 0
134 189 190 0
138 189 134 0
191 184 183 0
139 135 192 0
192 135 186 0
193 186 187 0
192 186 193 0
188 193 187 0
194 193 188 0
195 137 141 0
189 137 195 0
189 195 190 0
195 196 190 0
195 142 196 0
142 143 196 0
196 144 197 0
143 144 196 0
198 197 144 0
192 198 144 0
139 192 144 0
192 199 198 0
193 199 192 0
193 194 199 0
195 141 145 0
145 142 195 0
201 147 200 0
148 147 201 0
202 148 201 0
150 148 202 0
203 150 202 0
152 150 203 0
204 152 203 0
154 152 204 0
156 154 204 0
205 156 204 0
206 205 204 0
156 205 157 0
147 207 200 0
158 207 147 0
209 208 210 0
208 211 210 0
210 211 212 0
211 213 212 0
212 213 214 0
213 206 214 0
213 160 206 0
160 205 206 0
161 205 160 0
161 157 205 0
216 162 215 0
163 162 216 0
164 163 216 0
217 164 216 0
218 217 216 0
207 167 219 0
158 167 207 0
217 166 164 0
219 167 168 0
209 219 168 0
208 209 168 0
168 211 208 0
169 211 168 0
169 213 211 0
170 213 169 0
170 160 213 0
215 172 220 0
162 172 215 0
220 172 174 0
218 220 174 0
217 218 174 0
174 166 217 0
222 178 221 0
179 178 222 0
223 179 222 0
181 179 223 0
181 223 225 0
182 181 225 0
224 182 225 0
226 224 225 0
185 184 227 0
228 221 178 0
228 178 185 0
228 185 227 0
188 182 229 0
229 182 224 0
226 229 224 0
230 229 226 0
191 190 231 0
231 232 227 0
191 231 227 0
184 191 227 0
227 232 233 0
227 233 234 0
227 234 228 0
233 235 234 0
234 235 236 0
236 229 237 0
236 188 229 0
235 188 236 0
194 188 235 0
229 230 237 0
231 190 196 0
196 232 231 0
197 232 196 0
197 233 232 0
198 233 197 0
198 235 233 0
199 235 198 0
199 194 235 0
239 200 238 0
201 200 239 0
202 201 239 0
240 202 239 0
241 240 239 0
240 203 202 0
242 203 240 0
204 242 243 0
203 242 204 0
204 243 206 0
238 200 207 0
245 238 207 0
244 245 207 0
244 241 245 0
244 209 241 0
209 240 241 0
210 240 209 0
210 242 240 0
212 242 210 0
212 243 242 0
214 243 212 0
214 206 243 0
216 215 246 0
216 246 218 0
244 207 219 0
219 209 244 0
246 215 220 0
220 218 246 0
222 221 247 0
223 247 248 0
222 247 223 0
225 248 249 0
223 248 225 0
225 249 226 0
250 221 228 0
247 221 250 0
250 248 247 0
251 248 250 0
251 249 248 0
252 249 251 0
249 230 226 0
252 230 249 0
250 228 234 0
234 251 250 0
236 251 234 0
236 252 251 0
237 252 236 0
237 230 252 0
239 238 253 0
239 253 241 0
253 238 245 0
245 241 253 0
