#!ascii version of
3766 7528
545 673 677 0
543 673 545 0
674 679 675 0
678 679 674 0
680 674 676 0
678 674 680 0
544 546 676 0
676 546 680 0
547 677 681 0
545 677 547 0
679 678 682 0
680 682 678 0
680 683 682 0
549 683 680 0
548 683 549 0
680 546 549 0
550 681 684 0
547 681 550 0
548 685 683 0
552 685 548 0
553 684 686 0
550 684 553 0
685 554 687 0
552 554 685 0
687 554 688 0
688 554 555 0
556 686 689 0
553 686 556 0
688 557 690 0
555 557 688 0
690 557 691 0
691 557 558 0
559 556 689 0
559 689 693 0
559 693 692 0
694 692 693 0
691 561 695 0
558 561 691 0
695 561 696 0
696 561 562 0
563 559 692 0
694 697 564 0
692 694 564 0
563 692 564 0
696 562 566 0
699 696 566 0
698 699 566 0
699 698 700 0
702 701 703 0
701 704 703 0
703 704 705 0
569 564 697 0
704 569 697 0
705 704 697 0
698 566 570 0
570 571 706 0
698 570 706 0
700 698 706 0
706 572 707 0
571 572 706 0
707 573 708 0
572 573 707 0
708 573 709 0
709 573 575 0
702 711 701 0
701 711 710 0
710 704 701 0
712 704 710 0
704 583 569 0
712 583 704 0
709 584 713 0
575 584 709 0
713 585 714 0
584 585 713 0
714 586 715 0
585 586 714 0
715 587 716 0
586 587 715 0
718 716 587 0
718 587 589 0
718 589 717 0
717 719 718 0
718 719 720 0
720 719 721 0
711 723 710 0
710 723 722 0
722 712 710 0
724 712 722 0
712 596 583 0
724 596 712 0
717 589 597 0
597 719 717 0
598 719 597 0
598 599 725 0
719 598 725 0
721 719 725 0
725 600 726 0
599 600 725 0
726 601 727 0
600 601 726 0
727 602 728 0
601 602 727 0
728 602 603 0
723 728 603 0
722 723 603 0
603 724 722 0
604 724 603 0
604 596 724 0
731 729 730 0
731 732 729 0
733 732 731 0
733 734 732 0
735 734 733 0
735 736 607 0
734 735 607 0
606 734 607 0
737 607 736 0
609 607 737 0
609 737 739 0
610 609 739 0
738 610 739 0
740 738 739 0
729 742 730 0
741 742 729 0
743 729 732 0
741 729 743 0
744 732 734 0
743 732 744 0
606 612 734 0
734 612 744 0
613 610 738 0
745 614 613 0
745 613 738 0
745 738 740 0
746 614 745 0
616 614 746 0
747 616 746 0
617 616 747 0
741 749 742 0
748 749 741 0
748 741 743 0
748 743 620 0
748 620 619 0
743 744 620 0
620 744 621 0
744 612 621 0
623 747 750 0
617 747 623 0
625 751 749 0
626 625 749 0
748 626 749 0
748 619 626 0
628 750 752 0
623 750 628 0
755 753 754 0
755 756 753 0
757 756 755 0
757 758 631 0
756 757 631 0
630 756 631 0
631 758 625 0
625 758 751 0
634 752 759 0
628 752 634 0
762 760 761 0
762 763 760 0
764 763 762 0
753 765 763 0
754 753 763 0
764 754 763 0
765 753 756 0
765 756 637 0
765 637 636 0
756 630 637 0
766 641 759 0
759 641 634 0
767 641 766 0
642 641 767 0
768 642 767 0
643 642 768 0
760 770 761 0
769 770 760 0
771 760 763 0
769 760 771 0
772 763 765 0
771 763 772 0
773 772 765 0
773 765 636 0
773 636 644 0
646 773 644 0
649 768 774 0
643 768 649 0
769 776 770 0
775 776 769 0
777 769 771 0
775 769 777 0
778 771 772 0
777 771 778 0
779 772 773 0
778 772 779 0
646 651 773 0
773 651 779 0
652 774 780 0
649 774 652 0
775 782 776 0
781 782 775 0
783 775 777 0
781 775 783 0
784 777 778 0
783 777 784 0
785 778 779 0
784 778 785 0
651 654 779 0
779 654 785 0
655 780 786 0
652 780 655 0
656 787 782 0
657 656 782 0
781 657 782 0
781 783 657 0
657 783 658 0
783 784 658 0
658 784 659 0
784 785 659 0
659 785 660 0
785 654 660 0
788 661 786 0
786 661 655 0
789 661 788 0
662 661 789 0
656 790 787 0
664 790 656 0
791 666 789 0
789 666 662 0
792 666 791 0
667 666 792 0
794 669 793 0
670 669 794 0
795 670 794 0
672 670 795 0
672 795 664 0
664 795 790 0
673 792 796 0
667 792 673 0
669 797 793 0
675 797 669 0
677 796 798 0
673 796 677 0
675 799 797 0
679 799 675 0
681 798 800 0
677 798 681 0
799 682 801 0
679 682 799 0
801 682 802 0
802 682 683 0
684 800 803 0
681 800 684 0
683 804 802 0
685 804 683 0
686 803 805 0
684 803 686 0
804 687 806 0
685 687 804 0
806 687 807 0
807 687 688 0
689 805 808 0
686 805 689 0
807 690 809 0
688 690 807 0
809 690 810 0
810 690 691 0
812 811 813 0
811 814 813 0
814 808 813 0
814 693 808 0
693 689 808 0
693 814 694 0
816 810 691 0
815 816 691 0
695 815 691 0
696 815 695 0
812 818 811 0
811 818 817 0
817 814 811 0
819 814 817 0
814 697 694 0
819 697 814 0
816 815 820 0
699 821 820 0
696 699 820 0
815 696 820 0
821 699 822 0
822 699 700 0
818 823 702 0
818 702 703 0
818 703 817 0
703 819 817 0
705 819 703 0
705 697 819 0
822 706 824 0
700 706 822 0
824 707 825 0
706 707 824 0
825 708 826 0
707 708 825 0
828 826 708 0
828 708 709 0
828 709 827 0
827 829 828 0
828 829 830 0
830 829 831 0
711 823 832 0
702 823 711 0
827 709 713 0
713 829 827 0
714 829 713 0
714 715 833 0
829 714 833 0
831 829 833 0
833 716 834 0
715 716 833 0
834 718 835 0
716 718 834 0
835 718 720 0
835 720 836 0
835 836 837 0
721 836 720 0
839 838 840 0
838 841 840 0
840 841 842 0
723 711 832 0
841 723 832 0
842 841 832 0
837 836 843 0
725 844 843 0
721 725 843 0
836 721 843 0
844 726 845 0
725 726 844 0
845 726 727 0
839 845 727 0
838 839 727 0
727 841 838 0
728 841 727 0
728 723 841 0
848 846 847 0
848 849 846 0
850 849 848 0
851 849 850 0
846 853 847 0
852 853 846 0
854 846 849 0
852 846 854 0
851 854 849 0
855 854 851 0
857 730 856 0
731 730 857 0
858 731 857 0
733 731 858 0
859 733 858 0
735 733 859 0
736 735 859 0
736 859 853 0
736 853 852 0
852 854 736 0
736 854 737 0
860 739 737 0
860 737 854 0
860 854 855 0
861 739 860 0
740 739 861 0
730 862 856 0
742 862 730 0
863 745 861 0
861 745 740 0
864 745 863 0
746 745 864 0
865 746 864 0
747 746 865 0
868 866 867 0
862 742 749 0
862 749 866 0
862 866 868 0
750 865 869 0
747 865 750 0
872 870 871 0
866 873 870 0
867 866 870 0
872 867 870 0
749 751 866 0
866 751 873 0
752 869 874 0
750 869 752 0
876 754 875 0
755 754 876 0
757 755 876 0
757 876 871 0
757 871 870 0
870 873 757 0
757 873 758 0
873 751 758 0
759 874 877 0
752 874 759 0
880 878 879 0
880 881 878 0
882 881 880 0
882 883 762 0
881 882 762 0
761 881 762 0
884 762 883 0
764 762 884 0
764 884 754 0
754 884 875 0
885 766 877 0
877 766 759 0
886 766 885 0
767 766 886 0
887 767 886 0
768 767 887 0
878 889 879 0
888 889 878 0
890 878 881 0
888 878 890 0
761 770 881 0
881 770 890 0
774 887 891 0
768 887 774 0
894 892 893 0
888 895 892 0
889 888 892 0
894 889 892 0
896 888 890 0
895 888 896 0
770 776 890 0
890 776 896 0
780 891 897 0
774 891 780 0
893 892 898 0
892 895 899 0
898 892 899 0
900 898 899 0
901 895 896 0
899 895 901 0
776 782 896 0
896 782 901 0
786 897 902 0
780 897 786 0
899 904 900 0
903 904 899 0
905 899 901 0
903 899 905 0
782 787 901 0
901 787 905 0
786 902 907 0
786 907 906 0
786 906 788 0
788 906 789 0
903 909 904 0
908 909 903 0
910 903 905 0
908 903 910 0
787 790 905 0
905 790 910 0
907 912 906 0
906 912 911 0
906 911 913 0
789 906 913 0
791 789 913 0
791 913 792 0
793 914 909 0
794 793 909 0
908 794 909 0
908 910 794 0
794 910 795 0
910 790 795 0
912 916 911 0
911 916 915 0
915 913 911 0
917 913 915 0
913 796 792 0
917 796 913 0
793 918 914 0
797 918 793 0
919 915 916 0
920 917 915 0
920 915 919 0
920 919 921 0
917 798 796 0
920 798 917 0
797 922 918 0
799 922 797 0
921 924 920 0
920 924 923 0
920 800 798 0
923 800 920 0
922 801 925 0
799 801 922 0
925 801 926 0
926 801 802 0
924 928 923 0
923 928 927 0
923 803 800 0
927 803 923 0
802 929 926 0
804 929 802 0
928 931 927 0
927 931 930 0
927 805 803 0
930 805 927 0
929 806 932 0
804 806 929 0
934 932 806 0
934 806 807 0
934 807 933 0
934 933 935 0
937 936 938 0
936 939 938 0
938 939 940 0
939 941 940 0
940 941 942 0
941 943 942 0
942 943 944 0
943 945 944 0
944 945 946 0
945 947 930 0
945 930 931 0
945 931 946 0
930 808 805 0
947 808 930 0
933 807 809 0
810 948 935 0
810 935 933 0
810 933 809 0
937 950 936 0
936 950 949 0
949 939 936 0
951 939 949 0
951 941 939 0
952 941 951 0
952 943 941 0
953 943 952 0
953 945 943 0
954 945 953 0
947 945 954 0
813 947 954 0
812 813 954 0
813 808 947 0
948 810 816 0
956 948 816 0
955 956 816 0
956 955 957 0
950 959 949 0
949 959 958 0
958 951 949 0
960 951 958 0
960 952 951 0
961 952 960 0
961 953 952 0
962 953 961 0
962 954 953 0
963 954 962 0
954 818 812 0
963 818 954 0
955 816 820 0
957 964 965 0
957 821 964 0
955 821 957 0
820 821 955 0
822 964 821 0
959 967 958 0
958 967 966 0
966 960 958 0
968 960 966 0
968 961 960 0
969 961 968 0
969 962 961 0
970 962 969 0
970 963 962 0
971 963 970 0
963 823 818 0
971 823 963 0
965 964 972 0
824 973 972 0
822 824 972 0
964 822 972 0
973 825 974 0
824 825 973 0
974 826 975 0
825 826 974 0
975 828 976 0
826 828 975 0
976 830 977 0
828 830 976 0
979 977 830 0
979 830 831 0
979 831 978 0
978 980 979 0
979 980 981 0
980 982 981 0
981 982 983 0
982 984 966 0
982 966 967 0
982 967 983 0
984 968 966 0
985 968 984 0
985 969 968 0
986 969 985 0
986 970 969 0
987 970 986 0
987 971 970 0
988 971 987 0
971 832 823 0
988 832 971 0
978 831 833 0
833 980 978 0
834 980 833 0
834 982 980 0
835 982 834 0
989 984 982 0
837 989 982 0
835 837 982 0
989 985 984 0
990 985 989 0
990 986 985 0
991 986 990 0
987 986 991 0
840 987 991 0
839 840 991 0
840 988 987 0
842 988 840 0
842 832 988 0
989 837 843 0
843 990 989 0
844 990 843 0
844 991 990 0
845 991 844 0
845 839 991 0
994 992 993 0
994 995 848 0
992 994 848 0
847 992 848 0
996 848 995 0
850 848 996 0
997 850 996 0
851 850 997 0
1000 998 999 0
1000 1001 998 0
1002 1001 1000 0
992 1003 1001 0
993 992 1001 0
1002 993 1001 0
847 853 992 0
992 853 1003 0
855 997 1004 0
851 997 855 0
856 1005 999 0
857 856 999 0
998 857 999 0
998 1001 857 0
857 1001 858 0
1001 1003 858 0
858 1003 859 0
1003 853 859 0
1006 860 1004 0
1004 860 855 0
1007 860 1006 0
861 860 1007 0
856 1008 1005 0
862 1008 856 0
1009 863 1007 0
1007 863 861 0
1010 863 1009 0
864 863 1010 0
1011 864 1010 0
865 864 1011 0
1014 1012 1013 0
1014 1015 868 0
1012 1014 868 0
867 1012 868 0
868 1015 862 0
862 1015 1008 0
869 1011 1016 0
865 1011 869 0
871 1017 1013 0
872 871 1013 0
1012 872 1013 0
1012 867 872 0
874 1016 1018 0
869 1016 874 0
1021 1019 1020 0
1021 1022 1019 0
1023 1022 1021 0
1023 1024 1022 0
1025 1024 1023 0
1025 1026 1024 0
1027 1026 1025 0
1027 1028 876 0
1026 1027 876 0
875 1026 876 0
876 1028 871 0
871 1028 1017 0
877 874 1018 0
877 1018 1030 0
877 1030 1029 0
1031 1029 1030 0
879 1032 1020 0
880 879 1020 0
1019 880 1020 0
1019 1022 880 0
880 1022 882 0
1022 1024 882 0
882 1024 883 0
1024 1026 883 0
883 1026 884 0
1026 875 884 0
885 877 1029 0
1033 886 885 0
1033 885 1029 0
1033 1029 1031 0
1034 886 1033 0
887 886 1034 0
879 1035 1032 0
889 1035 879 0
891 1034 1036 0
887 1034 891 0
1038 893 1037 0
894 893 1038 0
894 1038 889 0
889 1038 1035 0
897 1036 1039 0
891 1036 897 0
1041 1037 893 0
1040 1041 893 0
898 1040 893 0
900 1040 898 0
902 1039 1042 0
897 1039 902 0
1040 1044 1041 0
1043 1044 1040 0
900 904 1040 0
1040 904 1043 0
907 1042 1045 0
902 1042 907 0
1043 1047 1044 0
1046 1047 1043 0
904 909 1043 0
1043 909 1046 0
912 1045 1048 0
907 1045 912 0
1046 1050 1047 0
1049 1050 1046 0
909 914 1046 0
1046 914 1049 0
916 1048 1051 0
912 1048 916 0
1049 1053 1050 0
1052 1053 1049 0
914 918 1049 0
1049 918 1052 0
1054 919 1051 0
1051 919 916 0
1055 919 1054 0
921 919 1055 0
1053 1052 1056 0
918 922 1057 0
918 1057 1056 0
918 1056 1052 0
924 1055 1058 0
921 1055 924 0
1057 925 1059 0
922 925 1057 0
1059 925 1060 0
1060 925 926 0
928 1058 1061 0
924 1058 928 0
926 1062 1060 0
929 1062 926 0
931 1061 1063 0
928 1061 931 0
1062 932 1064 0
929 932 1062 0
1064 934 1065 0
932 934 1064 0
1065 934 1066 0
1066 934 935 0
1067 937 1068 0
1068 937 938 0
1068 940 1069 0
938 940 1068 0
1069 942 1070 0
940 942 1069 0
1070 944 1071 0
942 944 1070 0
1071 946 1072 0
944 946 1071 0
931 1072 946 0
1063 1072 931 0
935 1073 1066 0
948 1073 935 0
1075 1074 1076 0
1074 1077 1076 0
1076 1077 1078 0
1077 1079 1078 0
1078 1079 1080 0
1079 1081 1080 0
1080 1081 1082 0
950 937 1067 0
1081 950 1067 0
1082 1081 1067 0
1073 956 1083 0
948 956 1073 0
1085 1083 956 0
1085 956 957 0
1085 957 1084 0
1084 1086 1085 0
1085 1086 1087 0
1086 1088 1087 0
1087 1088 1089 0
1088 1090 1089 0
1089 1090 1091 0
1090 1092 1091 0
1091 1092 1093 0
1092 1094 1074 0
1092 1074 1075 0
1092 1075 1093 0
1094 1077 1074 0
1095 1077 1094 0
1095 1079 1077 0
1096 1079 1095 0
1096 1081 1079 0
1097 1081 1096 0
1081 959 950 0
1097 959 1081 0
1098 957 965 0
1084 957 1098 0
1098 1086 1084 0
1099 1086 1098 0
1099 1088 1086 0
1100 1088 1099 0
1100 1090 1088 0
1101 1090 1100 0
1101 1092 1090 0
1102 1092 1101 0
1102 1094 1092 0
1103 1094 1102 0
1103 1095 1094 0
1104 1095 1103 0
1104 1096 1095 0
1105 1096 1104 0
1105 1097 1096 0
1106 1097 1105 0
1097 967 959 0
1106 967 1097 0
1098 965 972 0
972 1099 1098 0
973 1099 972 0
973 1100 1099 0
974 1100 973 0
974 1101 1100 0
975 1101 974 0
975 1102 1101 0
976 1102 975 0
976 1103 1102 0
977 1103 976 0
977 1104 1103 0
979 1104 977 0
979 1105 1104 0
981 1105 979 0
981 1106 1105 0
983 1106 981 0
983 967 1106 0
1108 993 1107 0
994 993 1108 0
1109 994 1108 0
995 994 1109 0
1110 995 1109 0
996 995 1110 0
1111 996 1110 0
997 996 1111 0
1114 1112 1113 0
1114 1115 1112 0
1116 1115 1114 0
1116 1117 1000 0
1115 1116 1000 0
999 1115 1000 0
1118 1000 1117 0
1002 1000 1118 0
1002 1118 993 0
993 1118 1107 0
1004 1111 1119 0
997 1111 1004 0
1112 1121 1113 0
1120 1121 1112 0
1122 1112 1115 0
1120 1112 1122 0
999 1005 1115 0
1115 1005 1122 0
1123 1006 1119 0
1119 1006 1004 0
1124 1006 1123 0
1007 1006 1124 0
1120 1126 1121 0
1125 1126 1120 0
1127 1120 1122 0
1125 1120 1127 0
1005 1008 1122 0
1122 1008 1127 0
1128 1009 1124 0
1124 1009 1007 0
1129 1009 1128 0
1010 1009 1129 0
1130 1010 1129 0
1011 1010 1130 0
1013 1131 1126 0
1014 1013 1126 0
1125 1014 1126 0
1125 1127 1014 0
1014 1127 1015 0
1127 1008 1015 0
1016 1130 1132 0
1011 1130 1016 0
1013 1133 1131 0
1017 1133 1013 0
1018 1132 1134 0
1016 1132 1018 0
1136 1020 1135 0
1021 1020 1136 0
1137 1021 1136 0
1023 1021 1137 0
1138 1023 1137 0
1025 1023 1138 0
1139 1025 1138 0
1027 1025 1139 0
1140 1027 1139 0
1028 1027 1140 0
1028 1140 1017 0
1017 1140 1133 0
1141 1030 1134 0
1134 1030 1018 0
1030 1141 1143 0
1031 1030 1143 0
1142 1031 1143 0
1144 1142 1143 0
1020 1145 1135 0
1032 1145 1020 0
1033 1031 1142 0
1144 1146 1034 0
1142 1144 1034 0
1033 1142 1034 0
1032 1147 1145 0
1035 1147 1032 0
1036 1146 1148 0
1034 1146 1036 0
1150 1037 1149 0
1038 1037 1150 0
1038 1150 1035 0
1035 1150 1147 0
1039 1148 1151 0
1036 1148 1039 0
1037 1152 1149 0
1041 1152 1037 0
1042 1151 1153 0
1039 1151 1042 0
1041 1154 1152 0
1044 1154 1041 0
1156 1155 1157 0
1045 1042 1153 0
1155 1045 1153 0
1157 1155 1153 0
1044 1158 1154 0
1047 1158 1044 0
1156 1160 1155 0
1155 1160 1159 0
1155 1048 1045 0
1159 1048 1155 0
1047 1161 1158 0
1050 1161 1047 0
1160 1163 1159 0
1159 1163 1162 0
1159 1051 1048 0
1162 1051 1159 0
1050 1164 1161 0
1053 1164 1050 0
1163 1166 1162 0
1162 1166 1165 0
1162 1165 1167 0
1051 1162 1167 0
1054 1051 1167 0
1054 1167 1055 0
1164 1056 1168 0
1053 1056 1164 0
1170 1168 1056 0
1170 1056 1057 0
1170 1057 1169 0
1170 1169 1171 0
1166 1173 1165 0
1165 1173 1172 0
1172 1167 1165 0
1174 1167 1172 0
1167 1058 1055 0
1174 1058 1167 0
1169 1057 1059 0
1060 1175 1171 0
1060 1171 1169 0
1060 1169 1059 0
1173 1177 1172 0
1172 1177 1176 0
1176 1174 1172 0
1178 1174 1176 0
1174 1061 1058 0
1178 1061 1174 0
1060 1179 1175 0
1062 1179 1060 0
1181 1180 1182 0
1180 1183 1182 0
1182 1183 1184 0
1183 1185 1184 0
1184 1185 1186 0
1185 1187 1176 0
1185 1176 1177 0
1185 1177 1186 0
1187 1178 1176 0
1188 1178 1187 0
1178 1063 1061 0
1188 1063 1178 0
1179 1064 1189 0
1062 1064 1179 0
1189 1065 1190 0
1064 1065 1189 0
1190 1065 1191 0
1191 1065 1066 0
1181 1192 1067 0
1181 1067 1068 0
1181 1068 1180 0
1068 1183 1180 0
1069 1183 1068 0
1069 1185 1183 0
1070 1185 1069 0
1070 1187 1185 0
1071 1187 1070 0
1071 1188 1187 0
1072 1188 1071 0
1072 1063 1188 0
1191 1066 1073 0
1194 1191 1073 0
1193 1194 1073 0
1193 1195 1194 0
1194 1195 1196 0
1196 1195 1197 0
1198 1075 1199 0
1199 1075 1076 0
1199 1078 1200 0
1076 1078 1199 0
1200 1080 1201 0
1078 1080 1200 0
1201 1082 1202 0
1080 1082 1201 0
1067 1202 1082 0
1192 1202 1067 0
1193 1073 1083 0
1083 1195 1193 0
1085 1195 1083 0
1197 1203 1204 0
1197 1087 1203 0
1195 1087 1197 0
1085 1087 1195 0
1205 1203 1089 0
1089 1203 1087 0
1206 1205 1091 0
1091 1205 1089 0
1207 1206 1093 0
1093 1206 1091 0
1075 1198 1208 0
1093 1075 1208 0
1207 1093 1208 0
1204 1203 1209 0
1203 1210 1209 0
1205 1210 1203 0
1205 1211 1210 0
1206 1211 1205 0
1206 1212 1211 0
1207 1212 1206 0
1207 1208 1212 0
1215 1213 1214 0
1215 1216 1213 0
1217 1216 1215 0
1217 1218 1216 0
1219 1218 1217 0
1220 1218 1219 0
1223 1221 1222 0
1223 1224 1221 0
1225 1224 1223 0
1213 1226 1224 0
1214 1213 1224 0
1225 1214 1224 0
1226 1213 1216 0
1226 1216 1108 0
1226 1108 1107 0
1216 1218 1108 0
1108 1218 1109 0
1109 1227 1110 0
1109 1228 1227 0
1218 1228 1109 0
1220 1228 1218 0
1110 1227 1111 0
1230 1113 1229 0
1114 1113 1230 0
1116 1114 1230 0
1116 1230 1222 0
1116 1222 1221 0
1221 1224 1116 0
1116 1224 1117 0
1224 1226 1117 0
1117 1226 1118 0
1226 1107 1118 0
1228 1232 1227 0
1227 1232 1231 0
1227 1119 1111 0
1231 1119 1227 0
1113 1233 1229 0
1121 1233 1113 0
1234 1231 1232 0
1234 1235 1123 0
1234 1123 1119 0
1234 1119 1231 0
1123 1235 1237 0
1124 1123 1237 0
1236 1124 1237 0
1238 1236 1237 0
1241 1239 1240 0
1233 1121 1126 0
1233 1126 1239 0
1233 1239 1241 0
1128 1124 1236 0
1242 1129 1128 0
1242 1128 1236 0
1242 1236 1238 0
1243 1129 1242 0
1130 1129 1243 0
1246 1244 1245 0
1246 1247 1244 0
1248 1247 1246 0
1239 1249 1247 0
1240 1239 1247 0
1248 1240 1247 0
1126 1131 1239 0
1239 1131 1249 0
1132 1243 1250 0
1130 1243 1132 0
1244 1252 1245 0
1251 1252 1244 0
1253 1244 1247 0
1251 1244 1253 0
1254 1247 1249 0
1253 1247 1254 0
1131 1133 1249 0
1249 1133 1254 0
1134 1250 1255 0
1132 1250 1134 0
1257 1135 1256 0
1136 1135 1257 0
1258 1136 1257 0
1137 1136 1258 0
1138 1137 1258 0
1138 1258 1252 0
1138 1252 1251 0
1251 1253 1138 0
1138 1253 1139 0
1253 1254 1139 0
1139 1254 1140 0
1254 1133 1140 0
1259 1141 1255 0
1255 1141 1134 0
1143 1141 1259 0
1260 1143 1259 0
1261 1260 1259 0
1143 1260 1144 0
1264 1262 1263 0
1256 1135 1145 0
1256 1145 1262 0
1256 1262 1264 0
1261 1266 1260 0
1260 1266 1265 0
1260 1146 1144 0
1265 1146 1260 0
1262 1268 1263 0
1267 1268 1262 0
1145 1147 1262 0
1262 1147 1267 0
1266 1270 1265 0
1265 1270 1269 0
1265 1148 1146 0
1269 1148 1265 0
1149 1271 1268 0
1150 1149 1268 0
1267 1150 1268 0
1267 1147 1150 0
1270 1273 1269 0
1269 1273 1272 0
1269 1151 1148 0
1272 1151 1269 0
1276 1274 1275 0
1271 1149 1152 0
1271 1152 1274 0
1271 1274 1276 0
1273 1278 1272 0
1272 1278 1277 0
1272 1153 1151 0
1277 1153 1272 0
1274 1280 1275 0
1279 1280 1274 0
1152 1154 1274 0
1274 1154 1279 0
1278 1281 1156 0
1278 1156 1157 0
1278 1157 1277 0
1157 1153 1277 0
1279 1283 1280 0
1282 1283 1279 0
1154 1158 1279 0
1279 1158 1282 0
1160 1281 1284 0
1156 1281 1160 0
1282 1286 1283 0
1285 1286 1282 0
1158 1161 1282 0
1282 1161 1285 0
1163 1284 1287 0
1160 1284 1163 0
1286 1285 1288 0
1290 1288 1289 0
1288 1164 1289 0
1288 1285 1164 0
1285 1161 1164 0
1290 1289 1291 0
1166 1287 1292 0
1163 1287 1166 0
1289 1164 1168 0
1168 1170 1293 0
1289 1168 1293 0
1291 1289 1293 0
1293 1170 1294 0
1294 1170 1171 0
1173 1292 1295 0
1166 1292 1173 0
1171 1296 1294 0
1175 1296 1171 0
1177 1295 1297 0
1173 1295 1177 0
1175 1298 1296 0
1179 1298 1175 0
1299 1181 1182 0
1300 1299 1184 0
1184 1299 1182 0
1184 1186 1302 0
1184 1302 1301 0
1184 1301 1300 0
1177 1302 1186 0
1297 1302 1177 0
1298 1189 1303 0
1179 1189 1298 0
1303 1190 1304 0
1189 1190 1303 0
1304 1190 1305 0
1305 1190 1191 0
1306 1192 1181 0
1306 1181 1299 0
1306 1299 1307 0
1299 1308 1307 0
1300 1308 1299 0
1300 1301 1308 0
1305 1194 1309 0
1191 1194 1305 0
1309 1196 1310 0
1194 1196 1309 0
1310 1196 1311 0
1311 1196 1197 0
1312 1198 1199 0
1313 1312 1200 0
1200 1312 1199 0
1200 1201 1315 0
1200 1315 1314 0
1200 1314 1313 0
1315 1202 1316 0
1201 1202 1315 0
1192 1316 1202 0
1306 1316 1192 0
1197 1317 1311 0
1204 1317 1197 0
1208 1198 1318 0
1318 1198 1312 0
1318 1312 1313 0
1319 1318 1313 0
1320 1319 1313 0
1313 1314 1320 0
1317 1209 1321 0
1204 1209 1317 0
1321 1210 1322 0
1209 1210 1321 0
1322 1211 1323 0
1210 1211 1322 0
1323 1212 1324 0
1211 1212 1323 0
1325 1324 1212 0
1318 1325 1212 0
1208 1318 1212 0
1318 1319 1325 0
1328 1326 1327 0
1328 1329 1215 0
1326 1328 1215 0
1214 1326 1215 0
1330 1215 1329 0
1217 1215 1330 0
1331 1217 1330 0
1219 1217 1331 0
1332 1219 1331 0
1220 1219 1332 0
1335 1333 1334 0
1335 1336 1223 0
1333 1335 1223 0
1222 1333 1223 0
1225 1223 1336 0
1225 1336 1327 0
1225 1327 1326 0
1326 1214 1225 0
1228 1332 1337 0
1220 1332 1228 0
1229 1338 1334 0
1230 1229 1334 0
1333 1230 1334 0
1333 1222 1230 0
1232 1228 1337 0
1232 1337 1340 0
1232 1340 1339 0
1341 1339 1340 0
1229 1342 1338 0
1233 1342 1229 0
1234 1232 1339 0
1343 1235 1234 0
1343 1234 1339 0
1343 1339 1341 0
1344 1235 1343 0
1237 1235 1344 0
1345 1237 1344 0
1238 1237 1345 0
1348 1346 1347 0
1348 1349 1241 0
1346 1348 1241 0
1240 1346 1241 0
1241 1349 1233 0
1233 1349 1342 0
1238 1345 1351 0
1238 1351 1350 0
1238 1350 1242 0
1242 1350 1243 0
1353 1245 1352 0
1246 1245 1353 0
1248 1246 1353 0
1248 1353 1347 0
1248 1347 1346 0
1346 1240 1248 0
1354 1350 1351 0
1355 1250 1243 0
1354 1355 1243 0
1350 1354 1243 0
1245 1356 1352 0
1252 1356 1245 0
1255 1355 1357 0
1250 1355 1255 0
1360 1358 1359 0
1360 1361 1257 0
1358 1360 1257 0
1256 1358 1257 0
1362 1257 1361 0
1258 1257 1362 0
1258 1362 1252 0
1252 1362 1356 0
1363 1259 1357 0
1357 1259 1255 0
1364 1259 1363 0
1261 1259 1364 0
1263 1365 1359 0
1264 1263 1359 0
1358 1264 1359 0
1358 1256 1264 0
1266 1364 1366 0
1261 1364 1266 0
1369 1367 1368 0
1365 1263 1268 0
1365 1268 1367 0
1365 1367 1369 0
1270 1366 1370 0
1266 1366 1270 0
1367 1372 1368 0
1371 1372 1367 0
1268 1271 1367 0
1367 1271 1371 0
1273 1370 1373 0
1270 1370 1273 0
1275 1374 1372 0
1276 1275 1372 0
1371 1276 1372 0
1371 1271 1276 0
1278 1373 1375 0
1273 1373 1278 0
1275 1376 1374 0
1280 1376 1275 0
1281 1375 1377 0
1278 1375 1281 0
1280 1378 1376 0
1283 1378 1280 0
1284 1377 1379 0
1281 1377 1284 0
1378 1283 1286 0
1381 1378 1286 0
1380 1381 1286 0
1381 1380 1382 0
1287 1379 1383 0
1284 1379 1287 0
1380 1286 1288 0
1382 1384 1385 0
1382 1290 1384 0
1380 1290 1382 0
1288 1290 1380 0
1291 1384 1290 0
1292 1383 1386 0
1287 1383 1292 0
1384 1388 1385 0
1387 1388 1384 0
1389 1387 1384 0
1389 1384 1291 0
1389 1291 1293 0
1294 1389 1293 0
1295 1386 1390 0
1292 1386 1295 0
1387 1392 1388 0
1391 1392 1387 0
1393 1387 1389 0
1391 1387 1393 0
1294 1296 1389 0
1389 1296 1393 0
1297 1390 1394 0
1295 1390 1297 0
1392 1391 1395 0
1391 1396 1395 0
1393 1396 1391 0
1296 1298 1397 0
1296 1397 1396 0
1296 1396 1393 0
1398 1301 1399 0
1399 1301 1302 0
1297 1399 1302 0
1394 1399 1297 0
1397 1303 1400 0
1298 1303 1397 0
1400 1304 1401 0
1303 1304 1400 0
1401 1304 1402 0
1402 1304 1305 0
1403 1306 1307 0
1404 1403 1308 0
1308 1403 1307 0
1301 1398 1405 0
1308 1301 1405 0
1404 1308 1405 0
1402 1309 1406 0
1305 1309 1402 0
1406 1309 1310 0
1406 1310 1407 0
1406 1407 1408 0
1311 1407 1310 0
1409 1314 1315 0
1410 1409 1316 0
1316 1409 1315 0
1403 1411 1410 0
1403 1410 1316 0
1403 1316 1306 0
1412 1403 1404 0
1411 1403 1412 0
1405 1412 1404 0
1413 1412 1405 0
1408 1407 1414 0
1416 1414 1415 0
1414 1317 1415 0
1414 1407 1317 0
1407 1311 1317 0
1415 1417 1416 0
1416 1417 1418 0
1417 1419 1418 0
1418 1419 1420 0
1419 1421 1420 0
1420 1421 1422 0
1421 1423 1422 0
1422 1423 1424 0
1320 1425 1424 0
1320 1424 1423 0
1320 1423 1319 0
1426 1425 1320 0
1409 1426 1320 0
1314 1409 1320 0
1409 1427 1426 0
1410 1427 1409 0
1410 1428 1427 0
1411 1428 1410 0
1411 1429 1428 0
1412 1429 1411 0
1412 1413 1429 0
1415 1317 1321 0
1321 1417 1415 0
1322 1417 1321 0
1322 1419 1417 0
1323 1419 1322 0
1323 1421 1419 0
1324 1421 1323 0
1324 1423 1421 0
1325 1423 1324 0
1325 1319 1423 0
1432 1430 1431 0
1432 1433 1430 0
1434 1433 1432 0
1435 1433 1434 0
1438 1436 1437 0
1438 1439 1328 0
1436 1438 1328 0
1327 1436 1328 0
1440 1328 1439 0
1329 1328 1440 0
1330 1329 1440 0
1330 1440 1431 0
1330 1431 1430 0
1430 1433 1330 0
1330 1433 1331 0
1435 1441 1332 0
1433 1435 1332 0
1331 1433 1332 0
1443 1334 1442 0
1335 1334 1443 0
1336 1335 1443 0
1336 1443 1437 0
1336 1437 1436 0
1436 1327 1336 0
1337 1441 1444 0
1332 1441 1337 0
1447 1445 1446 0
1442 1334 1338 0
1442 1338 1445 0
1442 1445 1447 0
1448 1340 1444 0
1444 1340 1337 0
1449 1340 1448 0
1341 1340 1449 0
1452 1450 1451 0
1445 1453 1450 0
1446 1445 1450 0
1452 1446 1450 0
1338 1342 1445 0
1445 1342 1453 0
1454 1343 1449 0
1449 1343 1341 0
1455 1343 1454 0
1344 1343 1455 0
1456 1344 1455 0
1345 1344 1456 0
1459 1457 1458 0
1459 1460 1457 0
1461 1460 1459 0
1451 1460 1461 0
1451 1450 1460 0
1450 1347 1460 0
1348 1347 1450 0
1450 1453 1348 0
1348 1453 1349 0
1453 1342 1349 0
1351 1345 1456 0
1351 1456 1463 0
1351 1463 1462 0
1464 1462 1463 0
1457 1466 1458 0
1465 1466 1457 0
1465 1457 1460 0
1465 1460 1353 0
1465 1353 1352 0
1460 1347 1353 0
1354 1351 1462 0
1464 1467 1355 0
1462 1464 1355 0
1354 1462 1355 0
1470 1468 1469 0
1470 1471 1468 0
1472 1471 1470 0
1465 1473 1471 0
1466 1465 1471 0
1472 1466 1471 0
1352 1356 1465 0
1465 1356 1473 0
1357 1467 1474 0
1355 1467 1357 0
1359 1475 1469 0
1360 1359 1469 0
1468 1360 1469 0
1468 1471 1360 0
1360 1471 1361 0
1471 1473 1361 0
1361 1473 1362 0
1473 1356 1362 0
1476 1363 1474 0
1474 1363 1357 0
1477 1363 1476 0
1364 1363 1477 0
1480 1478 1479 0
1475 1359 1365 0
1475 1365 1478 0
1475 1478 1480 0
1366 1477 1481 0
1364 1477 1366 0
1368 1482 1479 0
1369 1368 1479 0
1478 1369 1479 0
1478 1365 1369 0
1370 1481 1483 0
1366 1481 1370 0
1368 1484 1482 0
1372 1484 1368 0
1373 1483 1485 0
1370 1483 1373 0
1372 1486 1484 0
1374 1486 1372 0
1375 1485 1487 0
1373 1485 1375 0
1374 1488 1486 0
1376 1488 1374 0
1377 1487 1489 0
1375 1487 1377 0
1492 1490 1491 0
1488 1376 1378 0
1488 1378 1490 0
1488 1490 1492 0
1379 1489 1493 0
1377 1489 1379 0
1490 1495 1491 0
1494 1495 1490 0
1496 1494 1490 0
1496 1490 1378 0
1496 1378 1381 0
1382 1496 1381 0
1383 1493 1497 0
1379 1493 1383 0
1494 1499 1495 0
1498 1499 1494 0
1500 1494 1496 0
1498 1494 1500 0
1382 1385 1496 0
1496 1385 1500 0
1386 1497 1501 0
1383 1497 1386 0
1498 1503 1499 0
1502 1503 1498 0
1504 1498 1500 0
1502 1498 1504 0
1385 1388 1500 0
1500 1388 1504 0
1390 1501 1505 0
1386 1501 1390 0
1502 1507 1503 0
1506 1507 1502 0
1508 1502 1504 0
1506 1502 1508 0
1388 1392 1504 0
1504 1392 1508 0
1394 1505 1509 0
1390 1505 1394 0
1507 1506 1510 0
1506 1511 1510 0
1508 1511 1506 0
1395 1512 1511 0
1392 1395 1511 0
1508 1392 1511 0
1512 1396 1513 0
1395 1396 1512 0
1513 1396 1514 0
1514 1396 1397 0
1515 1398 1399 0
1394 1509 1516 0
1399 1394 1516 0
1515 1399 1516 0
1514 1400 1517 0
1397 1400 1514 0
1517 1401 1518 0
1400 1401 1517 0
1518 1401 1519 0
1519 1401 1402 0
1405 1398 1520 0
1520 1398 1515 0
1516 1520 1515 0
1521 1520 1516 0
1519 1406 1522 0
1402 1406 1519 0
1522 1406 1523 0
1523 1406 1408 0
1413 1405 1524 0
1524 1405 1520 0
1521 1524 1520 0
1525 1524 1521 0
1523 1414 1526 0
1408 1414 1523 0
1526 1416 1527 0
1414 1416 1526 0
1527 1418 1528 0
1416 1418 1527 0
1528 1420 1529 0
1418 1420 1528 0
1529 1422 1530 0
1420 1422 1529 0
1530 1424 1531 0
1422 1424 1530 0
1531 1425 1532 0
1424 1425 1531 0
1532 1426 1533 0
1425 1426 1532 0
1533 1427 1534 0
1426 1427 1533 0
1534 1428 1535 0
1427 1428 1534 0
1535 1429 1536 0
1428 1429 1535 0
1537 1536 1429 0
1524 1537 1429 0
1413 1524 1429 0
1524 1525 1537 0
1540 1538 1539 0
1540 1541 1432 0
1538 1540 1432 0
1431 1538 1432 0
1542 1432 1541 0
1434 1432 1542 0
1543 1434 1542 0
1435 1434 1543 0
1546 1544 1545 0
1546 1547 1438 0
1544 1546 1438 0
1437 1544 1438 0
1548 1438 1547 0
1439 1438 1548 0
1440 1439 1548 0
1440 1548 1539 0
1440 1539 1538 0
1538 1431 1440 0
1441 1543 1549 0
1435 1543 1441 0
1442 1550 1545 0
1443 1442 1545 0
1544 1443 1545 0
1544 1437 1443 0
1444 1549 1551 0
1441 1549 1444 0
1553 1446 1552 0
1447 1446 1553 0
1447 1553 1442 0
1442 1553 1550 0
1554 1448 1551 0
1551 1448 1444 0
1555 1448 1554 0
1449 1448 1555 0
1557 1451 1556 0
1452 1451 1557 0
1452 1557 1446 0
1446 1557 1552 0
1558 1454 1555 0
1555 1454 1449 0
1559 1454 1558 0
1455 1454 1559 0
1560 1455 1559 0
1456 1455 1560 0
1563 1561 1562 0
1563 1564 1459 0
1561 1563 1459 0
1458 1561 1459 0
1565 1459 1564 0
1461 1459 1565 0
1461 1565 1451 0
1451 1565 1556 0
1566 1463 1560 0
1560 1463 1456 0
1567 1463 1566 0
1464 1463 1567 0
1561 1569 1562 0
1568 1569 1561 0
1458 1466 1561 0
1561 1466 1568 0
1467 1567 1570 0
1464 1567 1467 0
1573 1571 1572 0
1573 1574 1470 0
1571 1573 1470 0
1469 1571 1470 0
1472 1470 1574 0
1472 1574 1569 0
1472 1569 1568 0
1568 1466 1472 0
1474 1570 1575 0
1467 1570 1474 0
1571 1577 1572 0
1576 1577 1571 0
1469 1475 1571 0
1571 1475 1576 0
1578 1476 1575 0
1575 1476 1474 0
1579 1476 1578 0
1477 1476 1579 0
1582 1580 1581 0
1577 1580 1582 0
1577 1576 1580 0
1576 1479 1580 0
1480 1479 1576 0
1576 1475 1480 0
1481 1579 1583 0
1477 1579 1481 0
1580 1585 1581 0
1584 1585 1580 0
1479 1482 1580 0
1580 1482 1584 0
1483 1583 1586 0
1481 1583 1483 0
1584 1588 1585 0
1587 1588 1584 0
1482 1484 1584 0
1584 1484 1587 0
1485 1586 1589 0
1483 1586 1485 0
1587 1591 1588 0
1590 1591 1587 0
1484 1486 1587 0
1587 1486 1590 0
1487 1589 1592 0
1485 1589 1487 0
1590 1594 1591 0
1593 1594 1590 0
1486 1488 1590 0
1590 1488 1593 0
1489 1592 1595 0
1487 1592 1489 0
1491 1596 1594 0
1492 1491 1594 0
1593 1492 1594 0
1593 1488 1492 0
1493 1595 1597 0
1489 1595 1493 0
1491 1598 1596 0
1495 1598 1491 0
1497 1597 1599 0
1493 1597 1497 0
1495 1600 1598 0
1499 1600 1495 0
1501 1599 1601 0
1497 1599 1501 0
1499 1602 1600 0
1503 1602 1499 0
1505 1601 1603 0
1501 1601 1505 0
1503 1604 1602 0
1507 1604 1503 0
1509 1603 1605 0
1505 1603 1509 0
1607 1604 1507 0
1606 1607 1507 0
1510 1606 1507 0
1608 1606 1511 0
1511 1606 1510 0
1609 1608 1512 0
1512 1608 1511 0
1610 1609 1513 0
1513 1609 1512 0
1514 1610 1513 0
1516 1605 1611 0
1509 1605 1516 0
1606 1613 1607 0
1612 1613 1606 0
1614 1606 1608 0
1612 1606 1614 0
1615 1608 1609 0
1614 1608 1615 0
1616 1609 1610 0
1615 1609 1616 0
1617 1616 1610 0
1617 1610 1514 0
1617 1514 1517 0
1618 1617 1518 0
1518 1617 1517 0
1519 1618 1518 0
1521 1611 1619 0
1516 1611 1521 0
1613 1612 1620 0
1612 1621 1620 0
1614 1621 1612 0
1614 1622 1621 0
1615 1622 1614 0
1615 1623 1622 0
1616 1623 1615 0
1616 1624 1623 0
1617 1624 1616 0
1617 1625 1624 0
1618 1625 1617 0
1522 1626 1625 0
1519 1522 1625 0
1618 1519 1625 0
1628 1626 1522 0
1628 1522 1523 0
1628 1523 1627 0
1628 1627 1629 0
1525 1619 1630 0
1521 1619 1525 0
1627 1523 1526 0
1526 1527 1631 0
1627 1526 1631 0
1629 1627 1631 0
1631 1528 1632 0
1527 1528 1631 0
1632 1529 1633 0
1528 1529 1632 0
1633 1530 1634 0
1529 1530 1633 0
1634 1531 1635 0
1530 1531 1634 0
1635 1532 1636 0
1531 1532 1635 0
1636 1533 1637 0
1532 1533 1636 0
1637 1534 1638 0
1533 1534 1637 0
1638 1535 1639 0
1534 1535 1638 0
1639 1536 1640 0
1535 1536 1639 0
1640 1537 1641 0
1536 1537 1640 0
1525 1641 1537 0
1630 1641 1525 0
1644 1642 1643 0
1645 1642 1644 0
1648 1646 1647 0
1648 1649 1540 0
1646 1648 1540 0
1539 1646 1540 0
1650 1540 1649 0
1541 1540 1650 0
1651 1541 1650 0
1542 1541 1651 0
1652 1542 1651 0
1543 1542 1652 0
1655 1653 1654 0
1655 1656 1653 0
1657 1656 1655 0
1642 1658 1656 0
1643 1642 1656 0
1657 1643 1656 0
1659 1546 1645 0
1546 1642 1645 0
1546 1545 1642 0
1545 1658 1642 0
1660 1546 1659 0
1547 1546 1660 0
1548 1547 1660 0
1548 1660 1647 0
1548 1647 1646 0
1646 1539 1548 0
1549 1652 1661 0
1543 1652 1549 0
1653 1663 1654 0
1662 1663 1653 0
1664 1653 1656 0
1662 1653 1664 0
1665 1656 1658 0
1664 1656 1665 0
1545 1550 1658 0
1658 1550 1665 0
1551 1661 1666 0
1549 1661 1551 0
1669 1667 1668 0
1662 1670 1667 0
1663 1662 1667 0
1669 1663 1667 0
1671 1662 1664 0
1670 1662 1671 0
1671 1664 1665 0
1671 1665 1553 0
1671 1553 1552 0
1665 1550 1553 0
1672 1554 1666 0
1666 1554 1551 0
1554 1672 1674 0
1555 1554 1674 0
1673 1555 1674 0
1675 1673 1674 0
1678 1676 1677 0
1667 1679 1676 0
1668 1667 1676 0
1678 1668 1676 0
1680 1667 1670 0
1679 1667 1680 0
1680 1670 1671 0
1680 1671 1557 0
1680 1557 1556 0
1671 1552 1557 0
1558 1555 1673 0
1558 1681 1559 0
1558 1682 1681 0
1673 1682 1558 0
1675 1682 1673 0
1559 1681 1560 0
1562 1683 1677 0
1563 1562 1677 0
1676 1563 1677 0
1676 1679 1563 0
1563 1679 1564 0
1679 1680 1564 0
1564 1680 1565 0
1680 1556 1565 0
1684 1681 1682 0
1684 1685 1566 0
1684 1566 1560 0
1684 1560 1681 0
1686 1566 1685 0
1567 1566 1686 0
1562 1687 1683 0
1569 1687 1562 0
1570 1686 1688 0
1567 1686 1570 0
1690 1572 1689 0
1573 1572 1690 0
1691 1573 1690 0
1574 1573 1691 0
1574 1691 1569 0
1569 1691 1687 0
1575 1688 1692 0
1570 1688 1575 0
1572 1693 1689 0
1577 1693 1572 0
1575 1692 1695 0
1575 1695 1694 0
1575 1694 1578 0
1578 1694 1579 0
1698 1696 1697 0
1698 1699 1582 0
1696 1698 1582 0
1581 1696 1582 0
1582 1699 1577 0
1577 1699 1693 0
1700 1694 1695 0
1701 1583 1579 0
1700 1701 1579 0
1694 1700 1579 0
1696 1703 1697 0
1702 1703 1696 0
1581 1585 1696 0
1696 1585 1702 0
1586 1701 1704 0
1583 1701 1586 0
1702 1706 1703 0
1705 1706 1702 0
1585 1588 1702 0
1702 1588 1705 0
1589 1704 1707 0
1586 1704 1589 0
1705 1709 1706 0
1708 1709 1705 0
1588 1591 1705 0
1705 1591 1708 0
1592 1707 1710 0
1589 1707 1592 0
1708 1712 1709 0
1711 1712 1708 0
1591 1594 1708 0
1708 1594 1711 0
1595 1710 1713 0
1592 1710 1595 0
1711 1715 1712 0
1714 1715 1711 0
1594 1596 1711 0
1711 1596 1714 0
1597 1713 1716 0
1595 1713 1597 0
1715 1714 1717 0
1596 1598 1718 0
1596 1718 1717 0
1596 1717 1714 0
1599 1716 1719 0
1597 1716 1599 0
1598 1720 1718 0
1600 1720 1598 0
1601 1719 1721 0
1599 1719 1601 0
1600 1722 1720 0
1602 1722 1600 0
1603 1721 1723 0
1601 1721 1603 0
1602 1724 1722 0
1604 1724 1602 0
1726 1725 1727 0
1605 1603 1723 0
1725 1605 1723 0
1727 1725 1723 0
1604 1728 1724 0
1607 1728 1604 0
1726 1730 1725 0
1725 1730 1729 0
1725 1611 1605 0
1729 1611 1725 0
1607 1731 1728 0
1613 1731 1607 0
1733 1732 1734 0
1732 1735 1729 0
1732 1729 1730 0
1732 1730 1734 0
1729 1619 1611 0
1735 1619 1729 0
1731 1620 1736 0
1613 1620 1731 0
1736 1621 1737 0
1620 1621 1736 0
1737 1622 1738 0
1621 1622 1737 0
1738 1623 1739 0
1622 1623 1738 0
1739 1624 1740 0
1623 1624 1739 0
1740 1625 1741 0
1624 1625 1740 0
1741 1626 1742 0
1625 1626 1741 0
1742 1628 1743 0
1626 1628 1742 0
1743 1628 1744 0
1744 1628 1629 0
1733 1746 1732 0
1732 1746 1745 0
1745 1735 1732 0
1747 1735 1745 0
1735 1630 1619 0
1747 1630 1735 0
1744 1631 1748 0
1629 1631 1744 0
1748 1632 1749 0
1631 1632 1748 0
1749 1633 1750 0
1632 1633 1749 0
1750 1634 1751 0
1633 1634 1750 0
1751 1635 1752 0
1634 1635 1751 0
1752 1636 1753 0
1635 1636 1752 0
1753 1637 1754 0
1636 1637 1753 0
1754 1638 1755 0
1637 1638 1754 0
1755 1639 1756 0
1638 1639 1755 0
1756 1639 1640 0
1746 1756 1640 0
1745 1746 1640 0
1640 1747 1745 0
1641 1747 1640 0
1641 1630 1747 0
1644 1643 1757 0
1644 1757 1645 0
1760 1758 1759 0
1760 1761 1648 0
1758 1760 1648 0
1647 1758 1648 0
1762 1648 1761 0
1649 1648 1762 0
1763 1649 1762 0
1650 1649 1763 0
1764 1650 1763 0
1651 1650 1764 0
1765 1651 1764 0
1652 1651 1765 0
1768 1766 1767 0
1768 1769 1655 0
1766 1768 1655 0
1654 1766 1655 0
1770 1655 1769 0
1657 1655 1770 0
1657 1770 1771 0
1657 1771 1757 0
1657 1757 1643 0
1771 1772 1659 0
1771 1659 1645 0
1771 1645 1757 0
1660 1659 1772 0
1660 1772 1759 0
1660 1759 1758 0
1758 1647 1660 0
1661 1765 1773 0
1652 1765 1661 0
1766 1775 1767 0
1774 1775 1766 0
1654 1663 1766 0
1766 1663 1774 0
1666 1773 1776 0
1661 1773 1666 0
1779 1777 1778 0
1779 1780 1777 0
1781 1780 1779 0
1775 1780 1781 0
1775 1774 1780 0
1774 1668 1780 0
1669 1668 1774 0
1774 1663 1669 0
1782 1672 1776 0
1776 1672 1666 0
1783 1672 1782 0
1674 1672 1783 0
1784 1674 1783 0
1675 1674 1784 0
1777 1786 1778 0
1785 1786 1777 0
1785 1777 1780 0
1785 1780 1678 0
1785 1678 1677 0
1780 1668 1678 0
1682 1784 1787 0
1675 1784 1682 0
1790 1788 1789 0
1785 1791 1788 0
1786 1785 1788 0
1790 1786 1788 0
1677 1683 1785 0
1785 1683 1791 0
1792 1684 1787 0
1787 1684 1682 0
1793 1684 1792 0
1685 1684 1793 0
1794 1685 1793 0
1686 1685 1794 0
1788 1796 1789 0
1795 1796 1788 0
1797 1788 1791 0
1795 1788 1797 0
1683 1687 1791 0
1791 1687 1797 0
1688 1794 1798 0
1686 1794 1688 0
1801 1799 1800 0
1801 1802 1799 0
1803 1802 1801 0
1796 1802 1803 0
1796 1795 1802 0
1795 1689 1802 0
1690 1689 1795 0
1795 1797 1690 0
1690 1797 1691 0
1797 1687 1691 0
1692 1798 1804 0
1688 1798 1692 0
1799 1806 1800 0
1805 1806 1799 0
1807 1799 1802 0
1805 1799 1807 0
1689 1693 1802 0
1802 1693 1807 0
1695 1804 1808 0
1692 1804 1695 0
1697 1809 1806 0
1698 1697 1806 0
1805 1698 1806 0
1805 1807 1698 0
1698 1807 1699 0
1807 1693 1699 0
1810 1700 1808 0
1808 1700 1695 0
1811 1700 1810 0
1701 1700 1811 0
1697 1812 1809 0
1703 1812 1697 0
1704 1811 1813 0
1701 1811 1704 0
1703 1814 1812 0
1706 1814 1703 0
1707 1813 1815 0
1704 1813 1707 0
1706 1816 1814 0
1709 1816 1706 0
1710 1815 1817 0
1707 1815 1710 0
1709 1818 1816 0
1712 1818 1709 0
1713 1817 1819 0
1710 1817 1713 0
1712 1820 1818 0
1715 1820 1712 0
1716 1819 1821 0
1713 1819 1716 0
1823 1820 1715 0
1822 1823 1715 0
1717 1822 1715 0
1718 1822 1717 0
1719 1821 1824 0
1716 1821 1719 0
1823 1822 1825 0
1718 1720 1826 0
1718 1826 1825 0
1718 1825 1822 0
1721 1824 1827 0
1719 1824 1721 0
1720 1828 1826 0
1722 1828 1720 0
1723 1827 1829 0
1721 1827 1723 0
1722 1830 1828 0
1724 1830 1722 0
1831 1726 1832 0
1832 1726 1727 0
1723 1832 1727 0
1829 1832 1723 0
1724 1833 1830 0
1728 1833 1724 0
1730 1831 1834 0
1726 1831 1730 0
1728 1835 1833 0
1731 1835 1728 0
1836 1733 1837 0
1837 1733 1734 0
1730 1837 1734 0
1834 1837 1730 0
1835 1736 1838 0
1731 1736 1835 0
1838 1737 1839 0
1736 1737 1838 0
1839 1738 1840 0
1737 1738 1839 0
1840 1739 1841 0
1738 1739 1840 0
1841 1739 1740 0
1841 1740 1842 0
1841 1842 1843 0
1844 1842 1741 0
1741 1842 1740 0
1845 1844 1742 0
1742 1844 1741 0
1846 1845 1743 0
1743 1845 1742 0
1744 1846 1743 0
1848 1847 1849 0
1746 1733 1836 0
1847 1746 1836 0
1849 1847 1836 0
1843 1842 1850 0
1842 1851 1850 0
1844 1851 1842 0
1844 1852 1851 0
1845 1852 1844 0
1845 1853 1852 0
1846 1853 1845 0
1748 1854 1853 0
1744 1748 1853 0
1846 1744 1853 0
1854 1749 1855 0
1748 1749 1854 0
1855 1749 1750 0
1855 1750 1856 0
1855 1856 1857 0
1858 1856 1751 0
1751 1856 1750 0
1859 1858 1752 0
1752 1858 1751 0
1860 1859 1753 0
1753 1859 1752 0
1861 1860 1754 0
1754 1860 1753 0
1754 1755 1863 0
1754 1863 1862 0
1754 1862 1861 0
1863 1755 1756 0
1848 1863 1756 0
1847 1848 1756 0
1756 1746 1847 0
1857 1856 1864 0
1856 1865 1864 0
1858 1865 1856 0
1858 1866 1865 0
1859 1866 1858 0
1859 1867 1866 0
1860 1867 1859 0
1860 1868 1867 0
1861 1868 1860 0
1861 1862 1868 0
1871 1869 1870 0
1871 1872 1760 0
1869 1871 1760 0
1759 1869 1760 0
1873 1760 1872 0
1761 1760 1873 0
1874 1761 1873 0
1762 1761 1874 0
1875 1762 1874 0
1763 1762 1875 0
1764 1763 1875 0
1876 1764 1875 0
1877 1876 1875 0
1764 1876 1765 0
1879 1767 1878 0
1768 1767 1879 0
1880 1768 1879 0
1769 1768 1880 0
1881 1769 1880 0
1770 1769 1881 0
1882 1770 1881 0
1771 1770 1882 0
1772 1771 1882 0
1772 1882 1870 0
1772 1870 1869 0
1869 1759 1772 0
1877 1884 1876 0
1876 1884 1883 0
1876 1773 1765 0
1883 1773 1876 0
1767 1885 1878 0
1775 1885 1767 0
1884 1887 1883 0
1883 1887 1886 0
1883 1776 1773 0
1886 1776 1883 0
1889 1778 1888 0
1779 1778 1889 0
1890 1779 1889 0
1781 1779 1890 0
1781 1890 1775 0
1775 1890 1885 0
1891 1886 1887 0
1891 1892 1782 0
1891 1782 1776 0
1891 1776 1886 0
1783 1782 1892 0
1893 1783 1892 0
1894 1893 1892 0
1783 1893 1784 0
1897 1895 1896 0
1888 1778 1786 0
1888 1786 1895 0
1888 1895 1897 0
1894 1899 1893 0
1893 1899 1898 0
1893 1787 1784 0
1898 1787 1893 0
1789 1900 1896 0
1790 1789 1896 0
1895 1790 1896 0
1895 1786 1790 0
1901 1898 1899 0
1901 1902 1792 0
1901 1792 1787 0
1901 1787 1898 0
1793 1792 1902 0
1903 1793 1902 0
1904 1903 1902 0
1793 1903 1794 0
1907 1905 1906 0
1900 1789 1796 0
1900 1796 1905 0
1900 1905 1907 0
1908 1903 1904 0
1909 1798 1794 0
1908 1909 1794 0
1903 1908 1794 0
1911 1800 1910 0
1801 1800 1911 0
1803 1801 1911 0
1803 1911 1906 0
1803 1906 1905 0
1905 1796 1803 0
1804 1909 1912 0
1798 1909 1804 0
1800 1913 1910 0
1806 1913 1800 0
1808 1912 1914 0
1804 1912 1808 0
1806 1915 1913 0
1809 1915 1806 0
1808 1914 1917 0
1808 1917 1916 0
1808 1916 1810 0
1810 1916 1811 0
1809 1918 1915 0
1812 1918 1809 0
1919 1916 1917 0
1920 1813 1811 0
1919 1920 1811 0
1916 1919 1811 0
1923 1921 1922 0
1918 1812 1814 0
1918 1814 1921 0
1918 1921 1923 0
1815 1920 1924 0
1813 1920 1815 0
1921 1926 1922 0
1925 1926 1921 0
1814 1816 1921 0
1921 1816 1925 0
1817 1924 1927 0
1815 1924 1817 0
1925 1929 1926 0
1928 1929 1925 0
1816 1818 1925 0
1925 1818 1928 0
1819 1927 1930 0
1817 1927 1819 0
1929 1928 1931 0
1818 1820 1932 0
1818 1932 1931 0
1818 1931 1928 0
1821 1930 1933 0
1819 1930 1821 0
1820 1934 1932 0
1823 1934 1820 0
1824 1933 1935 0
1821 1933 1824 0
1934 1825 1936 0
1823 1825 1934 0
1936 1825 1937 0
1937 1825 1826 0
1827 1935 1938 0
1824 1935 1827 0
1826 1939 1937 0
1828 1939 1826 0
1829 1938 1940 0
1827 1938 1829 0
1828 1941 1939 0
1830 1941 1828 0
1943 1942 1944 0
1832 1945 1944 0
1832 1944 1942 0
1832 1942 1831 0
1829 1945 1832 0
1940 1945 1829 0
1830 1946 1941 0
1833 1946 1830 0
1943 1948 1942 0
1942 1948 1947 0
1942 1834 1831 0
1947 1834 1942 0
1833 1949 1946 0
1835 1949 1833 0
1951 1950 1952 0
1950 1948 1952 0
1950 1836 1948 0
1836 1947 1948 0
1837 1947 1836 0
1837 1834 1947 0
1949 1838 1953 0
1835 1838 1949 0
1953 1839 1954 0
1838 1839 1953 0
1954 1840 1955 0
1839 1840 1954 0
1955 1841 1956 0
1840 1841 1955 0
1956 1841 1957 0
1957 1841 1843 0
1951 1958 1848 0
1951 1848 1849 0
1951 1849 1950 0
1849 1836 1950 0
1957 1850 1959 0
1843 1850 1957 0
1959 1851 1960 0
1850 1851 1959 0
1960 1852 1961 0
1851 1852 1960 0
1961 1853 1962 0
1852 1853 1961 0
1962 1854 1963 0
1853 1854 1962 0
1963 1855 1964 0
1854 1855 1963 0
1966 1964 1855 0
1966 1855 1857 0
1966 1857 1965 0
1965 1967 1966 0
1966 1967 1968 0
1967 1969 1968 0
1968 1969 1970 0
1969 1971 1970 0
1970 1971 1972 0
1971 1973 1972 0
1972 1973 1974 0
1863 1975 1974 0
1863 1974 1973 0
1863 1973 1862 0
1848 1975 1863 0
1958 1975 1848 0
1965 1857 1864 0
1864 1967 1965 0
1865 1967 1864 0
1865 1969 1967 0
1866 1969 1865 0
1866 1971 1969 0
1867 1971 1866 0
1867 1973 1971 0
1868 1973 1867 0
1868 1862 1973 0
1977 1870 1976 0
1871 1870 1977 0
1978 1871 1977 0
1872 1871 1978 0
1979 1872 1978 0
1873 1872 1979 0
1980 1873 1979 0
1874 1873 1980 0
1875 1874 1980 0
1981 1875 1980 0
1982 1981 1980 0
1875 1981 1877 0
1984 1878 1983 0
1879 1878 1984 0
1985 1879 1984 0
1880 1879 1985 0
1986 1880 1985 0
1881 1880 1986 0
1987 1881 1986 0
1882 1881 1987 0
1882 1987 1870 0
1870 1987 1976 0
1988 1981 1982 0
1989 1884 1877 0
1988 1989 1877 0
1981 1988 1877 0
1878 1990 1983 0
1885 1990 1878 0
1887 1989 1991 0
1884 1989 1887 0
1993 1888 1992 0
1889 1888 1993 0
1994 1889 1993 0
1890 1889 1994 0
1890 1994 1885 0
1885 1994 1990 0
1995 1891 1991 0
1991 1891 1887 0
1996 1891 1995 0
1892 1891 1996 0
1997 1892 1996 0
1894 1892 1997 0
1999 1896 1998 0
1897 1896 1999 0
1897 1999 1888 0
1888 1999 1992 0
1899 1997 2000 0
1894 1997 1899 0
1896 2001 1998 0
1900 2001 1896 0
2002 1901 2000 0
2000 1901 1899 0
2003 1901 2002 0
1902 1901 2003 0
2004 1902 2003 0
1904 1902 2004 0
2006 1906 2005 0
1907 1906 2006 0
1907 2006 1900 0
1900 2006 2001 0
2007 1908 2004 0
2004 1908 1904 0
2008 1908 2007 0
1909 1908 2008 0
2010 1910 2009 0
1911 1910 2010 0
1911 2010 1906 0
1906 2010 2005 0
1912 2008 2011 0
1909 2008 1912 0
1910 2012 2009 0
1913 2012 1910 0
1914 2011 2013 0
1912 2011 1914 0
1913 2014 2012 0
1915 2014 1913 0
1917 2013 2015 0
1914 2013 1917 0
2018 2016 2017 0
2014 1915 1918 0
2014 1918 2016 0
2014 2016 2018 0
1917 2015 2020 0
1917 2020 2019 0
1917 2019 1919 0
1919 2019 1920 0
1922 2021 2017 0
1923 1922 2017 0
2016 1923 2017 0
2016 1918 1923 0
2020 2023 2019 0
2019 2023 2022 0
2019 1924 1920 0
2022 1924 2019 0
1922 2024 2021 0
1926 2024 1922 0
2023 2026 2022 0
2022 2026 2025 0
2022 1927 1924 0
2025 1927 2022 0
1926 2027 2024 0
1929 2027 1926 0
2026 2029 2025 0
2025 2029 2028 0
2025 1930 1927 0
2028 1930 2025 0
2031 2027 1929 0
2030 2031 1929 0
1931 2030 1929 0
1932 2030 1931 0
2033 2032 2034 0
2032 2035 2028 0
2032 2028 2029 0
2032 2029 2034 0
2028 1933 1930 0
2035 1933 2028 0
2031 2030 2036 0
1932 1934 2037 0
1932 2037 2036 0
1932 2036 2030 0
2033 2039 2032 0
2032 2039 2038 0
2038 2035 2032 0
2040 2035 2038 0
2035 1935 1933 0
2040 1935 2035 0
2042 2037 1934 0
2041 2042 1934 0
1936 2041 1934 0
1937 2041 1936 0
2044 2043 2045 0
2043 2046 2038 0
2043 2038 2039 0
2043 2039 2045 0
2046 2040 2038 0
2047 2040 2046 0
2040 1938 1935 0
2047 1938 2040 0
2042 2041 2048 0
1937 1939 2049 0
1937 2049 2048 0
1937 2048 2041 0
2044 2051 2043 0
2043 2051 2050 0
2050 2046 2043 0
2052 2046 2050 0
2052 2047 2046 0
2053 2047 2052 0
2047 1940 1938 0
2053 1940 2047 0
1939 2054 2049 0
1941 2054 1939 0
2051 2056 2050 0
2050 2056 2055 0
2052 2050 2055 0
1944 2052 2055 0
1943 1944 2055 0
1944 2053 2052 0
1945 2053 1944 0
1945 1940 2053 0
1941 2057 2054 0
1946 2057 1941 0
2056 2059 2055 0
2055 2059 2058 0
2055 1948 1943 0
2058 1948 2055 0
1946 2060 2057 0
1949 2060 1946 0
2059 2061 1951 0
2059 1951 1952 0
2059 1952 2058 0
1952 1948 2058 0
2060 1953 2062 0
1949 1953 2060 0
2062 1954 2063 0
1953 1954 2062 0
2063 1955 2064 0
1954 1955 2063 0
2064 1956 2065 0
1955 1956 2064 0
2065 1956 2066 0
2066 1956 1957 0
2068 2067 2069 0
2067 2070 2069 0
2069 2070 2071 0
2070 2072 2071 0
2071 2072 2073 0
2072 2074 2073 0
2073 2074 2075 0
2074 2076 2075 0
2075 2076 2077 0
2076 2078 2077 0
2077 2078 2079 0
2078 2080 2079 0
2079 2080 2081 0
2080 2082 2081 0
2081 2082 2083 0
2082 2084 2083 0
2083 2084 2085 0
2084 2086 2085 0
2085 2086 2087 0
1958 1951 2061 0
2086 1958 2061 0
2087 2086 2061 0
2066 1959 2088 0
1957 1959 2066 0
2088 1960 2089 0
1959 1960 2088 0
2089 1960 1961 0
2068 2089 1961 0
2067 2068 1961 0
1961 2070 2067 0
1962 2070 1961 0
1962 2072 2070 0
1963 2072 1962 0
1963 2074 2072 0
1964 2074 1963 0
1964 2076 2074 0
1966 2076 1964 0
1966 2078 2076 0
1968 2078 1966 0
1968 2080 2078 0
1970 2080 1968 0
1970 2082 2080 0
1972 2082 1970 0
1972 2084 2082 0
1974 2084 1972 0
1974 2086 2084 0
1975 2086 1974 0
1975 1958 2086 0
2092 2090 2091 0
2092 2093 1977 0
2090 2092 1977 0
1976 2090 1977 0
2094 1977 2093 0
1978 1977 2094 0
2095 1978 2094 0
1979 1978 2095 0
2096 1979 2095 0
1980 1979 2096 0
2097 1980 2096 0
1982 1980 2097 0
2099 1983 2098 0
1984 1983 2099 0
2100 1984 2099 0
1985 1984 2100 0
2101 1985 2100 0
1986 1985 2101 0
1987 1986 2101 0
1987 2101 2091 0
1987 2091 2090 0
2090 1976 1987 0
2102 1988 2097 0
2097 1988 1982 0
2103 1988 2102 0
1989 1988 2103 0
1983 2104 2098 0
1990 2104 1983 0
1991 2103 2105 0
1989 2103 1991 0
2108 2106 2107 0
2108 2109 1993 0
2106 2108 1993 0
1992 2106 1993 0
2110 1993 2109 0
1994 1993 2110 0
1994 2110 1990 0
1990 2110 2104 0
2111 1995 2105 0
2105 1995 1991 0
2112 1995 2111 0
1996 1995 2112 0
2113 1996 2112 0
1997 1996 2113 0
1998 2114 2107 0
1999 1998 2107 0
2106 1999 2107 0
2106 1992 1999 0
2000 2113 2115 0
1997 2113 2000 0
1998 2116 2114 0
2001 2116 1998 0
2117 2002 2115 0
2115 2002 2000 0
2003 2002 2117 0
2118 2003 2117 0
2119 2118 2117 0
2003 2118 2004 0
2122 2120 2121 0
2122 2123 2006 0
2120 2122 2006 0
2005 2120 2006 0
2006 2123 2001 0
2001 2123 2116 0
2119 2125 2118 0
2118 2125 2124 0
2118 2124 2126 0
2004 2118 2126 0
2007 2004 2126 0
2007 2126 2008 0
2129 2127 2128 0
2121 2127 2129 0
2121 2120 2127 0
2120 2009 2127 0
2010 2009 2120 0
2120 2005 2010 0
2125 2131 2124 0
2124 2131 2130 0
2130 2126 2124 0
2132 2126 2130 0
2126 2011 2008 0
2132 2011 2126 0
2127 2134 2128 0
2133 2134 2127 0
2009 2012 2127 0
2127 2012 2133 0
2135 2130 2131 0
2136 2132 2130 0
2136 2130 2135 0
2136 2135 2137 0
2132 2013 2011 0
2136 2013 2132 0
2133 2139 2134 0
2138 2139 2133 0
2012 2014 2133 0
2133 2014 2138 0
2137 2141 2136 0
2136 2141 2140 0
2136 2015 2013 0
2140 2015 2136 0
2017 2142 2139 0
2018 2017 2139 0
2138 2018 2139 0
2138 2014 2018 0
2141 2144 2140 0
2140 2144 2143 0
2140 2020 2015 0
2143 2020 2140 0
2017 2145 2142 0
2021 2145 2017 0
2144 2147 2143 0
2143 2147 2146 0
2143 2023 2020 0
2146 2023 2143 0
2021 2148 2145 0
2024 2148 2021 0
2147 2150 2146 0
2146 2150 2149 0
2146 2026 2023 0
