#!ascii version of
23782 47588
11798 11797 12333 0
12334 11798 12333 0
12335 12334 12333 0
11798 12334 11799 0
11785 12336 12321 0
11800 12336 11785 0
12338 12337 12339 0
11802 12340 12339 0
11802 12339 12337 0
11802 12337 11801 0
11787 12340 11802 0
12322 12340 11787 0
12341 11795 11803 0
12326 11795 12341 0
12341 12328 12326 0
12342 12328 12341 0
12328 12342 12330 0
12330 12342 12343 0
12344 11804 12345 0
12345 11804 11805 0
12345 11806 12346 0
11805 11806 12345 0
12346 11806 12347 0
12347 11806 11807 0
12348 12334 12335 0
12348 11799 12334 0
12348 12350 11799 0
12350 11808 11799 0
12349 11808 12350 0
11808 12349 11810 0
12336 11813 12351 0
11800 11813 12336 0
12351 11814 12352 0
11813 11814 12351 0
12352 11814 11815 0
12338 12352 11815 0
12337 12338 11815 0
11815 11801 12337 0
12341 11803 11816 0
11816 12342 12341 0
11817 12342 11816 0
11817 11818 12353 0
12342 11817 12353 0
12343 12342 12353 0
12353 11819 12354 0
11818 11819 12353 0
12354 11820 12355 0
11819 11820 12354 0
12355 11821 12356 0
11820 11821 12355 0
12356 11822 12357 0
11821 11822 12356 0
11804 12357 11822 0
12344 12357 11804 0
11807 12358 12347 0
11823 12358 11807 0
12359 12349 12350 0
12359 12360 11824 0
12359 11824 11810 0
12359 11810 12349 0
12361 11824 12360 0
11825 11824 12361 0
12362 11825 12361 0
11826 11825 12362 0
12363 11826 12362 0
11827 11826 12363 0
11828 11827 12363 0
12364 11828 12363 0
12365 12364 12363 0
11829 12364 12366 0
11828 12364 11829 0
11829 12366 11830 0
11823 12367 12358 0
11833 12367 11823 0
12368 12364 12365 0
12368 12369 12364 0
12364 12369 12366 0
12370 11835 11830 0
12369 12370 11830 0
12366 12369 11830 0
12372 11836 12371 0
11837 11836 12372 0
12373 11837 12372 0
11838 11837 12373 0
12374 11838 12373 0
11840 11838 12374 0
11840 12374 12376 0
11841 11840 12376 0
12375 11841 12376 0
12377 12375 12376 0
12379 11842 12378 0
11843 11842 12379 0
12380 11843 12379 0
11844 11843 12380 0
11844 12380 11833 0
11833 12380 12367 0
12381 11845 12370 0
12370 11845 11835 0
12382 11845 12381 0
11846 11845 12382 0
12383 11846 12382 0
11847 11846 12383 0
11836 12384 12371 0
11848 12384 11836 0
11849 11841 12375 0
12377 12385 11850 0
12375 12377 11850 0
11849 12375 11850 0
12378 11853 12386 0
11842 11853 12378 0
12386 11853 12387 0
12387 11853 11854 0
12388 11856 12383 0
12383 11856 11847 0
11856 12388 12390 0
11857 11856 12390 0
12389 11857 12390 0
12391 12389 12390 0
11848 12392 12384 0
11858 12392 11848 0
11859 12385 12393 0
11850 12385 11859 0
12396 12394 12395 0
12396 12397 12394 0
12398 12397 12396 0
12398 12399 12397 0
12400 12399 12398 0
12400 12401 12399 0
12402 12401 12400 0
12403 12401 12402 0
11854 12404 12387 0
11861 12404 11854 0
12405 11864 11857 0
12405 11857 12389 0
12405 12389 12406 0
12389 12391 12406 0
11858 12407 12392 0
11865 12407 11858 0
12408 11866 12393 0
12393 11866 11859 0
12409 11866 12408 0
11867 11866 12409 0
12410 12395 12394 0
12410 12409 12395 0
11868 12409 12410 0
11867 12409 11868 0
12411 12394 12397 0
12410 12394 12411 0
12412 12397 12399 0
12411 12397 12412 0
12413 12399 12401 0
12412 12399 12413 0
12403 12413 12401 0
12414 12413 12403 0
12404 11871 12415 0
11861 11871 12404 0
12415 11873 12416 0
11871 11873 12415 0
12416 11875 12417 0
11873 11875 12416 0
12417 11875 12418 0
12418 11875 11876 0
12419 11878 11879 0
12420 12419 11880 0
11880 12419 11879 0
11881 12420 11880 0
12421 11883 11884 0
11884 11885 12423 0
11884 12423 12422 0
11884 12422 12421 0
11864 12423 11885 0
12405 12423 11864 0
11865 12424 12407 0
11886 12424 11865 0
11888 11868 12410 0
12410 12411 11888 0
11888 12411 11890 0
12411 12412 12425 0
12411 12425 11891 0
12411 11891 11890 0
12426 12412 12413 0
12425 12412 12426 0
12427 12426 12413 0
12428 12427 12413 0
12414 12428 12413 0
12429 12427 12428 0
12418 11892 12430 0
11876 11892 12418 0
12430 11894 12431 0
11892 11894 12430 0
12433 12431 11894 0
12433 11894 11895 0
12433 11895 12432 0
12432 12434 12433 0
12433 12434 12435 0
12434 12436 12435 0
12435 12436 12437 0
11897 12438 12437 0
11897 12437 12436 0
11897 12436 11896 0
12438 11898 12439 0
11897 11898 12438 0
12439 11899 12440 0
11898 11899 12439 0
12440 11900 12441 0
11899 11900 12440 0
12441 11901 12442 0
11900 11901 12441 0
12442 11902 12443 0
11901 11902 12442 0
12444 12443 11902 0
12419 12444 11902 0
11878 12419 11902 0
12419 12445 12444 0
12420 12445 12419 0
11903 12446 12445 0
11881 11903 12445 0
12420 11881 12445 0
12446 11904 12447 0
11903 11904 12446 0
12447 11905 12448 0
11904 11905 12447 0
12448 11906 12449 0
11905 11906 12448 0
12449 11907 12450 0
11906 11907 12449 0
12450 11907 12451 0
12451 11907 11908 0
12452 11910 12453 0
12453 11910 11911 0
12454 12453 11911 0
12421 12454 11911 0
11883 12421 11911 0
12421 12422 12454 0
11886 12455 12424 0
11912 12455 11886 0
11913 11891 12425 0
12425 12426 11913 0
11913 12426 11914 0
12426 12427 11914 0
11914 12427 11916 0
12429 12456 11917 0
12427 12429 11917 0
11916 12427 11917 0
12432 11895 11918 0
11918 12434 12432 0
11919 12434 11918 0
11919 12436 12434 0
11920 12436 11919 0
11920 11896 12436 0
11923 11922 12457 0
12459 11924 11923 0
12458 12459 11923 0
12457 12458 11923 0
11924 12459 11908 0
11908 12459 12451 0
12460 11926 12461 0
12461 11926 11927 0
11910 12461 11927 0
12452 12461 11910 0
11912 12462 12455 0
11928 12462 11912 0
12463 11929 11930 0
11931 12463 11930 0
12464 11932 12465 0
12465 11932 11933 0
11917 12465 11933 0
12456 12465 11917 0
11935 11934 12466 0
11936 12466 12467 0
11935 12466 11936 0
12469 11937 11936 0
12468 12469 11936 0
12467 12468 11936 0
12470 11937 12469 0
11938 11937 12470 0
12471 11938 12470 0
11939 11938 12471 0
12472 11939 12471 0
11940 11939 12472 0
12473 11940 12472 0
11941 11940 12473 0
11941 12473 12474 0
11941 12474 12457 0
11941 12457 11922 0
12474 12458 12457 0
12475 11942 12476 0
12476 11942 11943 0
11926 12476 11943 0
12460 12476 11926 0
11928 12477 12462 0
11944 12477 11928 0
11945 11929 12463 0
12463 11931 11945 0
11946 12464 12478 0
11932 12464 11946 0
12480 11948 12479 0
11949 11948 12480 0
11949 12480 12481 0
11949 12481 12466 0
11949 12466 11934 0
12481 12482 12466 0
12466 12482 12467 0
12482 12468 12467 0
11950 12475 12483 0
11942 12475 11950 0
11944 12484 12477 0
11951 12484 11944 0
11953 12478 12485 0
11946 12478 11953 0
11955 11954 12486 0
12488 11956 11955 0
12487 12488 11955 0
12486 12487 11955 0
11956 12488 11948 0
11948 12488 12479 0
12489 11957 12490 0
12490 11957 11958 0
11950 12490 11958 0
12483 12490 11950 0
11951 12491 12484 0
11959 12491 11951 0
11953 12485 12493 0
11953 12493 12492 0
11953 12492 11960 0
11960 12492 11962 0
12494 11954 11963 0
12486 11954 12494 0
12486 12494 12487 0
12487 12494 12495 0
12496 11964 12497 0
12497 11964 11965 0
11957 12497 11965 0
12489 12497 11957 0
12491 11959 11966 0
12499 12491 11966 0
12498 12499 11966 0
12499 12498 12500 0
12493 12502 12492 0
12492 12502 12501 0
12492 11968 11962 0
12501 11968 12492 0
12494 11963 11969 0
11969 11971 12503 0
12494 11969 12503 0
12495 12494 12503 0
12503 11971 12504 0
12504 11971 11972 0
11973 12496 12505 0
11964 12496 11973 0
12498 11966 11974 0
11975 12506 12500 0
11975 12500 12498 0
11975 12498 11974 0
12502 12508 12501 0
12501 12508 12507 0
12501 12507 12509 0
11968 12501 12509 0
11976 11968 12509 0
11977 12509 12510 0
11976 12509 11977 0
11978 12510 12511 0
11977 12510 11978 0
11978 12511 11979 0
12504 11980 12512 0
11972 11980 12504 0
12512 11980 12513 0
12513 11980 11981 0
11982 12505 12514 0
11973 12505 11982 0
11975 12515 12506 0
11983 12515 11975 0
12516 12507 12508 0
12516 12517 12507 0
12507 12517 12509 0
12517 12518 12509 0
12509 12518 12510 0
12518 12519 12510 0
12510 12519 12511 0
12519 12520 11984 0
12519 11984 11979 0
12519 11979 12511 0
12521 11984 12520 0
11985 11984 12521 0
11985 12521 12523 0
11986 11985 12523 0
12522 11986 12523 0
12524 12522 12523 0
12513 11987 12525 0
11981 11987 12513 0
12525 11987 12526 0
12526 11987 11988 0
11990 12514 12527 0
11982 12514 11990 0
11983 12528 12515 0
11991 12528 11983 0
11992 11986 12522 0
11992 12529 11993 0
11992 12530 12529 0
12522 12530 11992 0
12524 12530 12522 0
11994 12529 12531 0
11993 12529 11994 0
11994 12531 11995 0
12534 12532 12533 0
12534 12535 11998 0
12532 12534 11998 0
11997 12532 11998 0
12536 11998 12535 0
12000 11998 12536 0
12537 12000 12536 0
12002 12000 12537 0
12002 12537 11988 0
11988 12537 12526 0
12538 12003 12004 0
11990 12527 12539 0
12004 11990 12539 0
12538 12004 12539 0
11991 12540 12528 0
12005 12540 11991 0
12541 12529 12530 0
12541 12542 12529 0
12529 12542 12531 0
12542 12543 12006 0
12542 12006 11995 0
12542 11995 12531 0
12544 12006 12543 0
12008 12006 12544 0
12545 12008 12544 0
12010 12008 12545 0
12546 12010 12545 0
12012 12010 12546 0
12547 12012 12546 0
12014 12012 12547 0
12548 12014 12547 0
12016 12014 12548 0
12549 12016 12548 0
12018 12016 12549 0
12550 12018 12549 0
12020 12018 12550 0
12020 12550 12552 0
12021 12020 12552 0
12551 12021 12552 0
12552 12553 12551 0
12554 12553 12552 0
12555 12553 12554 0
12558 12556 12557 0
12558 12559 12025 0
12556 12558 12025 0
12024 12556 12025 0
12560 12025 12559 0
12026 12025 12560 0
12027 12026 12560 0
12027 12560 12533 0
12027 12533 12532 0
12532 11997 12027 0
12561 12029 12003 0
12561 12003 12538 0
12561 12538 12562 0
12538 12539 12562 0
12540 12005 12030 0
12564 12540 12030 0
12563 12564 12030 0
12564 12563 12565 0
12031 12021 12551 0
12551 12553 12031 0
12031 12553 12032 0
12566 12033 12032 0
12566 12032 12553 0
12566 12553 12555 0
12034 12033 12566 0
12034 12566 12557 0
12034 12557 12556 0
12556 12024 12034 0
12567 12035 12568 0
12568 12035 12036 0
12029 12568 12036 0
12561 12568 12029 0
12569 12030 12038 0
12563 12030 12569 0
12563 12569 12565 0
12565 12569 12570 0
12571 12039 12040 0
12035 12567 12572 0
12040 12035 12572 0
12571 12040 12572 0
12573 12038 12042 0
12569 12038 12573 0
12569 12573 12570 0
12570 12573 12574 0
12575 12044 12039 0
12575 12039 12571 0
12575 12571 12576 0
12571 12572 12576 0
12577 12042 12046 0
12573 12042 12577 0
12573 12577 12574 0
12574 12577 12578 0
12048 12575 12579 0
12044 12575 12048 0
12577 12046 12049 0
12050 12580 12578 0
12050 12578 12577 0
12050 12577 12049 0
12581 12052 12582 0
12582 12052 12053 0
12048 12582 12053 0
12579 12582 12048 0
12050 12583 12580 0
12054 12583 12050 0
12584 12055 12056 0
12056 12057 12586 0
12056 12586 12585 0
12056 12585 12584 0
12052 12586 12057 0
12581 12586 12052 0
12054 12587 12583 0
12058 12587 12054 0
12588 12060 12055 0
12588 12055 12584 0
12588 12584 12589 0
12584 12585 12589 0
12058 12590 12587 0
12062 12590 12058 0
12591 12064 12592 0
12592 12064 12065 0
12060 12592 12065 0
12588 12592 12060 0
12590 12066 12593 0
12062 12066 12590 0
12593 12066 12594 0
12594 12066 12068 0
12595 12070 12596 0
12596 12070 12071 0
12596 12072 12597 0
12071 12072 12596 0
12064 12597 12072 0
12591 12597 12064 0
12594 12073 12598 0
12068 12073 12594 0
12598 12073 12599 0
12599 12073 12075 0
12600 12076 12077 0
12077 12078 12602 0
12077 12602 12601 0
12077 12601 12600 0
12070 12602 12078 0
12595 12602 12070 0
12075 12603 12599 0
12080 12603 12075 0
12604 12087 12605 0
12605 12087 12088 0
12606 12605 12088 0
12600 12606 12088 0
12076 12600 12088 0
12600 12601 12606 0
12603 12080 12090 0
12608 12603 12090 0
12607 12608 12090 0
12608 12607 12609 0
12610 12094 12611 0
12611 12094 12095 0
12611 12096 12612 0
12095 12096 12611 0
12612 12097 12613 0
12096 12097 12612 0
12613 12098 12614 0
12097 12098 12613 0
12614 12099 12615 0
12098 12099 12614 0
12617 12615 12099 0
12617 12099 12100 0
12617 12100 12616 0
12617 12616 12618 0
12619 12101 12620 0
12620 12101 12102 0
12087 12620 12102 0
12604 12620 12087 0
12607 12090 12103 0
12105 12621 12609 0
12105 12609 12607 0
12105 12607 12103 0
12622 12106 12107 0
12623 12622 12108 0
12108 12622 12107 0
12624 12623 12109 0
12109 12623 12108 0
12625 12624 12110 0
12110 12624 12109 0
12094 12610 12626 0
12110 12094 12626 0
12625 12110 12626 0
12616 12100 12111 0
12616 12628 12618 0
12616 12111 12628 0
12111 12627 12628 0
12112 12627 12111 0
12628 12627 12629 0
12630 12113 12631 0
12631 12113 12114 0
12631 12115 12632 0
12114 12115 12631 0
12632 12116 12633 0
12115 12116 12632 0
12633 12117 12634 0
12116 12117 12633 0
12634 12118 12635 0
12117 12118 12634 0
12635 12119 12636 0
12118 12119 12635 0
12101 12636 12119 0
12619 12636 12101 0
12639 12637 12638 0
12621 12105 12639 0
12105 12637 12639 0
12105 12120 12637 0
12120 12640 12637 0
12622 12641 12640 0
12622 12640 12120 0
12622 12120 12106 0
12642 12622 12623 0
12641 12622 12642 0
12642 12623 12624 0
12643 12642 12624 0
12644 12643 12624 0
12624 12645 12644 0
12625 12645 12624 0
12625 12626 12645 0
12627 12112 12121 0
12121 12122 12646 0
12627 12121 12646 0
12629 12627 12646 0
12646 12123 12647 0
12122 12123 12646 0
12647 12124 12648 0
12123 12124 12647 0
12648 12126 12649 0
12124 12126 12648 0
12649 12126 12650 0
12650 12126 12127 0
12651 12129 12652 0
12652 12129 12130 0
12652 12131 12653 0
12130 12131 12652 0
12653 12132 12654 0
12131 12132 12653 0
12113 12654 12132 0
12630 12654 12113 0
12637 12656 12638 0
12655 12656 12637 0
12657 12637 12640 0
12655 12637 12657 0
12657 12640 12641 0
12658 12657 12641 0
12659 12658 12641 0
12641 12660 12659 0
12642 12660 12641 0
12642 12643 12660 0
12650 12133 12661 0
12127 12133 12650 0
12661 12134 12662 0
12133 12134 12661 0
12662 12135 12663 0
12134 12135 12662 0
12663 12136 12664 0
12135 12136 12663 0
12664 12137 12665 0
12136 12137 12664 0
12665 12138 12666 0
12137 12138 12665 0
12666 12139 12667 0
12138 12139 12666 0
12667 12140 12668 0
12139 12140 12667 0
12668 12141 12669 0
12140 12141 12668 0
12129 12669 12141 0
12651 12669 12129 0
12656 12655 12670 0
12655 12671 12670 0
12657 12671 12655 0
12657 12658 12671 0
12673 12142 12672 0
12143 12142 12673 0
12674 12143 12673 0
12144 12143 12674 0
12675 12144 12674 0
12145 12144 12675 0
12676 12145 12675 0
12146 12145 12676 0
12677 12146 12676 0
12147 12146 12677 0
12678 12147 12677 0
12148 12147 12678 0
12672 12142 12149 0
12680 12672 12149 0
12679 12680 12149 0
12680 12679 12681 0
12682 12150 12678 0
12678 12150 12148 0
12683 12150 12682 0
12151 12150 12683 0
12684 12149 12152 0
12679 12149 12684 0
12679 12684 12681 0
12681 12684 12685 0
12153 12683 12686 0
12151 12683 12153 0
12687 12152 12154 0
12684 12152 12687 0
12684 12687 12685 0
12685 12687 12688 0
12155 12686 12689 0
12153 12686 12155 0
12690 12154 12156 0
12687 12154 12690 0
12687 12690 12688 0
12688 12690 12691 0
12692 12157 12689 0
12689 12157 12155 0
12693 12157 12692 0
12158 12157 12693 0
12694 12158 12693 0
12159 12158 12694 0
12159 12694 12696 0
12160 12159 12696 0
12695 12160 12696 0
12697 12695 12696 0
12698 12156 12161 0
12690 12156 12698 0
12690 12698 12691 0
12691 12698 12699 0
12163 12160 12700 0
12700 12160 12695 0
12697 12700 12695 0
12701 12700 12697 0
12702 12161 12165 0
12698 12161 12702 0
12698 12702 12699 0
12699 12702 12703 0
12168 12163 12700 0
12704 12169 12168 0
12704 12168 12700 0
12704 12700 12701 0
12705 12169 12704 0
12170 12169 12705 0
12706 12165 12172 0
12702 12165 12706 0
12702 12706 12703 0
12703 12706 12707 0
12175 12705 12708 0
12170 12705 12175 0
12709 12172 12177 0
12706 12172 12709 0
12706 12709 12710 0
12706 12710 12711 0
12706 12711 12707 0
12710 12712 12711 0
12711 12712 12713 0
12712 12714 12713 0
12713 12714 12715 0
12183 12716 12715 0
12183 12715 12714 0
12183 12714 12182 0
12718 12716 12183 0
12718 12183 12184 0
12718 12184 12717 0
12718 12717 12719 0
12720 12185 12708 0
12708 12185 12175 0
12721 12185 12720 0
12186 12185 12721 0
12722 12186 12721 0
12187 12186 12722 0
12725 12723 12724 0
12726 12723 12725 0
12729 12727 12728 0
12730 12727 12729 0
12731 12177 12189 0
12709 12177 12731 0
12731 12710 12709 0
12732 12710 12731 0
12732 12712 12710 0
12733 12712 12732 0
12714 12712 12733 0
12193 12714 12733 0
12192 12193 12733 0
12193 12182 12714 0
12734 12184 12195 0
12717 12184 12734 0
12717 12734 12719 0
12719 12734 12735 0
12197 12722 12736 0
12187 12722 12197 0
12723 12738 12724 0
12737 12738 12723 0
12739 12200 12726 0
12200 12723 12726 0
12200 12199 12723 0
12199 12737 12723 0
12740 12728 12727 0
12740 12739 12728 0
12201 12739 12740 0
12200 12739 12201 0
12730 12740 12727 0
12741 12740 12730 0
12731 12189 12202 0
12742 12732 12731 0
12204 12742 12731 0
12202 12204 12731 0
12742 12733 12732 0
12743 12733 12742 0
12733 12206 12192 0
12743 12206 12733 0
12744 12195 12208 0
12734 12195 12744 0
12734 12744 12735 0
12735 12744 12745 0
12746 12209 12736 0
12736 12209 12197 0
12210 12209 12746 0
12210 12746 12738 0
12210 12738 12737 0
12737 12199 12210 0
12212 12201 12740 0
12741 12747 12213 0
12740 12741 12213 0
12212 12740 12213 0
12742 12204 12214 0
12214 12743 12742 0
12215 12743 12214 0
12215 12206 12743 0
12748 12208 12217 0
12744 12208 12748 0
12744 12748 12745 0
12745 12748 12749 0
12750 12219 12747 0
12747 12219 12213 0
12751 12219 12750 0
12221 12219 12751 0
12752 12221 12751 0
12223 12221 12752 0
12753 12223 12752 0
12225 12223 12753 0
12754 12225 12753 0
12226 12225 12754 0
12757 12755 12756 0
12758 12755 12757 0
12748 12217 12227 0
12748 12760 12749 0
12748 12227 12760 0
12227 12759 12760 0
12228 12759 12227 0
12760 12759 12761 0
12229 12226 12754 0
12229 12754 12763 0
12229 12763 12762 0
12764 12762 12763 0
12756 12755 12765 0
12755 12758 12765 0
12766 12767 12768 0
12769 12766 12768 0
12770 12228 12230 0
12759 12228 12770 0
12759 12770 12761 0
12761 12770 12771 0
12231 12229 12762 0
12773 12762 12764 0
12773 12772 12762 0
12772 12231 12762 0
12232 12231 12772 0
12774 12772 12773 0
12767 12766 12775 0
12766 12769 12775 0
12776 12230 12233 0
12770 12230 12776 0
12770 12776 12771 0
12771 12776 12777 0
12234 12232 12772 0
12778 12235 12234 0
12778 12234 12772 0
12778 12772 12774 0
12779 12235 12778 0
12236 12235 12779 0
12780 12236 12779 0
12238 12236 12780 0
12781 12238 12780 0
12239 12238 12781 0
12776 12233 12241 0
12777 12782 12783 0
12777 12243 12782 0
12776 12243 12777 0
12241 12243 12776 0
12244 12782 12243 0
12784 12245 12781 0
12781 12245 12239 0
12785 12245 12784 0
12247 12245 12785 0
12786 12247 12785 0
12248 12247 12786 0
12783 12782 12787 0
12789 12787 12788 0
12787 12250 12788 0
12787 12782 12250 0
12782 12244 12250 0
12788 12790 12789 0
12789 12790 12791 0
12791 12790 12792 0
12793 12252 12786 0
12786 12252 12248 0
12252 12793 12795 0
12253 12252 12795 0
12794 12253 12795 0
12796 12794 12795 0
12798 12255 12797 0
12256 12255 12798 0
12799 12256 12798 0
12257 12256 12799 0
12259 12258 12800 0
12260 12800 12801 0
12259 12800 12260 0
12260 12801 12262 0
12802 12250 12264 0
12788 12250 12802 0
12802 12790 12788 0
12803 12790 12802 0
12790 12803 12792 0
12792 12803 12804 0
12265 12253 12794 0
12805 12266 12265 0
12805 12265 12794 0
12805 12794 12796 0
12806 12266 12805 0
12267 12266 12806 0
12807 12267 12806 0
12268 12267 12807 0
12268 12807 12255 0
12255 12807 12797 0
12270 12799 12808 0
12257 12799 12270 0
12809 12258 12271 0
12800 12258 12809 0
12809 12801 12800 0
12810 12801 12809 0
12801 12810 12811 0
12262 12801 12811 0
12272 12262 12811 0
12273 12811 12812 0
12272 12811 12273 0
12273 12812 12274 0
12802 12264 12276 0
12813 12803 12802 0
12277 12813 12802 0
12276 12277 12802 0
12803 12813 12814 0
12803 12814 12815 0
12803 12815 12804 0
12815 12814 12816 0
12817 12278 12808 0
12808 12278 12270 0
12818 12278 12817 0
12279 12278 12818 0
12819 12279 12818 0
12280 12279 12819 0
12281 12280 12819 0
12820 12281 12819 0
12821 12820 12819 0
12282 12820 12822 0
12281 12820 12282 0
12282 12822 12283 0
12271 12284 12823 0
12809 12271 12823 0
12824 12809 12823 0
12824 12825 12809 0
12809 12825 12810 0
12826 12811 12810 0
12826 12810 12825 0
12826 12825 12827 0
12826 12812 12811 0
12828 12812 12826 0
12812 12286 12274 0
12828 12286 12812 0
12813 12277 12287 0
12829 12814 12813 0
12288 12829 12813 0
12287 12288 12813 0
12814 12829 12816 0
12816 12829 12830 0
12831 12820 12821 0
12831 12832 12820 0
12820 12832 12822 0
12832 12833 12289 0
12832 12289 12283 0
12832 12283 12822 0
12834 12289 12833 0
12290 12289 12834 0
12835 12290 12834 0
12291 12290 12835 0
12836 12291 12835 0
12292 12291 12836 0
12284 12837 12823 0
12293 12837 12284 0
12838 12826 12827 0
12839 12828 12826 0
12839 12826 12838 0
12839 12838 12840 0
12828 12295 12286 0
12839 12295 12828 0
12829 12288 12297 0
12829 12842 12830 0
12829 12297 12842 0
12297 12841 12842 0
12298 12841 12297 0
12841 12843 12842 0
12842 12843 12844 0
12844 12843 12845 0
12846 12299 12300 0
12847 12846 12301 0
12301 12846 12300 0
12302 12847 12301 0
12848 12303 12836 0
12836 12303 12292 0
12849 12303 12848 0
12304 12303 12849 0
12850 12304 12849 0
12306 12304 12850 0
12851 12306 12850 0
12307 12306 12851 0
12293 12852 12837 0
12308 12852 12293 0
12840 12854 12839 0
12839 12854 12853 0
12839 12310 12295 0
12853 12310 12839 0
12841 12298 12311 0
12311 12843 12841 0
12312 12843 12311 0
12312 12314 12855 0
12843 12312 12855 0
12845 12843 12855 0
12857 12855 12314 0
12857 12314 12315 0
12857 12315 12856 0
12856 12858 12857 0
12857 12858 12859 0
12859 12858 12860 0
12316 12299 12846 0
12846 12847 12316 0
12316 12847 12317 0
12847 12302 12317 0
12861 12318 12851 0
12851 12318 12307 0
12862 12318 12861 0
12320 12318 12862 0
12308 12863 12852 0
12321 12863 12308 0
12865 12864 12866 0
12864 12867 12853 0
12864 12853 12854 0
12864 12854 12866 0
12853 12322 12310 0
12867 12322 12853 0
12856 12315 12323 0
12323 12858 12856 0
12324 12858 12323 0
12324 12325 12868 0
12858 12324 12868 0
12860 12858 12868 0
12868 12327 12869 0
12325 12327 12868 0
12869 12329 12870 0
12327 12329 12869 0
12870 12329 12871 0
12871 12329 12330 0
12872 12331 12862 0
12862 12331 12320 0
12873 12331 12872 0
12332 12331 12873 0
12874 12332 12873 0
12333 12332 12874 0
12875 12333 12874 0
12335 12333 12875 0
12863 12321 12336 0
12877 12863 12336 0
12876 12877 12336 0
12876 12878 12877 0
12877 12878 12879 0
12878 12865 12879 0
12878 12338 12865 0
12338 12864 12865 0
12339 12864 12338 0
12339 12867 12864 0
12340 12867 12339 0
12340 12322 12867 0
12330 12880 12871 0
12343 12880 12330 0
12882 12881 12883 0
12881 12884 12883 0
12883 12884 12885 0
12884 12886 12885 0
12885 12886 12887 0
12886 12888 12887 0
12887 12888 12889 0
12345 12890 12889 0
12345 12889 12888 0
12345 12888 12344 0
12890 12346 12891 0
12345 12346 12890 0
12891 12346 12892 0
12892 12346 12347 0
12335 12875 12894 0
12335 12894 12893 0
12335 12893 12348 0
12348 12893 12350 0
12876 12336 12351 0
12351 12878 12876 0
12352 12878 12351 0
12352 12338 12878 0
12880 12353 12895 0
12343 12353 12880 0
12895 12353 12354 0
12882 12895 12354 0
12881 12882 12354 0
12354 12884 12881 0
12355 12884 12354 0
12355 12886 12884 0
12356 12886 12355 0
12356 12888 12886 0
12357 12888 12356 0
12357 12344 12888 0
12347 12896 12892 0
12358 12896 12347 0
12897 12893 12894 0
12897 12898 12359 0
12897 12359 12350 0
12897 12350 12893 0
12899 12359 12898 0
12360 12359 12899 0
12900 12360 12899 0
12361 12360 12900 0
12901 12361 12900 0
12362 12361 12901 0
12363 12362 12901 0
12902 12363 12901 0
12903 12902 12901 0
12363 12902 12365 0
12906 12904 12905 0
12906 12907 12904 0
12908 12907 12906 0
12908 12909 12907 0
12910 12909 12908 0
12911 12909 12910 0
12358 12912 12896 0
12367 12912 12358 0
12913 12902 12903 0
12913 12914 12368 0
12913 12368 12365 0
12913 12365 12902 0
12915 12368 12914 0
12369 12368 12915 0
12916 12369 12915 0
12370 12369 12916 0
12371 12917 12905 0
12372 12371 12905 0
12904 12372 12905 0
12904 12907 12372 0
12372 12907 12373 0
12907 12909 12373 0
12373 12909 12374 0
12918 12376 12374 0
12918 12374 12909 0
12918 12909 12911 0
12919 12376 12918 0
12377 12376 12919 0
12379 12378 12920 0
12380 12920 12921 0
12379 12920 12380 0
12922 12912 12367 0
12922 12367 12380 0
12922 12380 12921 0
12923 12381 12916 0
12916 12381 12370 0
12924 12381 12923 0
12382 12381 12924 0
12382 12924 12926 0
12383 12382 12926 0
12925 12383 12926 0
12927 12925 12926 0
12371 12928 12917 0
12384 12928 12371 0
12385 12919 12929 0
12377 12919 12385 0
12920 12378 12386 0
12930 12921 12920 0
12387 12930 12920 0
12386 12387 12920 0
12921 12930 12922 0
12922 12930 12931 0
12388 12383 12925 0
12932 12390 12388 0
12932 12388 12925 0
12932 12925 12927 0
12933 12390 12932 0
12391 12390 12933 0
12384 12934 12928 0
12392 12934 12384 0
12393 12385 12929 0
12393 12929 12936 0
12393 12936 12935 0
12936 12937 12935 0
12938 12937 12936 0
12938 12939 12396 0
12937 12938 12396 0
12395 12937 12396 0
12940 12396 12939 0
12398 12396 12940 0
12941 12398 12940 0
12400 12398 12941 0
12942 12400 12941 0
12402 12400 12942 0
12943 12402 12942 0
12403 12402 12943 0
12944 12387 12404 0
12930 12387 12944 0
12930 12944 12945 0
12930 12945 12946 0
12930 12946 12931 0
12946 12945 12947 0
12948 12405 12949 0
12949 12405 12406 0
12391 12949 12406 0
12933 12949 12391 0
12392 12950 12934 0
12407 12950 12392 0
12408 12393 12935 0
12935 12937 12408 0
12408 12937 12409 0
12937 12395 12409 0
12414 12943 12951 0
12403 12943 12414 0
12944 12404 12415 0
12415 12945 12944 0
12416 12945 12415 0
12416 12417 12952 0
12945 12416 12952 0
12947 12945 12952 0
12954 12952 12417 0
12954 12417 12418 0
12954 12418 12953 0
12953 12955 12954 0
12954 12955 12956 0
12956 12955 12957 0
12958 12422 12423 0
12405 12948 12959 0
12423 12405 12959 0
12958 12423 12959 0
12407 12960 12950 0
12424 12960 12407 0
12961 12428 12951 0
12951 12428 12414 0
12428 12961 12963 0
12429 12428 12963 0
12962 12429 12963 0
12964 12962 12963 0
12953 12418 12430 0
12430 12955 12953 0
12431 12955 12430 0
12431 12433 12965 0
12955 12431 12965 0
12957 12955 12965 0
12965 12435 12966 0
12433 12435 12965 0
12966 12437 12967 0
12435 12437 12966 0
12967 12438 12968 0
12437 12438 12967 0
12968 12439 12969 0
12438 12439 12968 0
12969 12440 12970 0
12439 12440 12969 0
12970 12441 12971 0
12440 12441 12970 0
12971 12442 12972 0
12441 12442 12971 0
12972 12443 12973 0
12442 12443 12972 0
12973 12444 12974 0
12443 12444 12973 0
12974 12445 12975 0
12444 12445 12974 0
12975 12446 12976 0
12445 12446 12975 0
12976 12446 12447 0
12976 12447 12977 0
12976 12977 12978 0
12979 12977 12448 0
12448 12977 12447 0
12448 12449 12981 0
12448 12981 12980 0
12448 12980 12979 0
12981 12450 12982 0
12449 12450 12981 0
12982 12450 12983 0
12983 12450 12451 0
12984 12452 12453 0
12985 12984 12454 0
12454 12984 12453 0
12986 12958 12987 0
12986 12985 12958 0
12985 12422 12958 0
12454 12422 12985 0
12958 12959 12987 0
12424 12988 12960 0
12455 12988 12424 0
12989 12456 12429 0
12989 12429 12962 0
12989 12962 12990 0
12962 12964 12990 0
12978 12977 12991 0
12977 12992 12991 0
12979 12992 12977 0
12979 12980 12992 0
12994 12458 12993 0
12459 12458 12994 0
12459 12994 12451 0
12451 12994 12983 0
12995 12460 12461 0
12996 12984 12997 0
12996 12995 12984 0
12995 12452 12984 0
12461 12452 12995 0
12984 12998 12997 0
12985 12998 12984 0
12985 12986 12998 0
12455 12999 12988 0
12462 12999 12455 0
13000 12464 12465 0
12456 12989 13001 0
12465 12456 13001 0
13000 12465 13001 0
12469 12468 13002 0
12470 13002 13003 0
12469 13002 12470 0
13005 12471 12470 0
13004 13005 12470 0
13003 13004 12470 0
13006 12471 13005 0
12472 12471 13006 0
13007 12472 13006 0
12473 12472 13007 0
13008 12473 13007 0
12474 12473 13008 0
12474 13008 12458 0
12458 13008 12993 0
13009 12475 13010 0
13010 12475 12476 0
13011 13010 12476 0
12995 13011 12476 0
12460 12995 12476 0
12995 12996 13011 0
12462 13012 12999 0
12477 13012 12462 0
13013 12478 12464 0
13013 12464 13000 0
13013 13000 13014 0
13000 13001 13014 0
12480 12479 13015 0
13017 12481 12480 0
13016 13017 12480 0
13015 13016 12480 0
13018 12481 13017 0
12482 12481 13018 0
12482 13018 13019 0
12482 13019 13002 0
12482 13002 12468 0
13019 13020 13002 0
13002 13020 13003 0
13020 13004 13003 0
12483 13009 13021 0
12475 13009 12483 0
12477 13022 13012 0
12484 13022 12477 0
12485 13013 13023 0
12478 13013 12485 0
12488 12487 13024 0
13015 13025 13026 0
13015 12479 13025 0
12479 13024 13025 0
12488 13024 12479 0
13026 13016 13015 0
13027 12489 13028 0
13028 12489 12490 0
12483 13028 12490 0
13021 13028 12483 0
12484 13029 13022 0
12491 13029 12484 0
12493 13023 13030 0
12485 13023 12493 0
13031 12487 12495 0
13024 12487 13031 0
13024 13031 13025 0
13025 13031 13032 0
13033 12496 12497 0
12489 13027 13034 0
12497 12489 13034 0
13033 12497 13034 0
13029 12499 13035 0
12491 12499 13029 0
13035 12499 13036 0
13036 12499 12500 0
13038 13037 13039 0
12502 12493 13030 0
13037 12502 13030 0
13039 13037 13030 0
13031 12495 12503 0
12504 13040 13032 0
12504 13032 13031 0
12504 13031 12503 0
13042 13041 13043 0
13043 13033 13044 0
13043 12496 13033 0
13041 12496 13043 0
12505 12496 13041 0
13033 13034 13044 0
12500 13045 13036 0
12506 13045 12500 0
13046 13037 13038 0
13047 12508 12502 0
13046 13047 12502 0
13037 13046 12502 0
13049 13040 12504 0
13048 13049 12504 0
12512 13048 12504 0
12513 13048 12512 0
13050 13041 13042 0
13051 12514 12505 0
13050 13051 12505 0
13041 13050 12505 0
12506 13052 13045 0
12515 13052 12506 0
13053 12516 13047 0
13047 12516 12508 0
13054 12516 13053 0
12517 12516 13054 0
13055 12517 13054 0
12518 12517 13055 0
13056 12518 13055 0
12519 12518 13056 0
13057 12519 13056 0
12520 12519 13057 0
13058 12520 13057 0
12521 12520 13058 0
13059 12521 13058 0
12523 12521 13059 0
13060 12523 13059 0
12524 12523 13060 0
13049 13048 13061 0
12525 13062 13061 0
12513 12525 13061 0
13048 12513 13061 0
13062 12525 13063 0
13063 12525 12526 0
12527 13051 13064 0
12514 13051 12527 0
12515 13065 13052 0
12528 13065 12515 0
12530 13060 13066 0
12524 13060 12530 0
13068 12533 13067 0
12534 12533 13068 0
13069 12534 13068 0
12535 12534 13069 0
13070 12535 13069 0
12536 12535 13070 0
13071 12536 13070 0
12537 12536 13071 0
12537 13071 12526 0
12526 13071 13063 0
12539 13064 13072 0
12527 13064 12539 0
12528 13073 13065 0
12540 13073 12528 0
13074 12541 13066 0
13066 12541 12530 0
13075 12541 13074 0
12542 12541 13075 0
13076 12542 13075 0
12543 12542 13076 0
13077 12543 13076 0
12544 12543 13077 0
13078 12544 13077 0
12545 12544 13078 0
13079 12545 13078 0
12546 12545 13079 0
13080 12546 13079 0
12547 12546 13080 0
13081 12547 13080 0
12548 12547 13081 0
13082 12548 13081 0
12549 12548 13082 0
13083 12549 13082 0
12550 12549 13083 0
13084 12550 13083 0
12552 12550 13084 0
13085 12552 13084 0
12554 12552 13085 0
12554 13085 13087 0
12555 12554 13087 0
13086 12555 13087 0
13087 13088 12558 0
13086 13087 12558 0
12557 13086 12558 0
13089 12558 13088 0
12559 12558 13089 0
13090 12559 13089 0
12560 12559 13090 0
12560 13090 12533 0
12533 13090 13067 0
13091 12561 13092 0
13092 12561 12562 0
12539 13092 12562 0
13072 13092 12539 0
13073 12564 13093 0
12540 12564 13073 0
13093 12564 13094 0
13094 12564 12565 0
12566 12555 13086 0
13086 12557 12566 0
13095 12567 13096 0
13096 12567 12568 0
12561 13096 12568 0
13091 13096 12561 0
12565 13097 13094 0
12570 13097 12565 0
13099 13098 13100 0
12572 12567 13095 0
13098 12572 13095 0
13100 13098 13095 0
12570 13101 13097 0
12574 13101 12570 0
13099 13102 12575 0
13099 12575 12576 0
13099 12576 13098 0
12576 12572 13098 0
12574 13103 13101 0
12578 13103 12574 0
12579 13102 13104 0
12575 13102 12579 0
12578 13105 13103 0
12580 13105 12578 0
13106 12581 13107 0
13107 12581 12582 0
12579 13107 12582 0
13104 13107 12579 0
12580 13108 13105 0
12583 13108 12580 0
13110 13109 13111 0
12586 13112 13111 0
12586 13111 13109 0
12586 13109 12585 0
12581 13112 12586 0
13106 13112 12581 0
12583 13113 13108 0
12587 13113 12583 0
13110 13114 12588 0
13110 12588 12589 0
13110 12589 13109 0
12589 12585 13109 0
12587 13115 13113 0
12590 13115 12587 0
13116 12591 13117 0
13117 12591 12592 0
12588 13117 12592 0
13114 13117 12588 0
13115 12593 13118 0
12590 12593 13115 0
13118 12593 13119 0
13119 12593 12594 0
13120 12595 13121 0
13121 12595 12596 0
13121 12597 13122 0
12596 12597 13121 0
12591 13122 12597 0
13116 13122 12591 0
13119 12598 13123 0
12594 12598 13119 0
13123 12598 13124 0
13124 12598 12599 0
13125 12601 13126 0
13126 12601 12602 0
12595 13126 12602 0
13120 13126 12595 0
12599 13127 13124 0
12603 13127 12599 0
13128 12604 12605 0
12605 12606 13130 0
12605 13130 13129 0
12605 13129 13128 0
12601 13130 12606 0
13125 13130 12601 0
13127 12608 13131 0
12603 12608 13127 0
13131 12608 13132 0
13132 12608 12609 0
13133 12610 12611 0
13134 13133 12612 0
12612 13133 12611 0
13135 13134 12613 0
12613 13134 12612 0
13136 13135 12614 0
12614 13135 12613 0
13137 13136 12615 0
12615 13136 12614 0
12615 12617 13139 0
12615 13139 13138 0
12615 13138 13137 0
13141 13139 12617 0
13141 12617 12618 0
13141 12618 13140 0
13141 13140 13142 0
13144 13143 13145 0
13143 13146 13145 0
13145 13146 13147 0
12620 13148 13147 0
12620 13147 13146 0
12620 13146 12619 0
13149 13148 12620 0
13128 13149 12620 0
12604 13128 12620 0
13128 13129 13149 0
13132 12609 12621 0
13151 13132 12621 0
13150 13151 12621 0
13150 13152 13151 0
13151 13152 13153 0
13153 13152 13154 0
12626 12610 13155 0
13155 12610 13133 0
13155 13133 13134 0
13156 13155 13134 0
13157 13156 13134 0
13134 13158 13157 0
13135 13158 13134 0
13135 13159 13158 0
13136 13159 13135 0
13136 13160 13159 0
13137 13160 13136 0
13137 13138 13160 0
13140 12618 12628 0
13140 13162 13142 0
13140 12628 13162 0
12628 13161 13162 0
12629 13161 12628 0
13161 13163 13162 0
13162 13163 13164 0
13164 13163 13165 0
13166 12630 13167 0
13167 12630 12631 0
13167 12632 13168 0
12631 12632 13167 0
13168 12633 13169 0
12632 12633 13168 0
13169 12634 13170 0
12633 12634 13169 0
13170 12634 12635 0
13144 13170 12635 0
13143 13144 12635 0
12635 13146 13143 0
12636 13146 12635 0
12636 12619 13146 0
12639 12638 13171 0
13171 13172 13150 0
12639 13171 13150 0
12621 12639 13150 0
13172 13152 13150 0
13173 13152 13172 0
13152 13173 13174 0
13152 13174 13175 0
13152 13175 13154 0
12644 13176 13175 0
12644 13175 13174 0
12644 13174 12643 0
13176 12644 12645 0
13176 12645 13177 0
13176 13177 13178 0
13179 13155 13180 0
13179 13177 13155 0
13177 12626 13155 0
12645 12626 13177 0
13155 13156 13180 0
13161 12629 12646 0
12646 13163 13161 0
12647 13163 12646 0
12647 12648 13181 0
13163 12647 13181 0
13165 13163 13181 0
13181 12649 13182 0
12648 12649 13181 0
13182 12649 13183 0
13183 12649 12650 0
13184 12651 13185 0
13185 12651 12652 0
13185 12653 13186 0
12652 12653 13185 0
13186 12654 13187 0
12653 12654 13186 0
12630 13187 12654 0
13166 13187 12630 0
13188 12638 12656 0
13171 12638 13188 0
13188 13172 13171 0
13189 13172 13188 0
13173 13172 13189 0
12659 13173 13189 0
12658 12659 13189 0
12659 13174 13173 0
12660 13174 12659 0
12660 12643 13174 0
13178 13177 13190 0
13177 13179 13190 0
13183 12661 13191 0
12650 12661 13183 0
13191 12662 13192 0
12661 12662 13191 0
13192 12663 13193 0
12662 12663 13192 0
13193 12664 13194 0
12663 12664 13193 0
13194 12665 13195 0
12664 12665 13194 0
13195 12666 13196 0
12665 12666 13195 0
13196 12667 13197 0
12666 12667 13196 0
13197 12668 13198 0
12667 12668 13197 0
13198 12669 13199 0
12668 12669 13198 0
12651 13199 12669 0
13184 13199 12651 0
13188 12656 12670 0
12670 13189 13188 0
12671 13189 12670 0
12671 12658 13189 0
13202 13200 13201 0
13203 13200 13202 0
12673 12672 13204 0
13205 13201 13204 0
13201 12673 13204 0
13201 13200 12673 0
13200 12674 12673 0
13206 12675 12674 0
13206 12674 13200 0
13206 13200 13203 0
13207 12675 13206 0
12676 12675 13207 0
12677 12676 13207 0
13208 12677 13207 0
13209 13208 13207 0
12677 13208 12678 0
13204 12672 12680 0
12681 13210 13205 0
12681 13205 13204 0
12681 13204 12680 0
13211 13208 13209 0
13211 13212 12682 0
13211 12682 12678 0
13211 12678 13208 0
13213 12682 13212 0
12683 12682 13213 0
12681 13214 13210 0
12685 13214 12681 0
12686 13213 13215 0
12683 13213 12686 0
12685 13216 13214 0
12688 13216 12685 0
12689 12686 13215 0
12689 13215 13218 0
12689 13218 13217 0
13219 13217 13218 0
12688 13220 13216 0
12691 13220 12688 0
12692 12689 13217 0
13221 12693 12692 0
13221 12692 13217 0
13221 13217 13219 0
13222 12693 13221 0
12694 12693 13222 0
13223 12694 13222 0
12696 12694 13223 0
13224 12696 13223 0
12697 12696 13224 0
12691 13225 13220 0
12699 13225 12691 0
12701 13224 13226 0
12697 13224 12701 0
13225 12699 12703 0
13228 13225 12703 0
13227 13228 12703 0
13227 13229 13228 0
13228 13229 13230 0
13229 13231 13230 0
13230 13231 13232 0
13232 13231 13233 0
13234 12704 13226 0
13226 12704 12701 0
13235 12704 13234 0
12705 12704 13235 0
13236 12703 12707 0
13227 12703 13236 0
13236 13229 13227 0
13237 13229 13236 0
13237 13231 13229 0
13238 13231 13237 0
13231 13238 13239 0
13231 13239 13240 0
13231 13240 13233 0
13240 13239 13241 0
12708 13235 13242 0
12705 13235 12708 0
13244 13245 13243 0
12707 12711 13236 0
13243 13245 13246 0
13245 13247 13246 0
13236 12711 12713 0
13237 13236 12713 0
13238 12713 12715 0
13237 12713 13238 0
13248 13246 13247 0
12715 13239 13238 0
12716 13239 12715 0
12716 12718 13249 0
13239 12716 13249 0
13241 13239 13249 0
13249 12718 13250 0
13250 12718 12719 0
13251 12720 13242 0
13242 12720 12708 0
13252 12720 13251 0
12721 12720 13252 0
12721 13252 13254 0
12722 12721 13254 0
13253 12722 13254 0
13254 13255 12725 0
13253 13254 12725 0
12724 13253 12725 0
13256 12725 13255 0
12726 12725 13256 0
12729 12728 13257 0
12729 13257 12730 0
13243 13259 13244 0
13258 13259 13243 0
13260 13243 13246 0
13258 13243 13260 0
13248 13260 13246 0
13261 13260 13248 0
12719 13262 13250 0
12735 13262 12719 0
12736 12722 13263 0
13263 12722 13253 0
12724 12738 13253 0
13253 12738 13263 0
13264 12739 13256 0
13256 12739 12726 0
12739 13264 13265 0
12739 13265 13257 0
12739 13257 12728 0
13266 12741 12730 0
13265 13266 12730 0
13257 13265 12730 0
13258 13268 13259 0
13267 13268 13258 0
13269 13258 13260 0
13267 13258 13269 0
13261 13269 13260 0
13270 13269 13261 0
13262 12735 12745 0
13272 13262 12745 0
13271 13272 12745 0
13272 13271 13273 0
12746 12736 13263 0
13263 12738 12746 0
12747 13266 13274 0
12741 13266 12747 0
13267 13276 13268 0
13275 13276 13267 0
13277 13267 13269 0
13275 13267 13277 0
13270 13277 13269 0
13278 13277 13270 0
13279 12745 12749 0
13271 12745 13279 0
13271 13279 13273 0
13273 13279 13280 0
13281 12750 13274 0
13274 12750 12747 0
13282 12750 13281 0
12751 12750 13282 0
13283 12751 13282 0
12752 12751 13283 0
13284 12752 13283 0
12753 12752 13284 0
13285 12753 13284 0
12754 12753 13285 0
12756 13286 13276 0
12757 12756 13276 0
13275 12757 13276 0
13275 13277 13287 0
13275 13287 12758 0
13275 12758 12757 0
13278 13287 13277 0
13288 13287 13278 0
13279 12749 12760 0
12761 13289 13280 0
12761 13280 13279 0
12761 13279 12760 0
13290 12763 13285 0
13285 12763 12754 0
13291 12763 13290 0
12764 12763 13291 0
13293 13286 12756 0
13292 13293 12756 0
12765 13292 12756 0
13287 12768 12767 0
13287 12767 13292 0
12758 13287 13292 0
12765 12758 13292 0
13288 13294 12769 0
13287 13288 12769 0
12768 13287 12769 0
12761 13295 13289 0
12771 13295 12761 0
13296 12773 13291 0
13291 12773 12764 0
13297 12773 13296 0
12774 12773 13297 0
13292 13299 13293 0
13298 13299 13292 0
13300 13298 13292 0
13300 13292 12767 0
13300 12767 12775 0
12769 13294 13301 0
12775 12769 13301 0
13300 12775 13301 0
12771 13302 13295 0
12777 13302 12771 0
13303 12778 13297 0
13297 12778 12774 0
13304 12778 13303 0
12779 12778 13304 0
12780 12779 13304 0
13305 12780 13304 0
13306 13305 13304 0
12780 13305 12781 0
13298 13308 13299 0
13307 13308 13298 0
13309 13298 13300 0
13307 13298 13309 0
13301 13309 13300 0
13310 13309 13301 0
12777 13311 13302 0
12783 13311 12777 0
13312 13305 13306 0
13312 13313 12784 0
13312 12784 12781 0
13312 12781 13305 0
13314 12784 13313 0
12785 12784 13314 0
13315 12785 13314 0
12786 12785 13315 0
13308 13307 13316 0
13307 13317 13316 0
13309 13317 13307 0
13309 13310 13317 0
13311 12787 13318 0
12783 12787 13311 0
13318 12787 12789 0
13318 12789 13319 0
13318 13319 13320 0
13321 13319 12791 0
12791 13319 12789 0
12792 13321 12791 0
13322 12793 13315 0
13315 12793 12786 0
13323 12793 13322 0
12795 12793 13323 0
13324 12795 13323 0
12796 12795 13324 0
12798 12797 13325 0
12798 13325 12799 0
13320 13319 13326 0
13319 13327 13326 0
13321 13327 13319 0
12792 12804 13328 0
12792 13328 13327 0
12792 13327 13321 0
13329 12805 13324 0
13324 12805 12796 0
13330 12805 13329 0
12806 12805 13330 0
13331 12806 13330 0
12807 12806 13331 0
12807 13331 12797 0
13331 13325 12797 0
13331 13333 13325 0
13333 13332 13325 0
13325 12808 12799 0
13332 12808 13325 0
13336 13334 13335 0
13336 13337 13334 0
13338 13337 13336 0
13339 13337 13338 0
13328 12815 13340 0
12804 12815 13328 0
13340 12815 13341 0
13341 12815 12816 0
13342 13332 13333 0
13342 13343 12817 0
13342 12817 12808 0
13342 12808 13332 0
13344 12817 13343 0
12818 12817 13344 0
12819 12818 13344 0
12819 13344 13335 0
12819 13335 13334 0
13334 13337 12819 0
13337 12821 12819 0
13337 13346 12821 0
13346 13345 12821 0
13337 13339 13346 0
12824 12823 13347 0
12825 13347 13348 0
12824 13347 12825 0
12825 13348 12827 0
13341 12816 12830 0
13350 13341 12830 0
13349 13350 12830 0
13349 13351 13350 0
13350 13351 13352 0
13352 13351 13353 0
13354 12831 13345 0
13345 12831 12821 0
13355 12831 13354 0
12832 12831 13355 0
13356 12832 13355 0
12833 12832 13356 0
12834 12833 13356 0
13357 12834 13356 0
13358 13357 13356 0
12835 13357 13359 0
12834 13357 12835 0
12835 13359 12836 0
13360 12823 12837 0
13347 12823 13360 0
13360 13348 13347 0
13361 13348 13360 0
13348 13361 13362 0
12827 13348 13362 0
12838 12827 13362 0
12838 13362 12840 0
13349 12830 12842 0
12842 13351 13349 0
12844 13351 12842 0
12845 13363 13353 0
12845 13353 13351 0
12845 13351 12844 0
13364 13357 13358 0
13364 13365 13357 0
13357 13365 13359 0
13365 13366 12848 0
13365 12848 12836 0
13365 12836 13359 0
12849 12848 13366 0
13367 12849 13366 0
13368 13367 13366 0
12850 13367 13369 0
12849 13367 12850 0
12850 13369 12851 0
12837 12852 13370 0
13360 12837 13370 0
13371 13360 13370 0
13371 13372 13360 0
13360 13372 13361 0
13373 13362 13361 0
13373 13361 13372 0
13373 13372 13374 0
13362 12854 12840 0
13373 12854 13362 0
13363 12855 13375 0
12845 12855 13363 0
13375 12857 13376 0
12855 12857 13375 0
13376 12859 13377 0
12857 12859 13376 0
13379 13377 12859 0
13379 12859 12860 0
13379 12860 13378 0
13379 13378 13380 0
13382 13381 13383 0
13383 13381 13384 0
13385 13367 13368 0
13385 13386 13367 0
13367 13386 13369 0
13386 12851 13369 0
13386 13388 12851 0
13388 12861 12851 0
13387 12861 13388 0
12861 13387 12862 0
12852 13389 13370 0
12863 13389 12852 0
13374 13390 12865 0
13374 12865 12866 0
13374 12866 13373 0
12866 12854 13373 0
13378 12860 12868 0
12868 12869 13391 0
13378 12868 13391 0
13380 13378 13391 0
13391 12870 13392 0
12869 12870 13391 0
12870 13382 13392 0
12870 13381 13382 0
12871 13381 12870 0
13393 13381 12871 0
13381 13393 13384 0
13384 13393 13394 0
13395 13387 13388 0
13395 13396 12872 0
13395 12872 12862 0
13395 12862 13387 0
13397 12872 13396 0
12873 12872 13397 0
13398 12873 13397 0
12874 12873 13398 0
13399 12874 13398 0
12875 12874 13399 0
13389 12877 13400 0
12863 12877 13389 0
13400 12879 13401 0
12877 12879 13400 0
12865 13401 12879 0
13390 13401 12865 0
13402 12871 12880 0
13393 12871 13402 0
13393 13402 13394 0
13402 13403 13394 0
13402 12882 13403 0
12882 12883 13403 0
13403 12885 13404 0
12883 12885 13403 0
13404 12887 13405 0
12885 12887 13404 0
13405 12889 13406 0
12887 12889 13405 0
13406 12890 13407 0
12889 12890 13406 0
13407 12891 13408 0
12890 12891 13407 0
13408 12891 13409 0
13409 12891 12892 0
12894 13399 13410 0
12875 13399 12894 0
13402 12880 12895 0
12895 12882 13402 0
12892 13411 13409 0
12896 13411 12892 0
13412 12897 13410 0
13410 12897 12894 0
13413 12897 13412 0
12898 12897 13413 0
13414 12898 13413 0
12899 12898 13414 0
13415 12899 13414 0
12900 12899 13415 0
13416 12900 13415 0
12901 12900 13416 0
13417 12901 13416 0
12903 12901 13417 0
13419 12905 13418 0
12906 12905 13419 0
13420 12906 13419 0
12908 12906 13420 0
13421 12908 13420 0
12910 12908 13421 0
12910 13421 13423 0
12911 12910 13423 0
13422 12911 13423 0
13423 13424 13422 0
13425 13424 13423 0
13425 13426 13424 0
13427 13426 13425 0
13428 13426 13427 0
12896 13429 13411 0
12912 13429 12896 0
13430 12913 13417 0
13417 12913 12903 0
13431 12913 13430 0
12914 12913 13431 0
13432 12914 13431 0
12915 12914 13432 0
12915 13432 13434 0
12916 12915 13434 0
13433 12916 13434 0
13435 13433 13434 0
12905 13436 13418 0
12917 13436 12905 0
12918 12911 13422 0
13422 13424 13437 0
13422 13437 12919 0
13422 12919 12918 0
13438 13424 13426 0
13437 13424 13438 0
13439 13438 13426 0
13440 13439 13426 0
13428 13440 13426 0
13440 13441 13439 0
13442 13441 13440 0
13442 13443 13441 0
13444 13443 13442 0
13444 13445 13443 0
13446 13445 13444 0
13447 13445 13446 0
12912 13448 13429 0
12922 13448 12912 0
12923 12916 13433 0
13449 12924 12923 0
13449 12923 13433 0
13449 13433 13435 0
12926 12924 13449 0
13450 12926 13449 0
13451 13450 13449 0
12926 13450 12927 0
12917 13452 13436 0
12928 13452 12917 0
12929 12919 13453 0
13453 12919 13437 0
13454 13437 13438 0
13453 13437 13454 0
13455 13438 13439 0
13454 13438 13455 0
13456 13439 13441 0
13455 13439 13456 0
13457 13441 13443 0
13456 13441 13457 0
13458 13443 13445 0
13457 13443 13458 0
13447 13458 13445 0
13459 13458 13447 0
12922 13460 13448 0
12931 13460 12922 0
13461 13450 13451 0
13461 13462 12932 0
13461 12932 12927 0
13461 12927 13450 0
13463 12932 13462 0
12933 12932 13463 0
12928 13464 13452 0
12934 13464 12928 0
12936 12929 13453 0
13453 13454 12936 0
12936 13454 12938 0
13454 13455 12938 0
12938 13455 12939 0
13455 13456 12939 0
12939 13456 12940 0
13456 13457 12940 0
12940 13457 12941 0
13457 13458 12941 0
12941 13458 12942 0
13466 13458 13459 0
13466 13465 13458 0
13465 12942 13458 0
12943 12942 13465 0
13466 13467 13465 0
13468 13467 13466 0
13469 13467 13468 0
13460 12946 13470 0
12931 12946 13460 0
13470 12946 13471 0
13471 12946 12947 0
13472 12948 13473 0
13473 12948 12949 0
12933 13473 12949 0
13463 13473 12933 0
12934 13474 13464 0
12950 13474 12934 0
12951 12943 13475 0
13475 12943 13465 0
13476 13465 13467 0
13475 13465 13476 0
13469 13476 13467 0
13477 13476 13469 0
13471 12952 13478 0
12947 12952 13471 0
13478 12954 13479 0
12952 12954 13478 0
13479 12956 13480 0
12954 12956 13479 0
13482 13480 12956 0
13482 12956 12957 0
13482 12957 13481 0
13482 13481 13483 0
12959 13472 13484 0
12948 13472 12959 0
12950 13485 13474 0
12960 13485 12950 0
12961 12951 13475 0
13475 13476 12961 0
12961 13476 12963 0
13477 13486 12964 0
13476 13477 12964 0
12963 13476 12964 0
13481 12957 12965 0
12965 12966 13487 0
13481 12965 13487 0
13483 13481 13487 0
13487 12967 13488 0
12966 12967 13487 0
13488 12968 13489 0
12967 12968 13488 0
13489 12969 13490 0
12968 12969 13489 0
13490 12970 13491 0
12969 12970 13490 0
13491 12971 13492 0
12970 12971 13491 0
13492 12972 13493 0
12971 12972 13492 0
13493 12973 13494 0
12972 12973 13493 0
13494 12974 13495 0
12973 12974 13494 0
13495 12975 13496 0
12974 12975 13495 0
13496 12976 13497 0
12975 12976 13496 0
13497 12976 13498 0
13498 12976 12978 0
13499 12980 13500 0
13500 12980 12981 0
13500 12982 13501 0
12981 12982 13500 0
13501 12982 13502 0
13502 12982 12983 0
13503 12986 12987 0
12959 13484 13504 0
12987 12959 13504 0
13503 12987 13504 0
12960 13505 13485 0
12988 13505 12960 0
13506 12989 12990 0
12964 13486 13507 0
12990 12964 13507 0
13506 12990 13507 0
13498 12991 13508 0
12978 12991 13498 0
13508 12992 13509 0
12991 12992 13508 0
12980 13509 12992 0
13499 13509 12980 0
13511 12993 13510 0
12994 12993 13511 0
12994 13511 12983 0
12983 13511 13502 0
13512 12996 13513 0
13513 12996 12997 0
13513 12998 13514 0
12997 12998 13513 0
13515 13514 12998 0
13503 13515 12998 0
12986 13503 12998 0
13503 13504 13515 0
12988 13516 13505 0
12999 13516 12988 0
13517 13001 12989 0
13517 12989 13506 0
13517 13506 13518 0
13506 13507 13518 0
13520 13004 13519 0
13005 13004 13520 0
13521 13005 13520 0
13006 13005 13521 0
13522 13006 13521 0
13007 13006 13522 0
13523 13007 13522 0
13008 13007 13523 0
13008 13523 12993 0
12993 13523 13510 0
13524 13009 13010 0
13010 13011 13526 0
13010 13526 13525 0
13010 13525 13524 0
12996 13526 13011 0
13512 13526 12996 0
12999 13527 13516 0
13012 13527 12999 0
13528 13013 13529 0
13529 13013 13014 0
