#!ascii version of
176 348
-35.000000  -16.500000  13.000000  0
-34.500000  -16.000000  13.000000  0
-35.000000  -16.000000  13.500000  0
-35.500000  -16.000000  13.000000  0
-35.000000  -16.000000  12.500000  0
-34.500000  -15.000000  13.000000  0
-35.000000  -15.000000  13.500000  0
-35.500000  -15.000000  13.000000  0
-35.000000  -15.500000  12.000000  0
-34.500000  -15.000000  12.000000  0
-35.500000  -15.000000  12.000000  0
-35.000000  -15.000000  11.500000  0
-34.000000  -14.500000  13.000000  0
-33.500000  -14.000000  13.000000  0
-34.000000  -14.000000  13.500000  0
-35.000000  -14.000000  13.500000  0
-35.500000  -14.000000  13.000000  0
-34.000000  -14.500000  12.000000  0
-33.500000  -14.000000  12.000000  0
-35.500000  -14.000000  12.000000  0
-34.000000  -14.000000  11.500000  0
-35.000000  -14.000000  11.500000  0
-30.000000  -13.500000  15.000000  0
-29.500000  -13.000000  15.000000  0
-30.000000  -13.000000  15.500000  0
-31.000000  -13.500000  15.000000  0
-31.000000  -13.000000  15.500000  0
-31.500000  -13.000000  15.000000  0
-30.000000  -13.000000  14.500000  0
-31.000000  -13.500000  14.000000  0
-30.500000  -13.000000  14.000000  0
-32.000000  -13.500000  14.000000  0
-32.000000  -13.000000  14.500000  0
-32.500000  -13.000000  14.000000  0
-31.000000  -13.000000  13.500000  0
-32.000000  -13.500000  13.000000  0
-31.500000  -13.000000  13.000000  0
-33.000000  -13.500000  13.000000  0
-33.000000  -13.000000  13.500000  0
-34.000000  -13.000000  13.500000  0
-35.000000  -13.000000  13.500000  0
-35.500000  -13.000000  13.000000  0
-32.000000  -13.000000  12.500000  0
-33.000000  -13.500000  12.000000  0
-32.500000  -13.000000  12.000000  0
-35.500000  -13.000000  12.000000  0
-33.000000  -13.500000  11.000000  0
-32.500000  -13.000000  11.000000  0
-34.000000  -13.500000  11.000000  0
-35.000000  -13.500000  11.000000  0
-35.500000  -13.000000  11.000000  0
-33.000000  -13.000000  10.500000  0
-34.000000  -13.000000  10.500000  0
-35.000000  -13.000000  10.500000  0
-29.500000  -12.000000  15.000000  0
-30.000000  -12.000000  15.500000  0
-31.000000  -12.500000  15.000000  0
-30.500000  -12.000000  15.000000  0
-30.000000  -12.500000  14.000000  0
-29.500000  -12.000000  14.000000  0
-31.000000  -12.000000  14.500000  0
-32.000000  -12.000000  14.500000  0
-32.500000  -12.000000  14.000000  0
-30.000000  -12.000000  13.500000  0
-31.000000  -12.500000  13.000000  0
-30.500000  -12.000000  13.000000  0
-33.000000  -12.000000  13.500000  0
-34.000000  -12.000000  13.500000  0
-35.000000  -12.500000  13.000000  0
-34.500000  -12.000000  13.000000  0
-31.000000  -12.500000  12.000000  0
-30.500000  -12.000000  12.000000  0
-32.000000  -12.500000  12.000000  0
-35.000000  -12.000000  12.500000  0
-35.500000  -12.000000  12.000000  0
-31.000000  -12.000000  11.500000  0
-32.000000  -12.500000  11.000000  0
-31.500000  -12.000000  11.000000  0
-35.500000  -12.000000  11.000000  0
-32.000000  -12.500000  10.000000  0
-31.500000  -12.000000  10.000000  0
-33.000000  -12.500000  10.000000  0
-34.000000  -12.500000  10.000000  0
-34.500000  -12.000000  10.000000  0
-35.000000  -12.000000  10.500000  0
-32.000000  -12.500000  9.000000  0
-31.500000  -12.000000  9.000000  0
-32.500000  -12.000000  9.000000  0
-33.000000  -12.000000  9.500000  0
-34.000000  -12.000000  9.500000  0
-32.000000  -12.000000  8.500000  0
-30.000000  -11.500000  15.000000  0
-30.000000  -11.500000  14.000000  0
-31.000000  -11.500000  14.000000  0
-32.000000  -11.500000  14.000000  0
-30.500000  -11.000000  13.000000  0
-31.000000  -11.000000  13.500000  0
-32.000000  -11.000000  13.500000  0
-33.000000  -11.500000  13.000000  0
-32.500000  -11.000000  13.000000  0
-34.000000  -11.500000  13.000000  0
-30.500000  -11.000000  12.000000  0
-33.000000  -11.000000  12.500000  0
-34.000000  -11.000000  12.500000  0
-35.000000  -11.500000  12.000000  0
-34.500000  -11.000000  12.000000  0
-31.000000  -11.500000  11.000000  0
-30.500000  -11.000000  11.000000  0
-35.000000  -11.500000  11.000000  0
-34.500000  -11.000000  11.000000  0
-31.000000  -11.500000  10.000000  0
-30.500000  -11.000000  10.000000  0
-34.500000  -11.000000  10.000000  0
-31.000000  -11.500000  9.000000  0
-30.500000  -11.000000  9.000000  0
-32.500000  -11.000000  9.000000  0
-33.000000  -11.000000  9.500000  0
-34.000000  -11.000000  9.500000  0
-31.000000  -11.000000  8.500000  0
-32.000000  -11.000000  8.500000  0
-31.000000  -10.500000  13.000000  0
-32.000000  -10.500000  13.000000  0
-30.500000  -10.000000  12.000000  0
-31.000000  -10.000000  12.500000  0
-32.000000  -10.000000  12.500000  0
-33.000000  -10.500000  12.000000  0
-32.500000  -10.000000  12.000000  0
-34.000000  -10.500000  12.000000  0
-30.500000  -10.000000  11.000000  0
-33.000000  -10.000000  11.500000  0
-34.000000  -10.000000  11.500000  0
-34.500000  -10.000000  11.000000  0
-30.000000  -10.500000  10.000000  0
-29.500000  -10.000000  10.000000  0
-30.000000  -10.000000  10.500000  0
-34.500000  -10.000000  10.000000  0
-30.000000  -10.500000  9.000000  0
-29.500000  -10.000000  9.000000  0
-33.000000  -10.500000  9.000000  0
-33.500000  -10.000000  9.000000  0
-34.000000  -10.000000  9.500000  0
-30.000000  -10.000000  8.500000  0
-31.000000  -10.000000  8.500000  0
-32.000000  -10.000000  8.500000  0
-33.000000  -10.000000  8.500000  0
-31.000000  -9.500000  12.000000  0
-32.000000  -9.500000  12.000000  0
-31.000000  -9.500000  11.000000  0
-32.000000  -9.500000  11.000000  0
-33.000000  -9.500000  11.000000  0
-34.000000  -9.500000  11.000000  0
-29.500000  -9.000000  10.000000  0
-30.000000  -9.000000  10.500000  0
-31.000000  -9.000000  10.500000  0
-32.000000  -9.000000  10.500000  0
-33.000000  -9.000000  10.500000  0
-34.000000  -9.500000  10.000000  0
-33.500000  -9.000000  10.000000  0
-29.500000  -9.000000  9.000000  0
-33.000000  -9.500000  9.000000  0
-32.500000  -9.000000  9.000000  0
-33.000000  -9.000000  9.500000  0
-30.000000  -9.500000  8.000000  0
-29.500000  -9.000000  8.000000  0
-30.500000  -9.000000  8.000000  0
-31.000000  -9.000000  8.500000  0
-32.000000  -9.000000  8.500000  0
-30.000000  -9.000000  7.500000  0
-30.000000  -8.500000  10.000000  0
-31.000000  -8.500000  10.000000  0
-32.000000  -8.500000  10.000000  0
-33.000000  -8.500000  10.000000  0
-30.000000  -8.500000  9.000000  0
-31.000000  -8.500000  9.000000  0
-32.000000  -8.500000  9.000000  0
-30.000000  -8.500000  8.000000  0
2 0 1 0
3 0 2 0
1 0 4 0
0 3 4 0
6 1 5 0
2 1 6 0
7 2 6 0
3 2 7 0
9 5 1 0
8 9 1 0
4 8 1 0
3 7 10 0
4 3 10 0
8 4 10 0
9 8 11 0
8 10 11 0
14 12 13 0
14 15 6 0
12 14 6 0
5 12 6 0
16 6 15 0
7 6 16 0
12 18 13 0
17 18 12 0
5 9 12 0
12 9 17 0
10 16 19 0
7 16 10 0
18 17 20 0
11 21 20 0
9 11 20 0
17 9 20 0
10 21 11 0
19 21 10 0
24 22 23 0
24 25 22 0
26 25 24 0
27 25 26 0
23 22 28 0
22 25 29 0
28 22 29 0
30 28 29 0
31 29 25 0
32 31 25 0
27 32 25 0
33 31 32 0
30 29 34 0
29 31 35 0
34 29 35 0
36 34 35 0
37 35 31 0
38 37 31 0
33 38 31 0
38 39 14 0
37 38 14 0
13 37 14 0
40 14 39 0
15 14 40 0
41 15 40 0
16 15 41 0
36 35 42 0
35 37 43 0
42 35 43 0
44 42 43 0
13 18 37 0
37 18 43 0
19 41 45 0
16 41 19 0
43 47 44 0
46 47 43 0
48 46 43 0
48 43 18 0
48 18 20 0
49 48 21 0
21 48 20 0
19 45 50 0
21 19 50 0
49 21 50 0
47 46 51 0
46 52 51 0
48 52 46 0
48 53 52 0
49 53 48 0
49 50 53 0
55 23 54 0
24 23 55 0
26 24 55 0
56 26 55 0
57 56 55 0
26 56 27 0
59 54 23 0
58 59 23 0
28 58 23 0
60 56 57 0
28 30 58 0
60 61 32 0
60 32 27 0
60 27 56 0
62 32 61 0
33 32 62 0
59 58 63 0
63 64 65 0
63 58 64 0
58 34 64 0
30 34 58 0
36 64 34 0
66 38 62 0
62 38 33 0
67 38 66 0
39 38 67 0
40 39 67 0
68 40 67 0
69 68 67 0
40 68 41 0
64 71 65 0
70 71 64 0
72 70 64 0
72 64 36 0
72 36 42 0
44 72 42 0
73 68 69 0
74 45 41 0
73 74 41 0
68 73 41 0
71 70 75 0
70 72 76 0
75 70 76 0
77 75 76 0
44 47 72 0
72 47 76 0
50 74 78 0
45 74 50 0
76 80 77 0
79 80 76 0
81 79 76 0
81 76 47 0
81 47 51 0
82 81 52 0
52 81 51 0
52 53 84 0
52 84 83 0
52 83 82 0
50 84 53 0
78 84 50 0
79 86 80 0
85 86 79 0
85 79 81 0
87 85 81 0
88 87 81 0
81 89 88 0
82 89 81 0
82 83 89 0
86 85 90 0
85 87 90 0
55 54 91 0
55 91 57 0
92 54 59 0
91 54 92 0
91 92 93 0
57 91 93 0
60 57 93 0
61 93 94 0
60 93 61 0
61 94 62 0
92 59 63 0
93 92 96 0
92 95 96 0
92 63 95 0
63 65 95 0
96 97 93 0
93 97 94 0
97 62 94 0
97 99 62 0
99 66 62 0
98 66 99 0
67 98 100 0
66 98 67 0
67 100 69 0
65 101 95 0
71 101 65 0
102 98 99 0
102 103 98 0
98 103 100 0
103 69 100 0
103 105 69 0
105 73 69 0
104 73 105 0
73 104 74 0
107 101 71 0
106 107 71 0
75 106 71 0
77 106 75 0
105 109 104 0
104 109 108 0
104 78 74 0
108 78 104 0
106 111 107 0
110 111 106 0
77 80 106 0
106 80 110 0
109 112 83 0
109 83 84 0
109 84 108 0
84 78 108 0
110 114 111 0
113 114 110 0
80 86 110 0
110 86 113 0
115 87 116 0
116 87 88 0
116 89 117 0
88 89 116 0
83 117 89 0
112 117 83 0
114 113 118 0
90 119 118 0
86 90 118 0
113 86 118 0
87 119 90 0
115 119 87 0
96 95 120 0
97 120 121 0
96 120 97 0
97 121 99 0
95 101 122 0
120 95 122 0
123 120 122 0
123 124 120 0
120 124 121 0
124 99 121 0
124 126 99 0
126 102 99 0
125 102 126 0
103 125 127 0
102 125 103 0
103 127 105 0
101 128 122 0
107 128 101 0
129 125 126 0
129 130 125 0
125 130 127 0
131 109 105 0
130 131 105 0
127 130 105 0
134 132 133 0
128 107 111 0
128 111 132 0
128 132 134 0
112 131 135 0
109 131 112 0
132 137 133 0
136 137 132 0
111 114 132 0
132 114 136 0
138 115 116 0
116 117 140 0
116 140 139 0
116 139 138 0
112 140 117 0
135 140 112 0
137 136 141 0
118 142 141 0
114 118 141 0
136 114 141 0
142 119 143 0
118 119 142 0
144 143 119 0
138 144 119 0
115 138 119 0
138 139 144 0
123 122 145 0
124 145 146 0
123 145 124 0
124 146 126 0
147 122 128 0
145 122 147 0
147 146 145 0
148 146 147 0
146 148 149 0
126 146 149 0
129 126 149 0
130 149 150 0
129 149 130 0
130 150 131 0
152 133 151 0
134 133 152 0
134 152 153 0
134 153 147 0
134 147 128 0
153 154 147 0
147 154 148 0
154 155 148 0
148 155 149 0
156 150 149 0
156 149 155 0
156 155 157 0
150 135 131 0
156 135 150 0
133 158 151 0
137 158 133 0
160 159 161 0
159 157 161 0
159 139 157 0
139 156 157 0
140 156 139 0
140 135 156 0
163 158 137 0
162 163 137 0
141 162 137 0
141 142 165 0
141 165 164 0
141 164 162 0
165 143 166 0
142 143 165 0
166 143 144 0
160 166 144 0
159 160 144 0
144 139 159 0
163 162 167 0
162 164 167 0
152 151 168 0
153 168 169 0
152 168 153 0
154 169 170 0
153 169 154 0
155 170 171 0
154 170 155 0
155 171 157 0
172 151 158 0
168 151 172 0
172 169 168 0
173 169 172 0
173 170 169 0
174 170 173 0
171 170 174 0
161 171 174 0
160 161 174 0
161 157 171 0
175 158 163 0
172 158 175 0
173 172 175 0
165 173 175 0
164 165 175 0
165 174 173 0
166 174 165 0
166 160 174 0
175 163 167 0
167 164 175 0
