#!ascii version of
48 92
-26.000000  -7.500000  27.000000  0
-25.500000  -7.000000  27.000000  0
-26.000000  -7.000000  27.500000  0
-27.000000  -7.500000  27.000000  0
-27.000000  -7.000000  27.500000  0
-27.500000  -7.000000  27.000000  0
-26.000000  -7.500000  26.000000  0
-25.500000  -7.000000  26.000000  0
-27.000000  -7.500000  26.000000  0
-27.500000  -7.000000  26.000000  0
-26.000000  -7.000000  25.500000  0
-27.000000  -7.000000  25.500000  0
-25.500000  -6.000000  27.000000  0
-26.000000  -6.000000  27.500000  0
-27.000000  -6.000000  27.500000  0
-27.500000  -6.000000  27.000000  0
-25.000000  -6.500000  26.000000  0
-24.500000  -6.000000  26.000000  0
-25.000000  -6.000000  26.500000  0
-27.500000  -6.000000  26.000000  0
-25.000000  -6.000000  25.500000  0
-26.000000  -6.500000  25.000000  0
-25.500000  -6.000000  25.000000  0
-26.500000  -6.000000  25.000000  0
-27.000000  -6.000000  25.500000  0
-26.000000  -6.000000  24.500000  0
-25.500000  -5.000000  27.000000  0
-26.000000  -5.000000  27.500000  0
-27.000000  -5.500000  27.000000  0
-26.500000  -5.000000  27.000000  0
-24.000000  -5.500000  26.000000  0
-23.500000  -5.000000  26.000000  0
-24.000000  -5.000000  26.500000  0
-25.000000  -5.000000  26.500000  0
-27.000000  -5.500000  26.000000  0
-26.500000  -5.000000  26.000000  0
-24.000000  -5.000000  25.500000  0
-25.000000  -5.500000  25.000000  0
-24.500000  -5.000000  25.000000  0
-26.500000  -5.000000  25.000000  0
-25.000000  -5.000000  24.500000  0
-26.000000  -5.000000  24.500000  0
-26.000000  -4.500000  27.000000  0
-24.000000  -4.500000  26.000000  0
-25.000000  -4.500000  26.000000  0
-26.000000  -4.500000  26.000000  0
-25.000000  -4.500000  25.000000  0
-26.000000  -4.500000  25.000000  0
2 0 1 0
2 3 0 0
4 3 2 0
5 3 4 0
0 7 1 0
6 7 0 0
8 0 3 0
6 0 8 0
5 8 3 0
9 8 5 0
7 6 10 0
6 11 10 0
8 11 6 0
8 9 11 0
13 1 12 0
2 1 13 0
14 2 13 0
4 2 14 0
15 4 14 0
5 4 15 0
18 16 17 0
12 1 7 0
12 7 16 0
12 16 18 0
9 15 19 0
5 15 9 0
17 16 20 0
20 21 22 0
20 16 21 0
16 10 21 0
7 10 16 0
10 11 24 0
10 24 23 0
10 23 21 0
9 24 11 0
19 24 9 0
22 21 25 0
21 23 25 0
27 12 26 0
13 12 27 0
14 13 27 0
28 14 27 0
29 28 27 0
14 28 15 0
32 30 31 0
32 33 18 0
30 32 18 0
17 30 18 0
18 33 12 0
12 33 26 0
29 35 28 0
28 35 34 0
28 19 15 0
34 19 28 0
31 30 36 0
36 37 38 0
36 30 37 0
30 20 37 0
17 20 30 0
22 37 20 0
35 39 23 0
35 23 24 0
35 24 34 0
24 19 34 0
38 37 40 0
25 41 40 0
22 25 40 0
37 22 40 0
23 41 25 0
39 41 23 0
27 26 42 0
27 42 29 0
32 31 43 0
33 43 44 0
32 43 33 0
44 45 42 0
33 44 42 0
26 33 42 0
42 35 29 0
45 35 42 0
43 31 36 0
46 44 43 0
38 46 43 0
36 38 43 0
46 45 44 0
47 45 46 0
45 39 35 0
47 39 45 0
46 38 40 0
40 47 46 0
41 47 40 0
41 39 47 0
