#!ascii version of
592 1180
30.000000  -41.500000  37.000000  0
30.500000  -41.000000  37.000000  0
30.000000  -41.000000  37.500000  0
29.000000  -41.500000  37.000000  0
29.000000  -41.000000  37.500000  0
28.500000  -41.000000  37.000000  0
30.000000  -41.500000  36.000000  0
30.500000  -41.000000  36.000000  0
29.000000  -41.500000  36.000000  0
28.500000  -41.000000  36.000000  0
30.000000  -41.500000  35.000000  0
30.500000  -41.000000  35.000000  0
29.000000  -41.500000  35.000000  0
28.500000  -41.000000  35.000000  0
31.000000  -41.500000  34.000000  0
31.500000  -41.000000  34.000000  0
31.000000  -41.000000  34.500000  0
30.000000  -41.500000  34.000000  0
29.000000  -41.500000  34.000000  0
28.500000  -41.000000  34.000000  0
31.000000  -41.500000  33.000000  0
31.500000  -41.000000  33.000000  0
30.000000  -41.500000  33.000000  0
29.500000  -41.000000  33.000000  0
29.000000  -41.000000  33.500000  0
31.000000  -41.500000  32.000000  0
31.500000  -41.000000  32.000000  0
30.500000  -41.000000  32.000000  0
30.000000  -41.000000  32.500000  0
31.000000  -41.500000  31.000000  0
31.500000  -41.000000  31.000000  0
30.500000  -41.000000  31.000000  0
31.000000  -41.000000  30.500000  0
29.000000  -40.500000  38.000000  0
29.500000  -40.000000  38.000000  0
29.000000  -40.000000  38.500000  0
28.000000  -40.500000  38.000000  0
28.000000  -40.000000  38.500000  0
27.500000  -40.000000  38.000000  0
30.500000  -40.000000  37.000000  0
30.000000  -40.000000  37.500000  0
28.000000  -40.500000  37.000000  0
27.500000  -40.000000  37.000000  0
30.500000  -40.000000  36.000000  0
28.500000  -40.000000  36.000000  0
28.000000  -40.000000  36.500000  0
30.500000  -40.000000  35.000000  0
28.500000  -40.000000  35.000000  0
31.500000  -40.000000  34.000000  0
31.000000  -40.000000  34.500000  0
28.500000  -40.000000  34.000000  0
31.500000  -40.000000  33.000000  0
30.000000  -40.500000  33.000000  0
30.500000  -40.000000  33.000000  0
30.000000  -40.000000  33.500000  0
29.000000  -40.000000  33.500000  0
31.500000  -40.000000  32.000000  0
30.500000  -40.000000  32.000000  0
31.500000  -40.000000  31.000000  0
30.500000  -40.000000  31.000000  0
31.000000  -40.000000  30.500000  0
34.000000  -40.500000  29.000000  0
34.500000  -40.000000  29.000000  0
34.000000  -40.000000  29.500000  0
33.500000  -40.000000  29.000000  0
34.000000  -40.500000  28.000000  0
34.500000  -40.000000  28.000000  0
33.500000  -40.000000  28.000000  0
34.000000  -40.000000  27.500000  0
29.500000  -39.000000  38.000000  0
29.000000  -39.000000  38.500000  0
28.000000  -39.000000  38.500000  0
27.500000  -39.000000  38.000000  0
30.000000  -39.500000  37.000000  0
29.500000  -39.000000  37.000000  0
27.500000  -39.000000  37.000000  0
30.000000  -39.500000  36.000000  0
29.500000  -39.000000  36.000000  0
28.500000  -39.000000  36.000000  0
28.000000  -39.000000  36.500000  0
30.500000  -39.000000  35.000000  0
30.000000  -39.000000  35.500000  0
28.500000  -39.000000  35.000000  0
31.500000  -39.000000  34.000000  0
31.000000  -39.000000  34.500000  0
28.500000  -39.000000  34.000000  0
31.500000  -39.000000  33.000000  0
30.000000  -39.500000  33.000000  0
29.500000  -39.000000  33.000000  0
29.000000  -39.000000  33.500000  0
33.000000  -39.500000  32.000000  0
33.500000  -39.000000  32.000000  0
33.000000  -39.000000  32.500000  0
32.000000  -39.500000  32.000000  0
32.000000  -39.000000  32.500000  0
30.000000  -39.500000  32.000000  0
29.500000  -39.000000  32.000000  0
33.000000  -39.500000  31.000000  0
33.500000  -39.000000  31.000000  0
32.000000  -39.500000  31.000000  0
30.500000  -39.000000  31.000000  0
30.000000  -39.000000  31.500000  0
33.000000  -39.000000  30.500000  0
32.000000  -39.000000  30.500000  0
31.000000  -39.000000  30.500000  0
34.500000  -39.000000  29.000000  0
34.000000  -39.000000  29.500000  0
33.500000  -39.000000  29.000000  0
34.500000  -39.000000  28.000000  0
33.500000  -39.000000  28.000000  0
34.000000  -39.500000  27.000000  0
34.500000  -39.000000  27.000000  0
33.500000  -39.000000  27.000000  0
34.000000  -39.500000  26.000000  0
34.500000  -39.000000  26.000000  0
33.500000  -39.000000  26.000000  0
34.000000  -39.000000  25.500000  0
26.000000  -38.500000  41.000000  0
26.500000  -38.000000  41.000000  0
26.000000  -38.000000  41.500000  0
25.000000  -38.500000  41.000000  0
25.000000  -38.000000  41.500000  0
24.000000  -38.500000  41.000000  0
24.000000  -38.000000  41.500000  0
23.500000  -38.000000  41.000000  0
26.000000  -38.500000  40.000000  0
26.500000  -38.000000  40.000000  0
25.000000  -38.500000  40.000000  0
24.000000  -38.500000  40.000000  0
23.500000  -38.000000  40.000000  0
28.000000  -38.500000  39.000000  0
28.500000  -38.000000  39.000000  0
28.000000  -38.000000  39.500000  0
27.000000  -38.500000  39.000000  0
27.000000  -38.000000  39.500000  0
26.000000  -38.500000  39.000000  0
25.500000  -38.000000  39.000000  0
25.000000  -38.000000  39.500000  0
24.000000  -38.000000  39.500000  0
29.500000  -38.000000  38.000000  0
29.000000  -38.000000  38.500000  0
27.000000  -38.500000  38.000000  0
26.500000  -38.000000  38.000000  0
26.000000  -38.000000  38.500000  0
29.500000  -38.000000  37.000000  0
27.000000  -38.500000  37.000000  0
26.500000  -38.000000  37.000000  0
31.000000  -38.500000  36.000000  0
31.500000  -38.000000  36.000000  0
31.000000  -38.000000  36.500000  0
30.000000  -38.500000  36.000000  0
30.000000  -38.000000  36.500000  0
28.000000  -38.500000  36.000000  0
27.000000  -38.500000  36.000000  0
26.500000  -38.000000  36.000000  0
31.000000  -38.500000  35.000000  0
31.500000  -38.000000  35.000000  0
28.000000  -38.500000  35.000000  0
27.000000  -38.500000  35.000000  0
26.500000  -38.000000  35.000000  0
31.500000  -38.000000  34.000000  0
28.000000  -38.500000  34.000000  0
27.000000  -38.500000  34.000000  0
26.500000  -38.000000  34.000000  0
31.500000  -38.000000  33.000000  0
29.000000  -38.500000  33.000000  0
28.500000  -38.000000  33.000000  0
28.000000  -38.000000  33.500000  0
27.000000  -38.000000  33.500000  0
33.500000  -38.000000  32.000000  0
33.000000  -38.000000  32.500000  0
32.000000  -38.000000  32.500000  0
29.500000  -38.000000  32.000000  0
29.000000  -38.000000  32.500000  0
33.500000  -38.000000  31.000000  0
30.500000  -38.000000  31.000000  0
30.000000  -38.000000  31.500000  0
34.000000  -38.500000  30.000000  0
34.500000  -38.000000  30.000000  0
34.000000  -38.000000  30.500000  0
33.500000  -38.000000  30.000000  0
33.000000  -38.000000  30.500000  0
32.000000  -38.000000  30.500000  0
31.000000  -38.000000  30.500000  0
34.500000  -38.000000  29.000000  0
33.500000  -38.000000  29.000000  0
34.500000  -38.000000  28.000000  0
33.500000  -38.000000  28.000000  0
34.500000  -38.000000  27.000000  0
33.500000  -38.000000  27.000000  0
34.000000  -38.500000  26.000000  0
34.000000  -38.000000  26.500000  0
24.000000  -37.500000  42.000000  0
24.500000  -37.000000  42.000000  0
24.000000  -37.000000  42.500000  0
23.000000  -37.500000  42.000000  0
23.000000  -37.000000  42.500000  0
22.500000  -37.000000  42.000000  0
26.500000  -37.000000  41.000000  0
26.000000  -37.000000  41.500000  0
25.000000  -37.000000  41.500000  0
23.500000  -37.000000  41.000000  0
23.000000  -37.000000  41.500000  0
26.500000  -37.000000  40.000000  0
23.500000  -37.000000  40.000000  0
28.500000  -37.000000  39.000000  0
28.000000  -37.000000  39.500000  0
27.000000  -37.000000  39.500000  0
25.000000  -37.500000  39.000000  0
24.500000  -37.000000  39.000000  0
24.000000  -37.000000  39.500000  0
29.500000  -37.000000  38.000000  0
29.000000  -37.000000  38.500000  0
26.500000  -37.000000  38.000000  0
26.000000  -37.000000  38.500000  0
25.000000  -37.000000  38.500000  0
29.500000  -37.000000  37.000000  0
26.500000  -37.000000  37.000000  0
31.000000  -37.500000  36.000000  0
30.000000  -37.500000  36.000000  0
29.500000  -37.000000  36.000000  0
26.500000  -37.000000  36.000000  0
31.000000  -37.500000  35.000000  0
30.500000  -37.000000  35.000000  0
30.000000  -37.000000  35.500000  0
26.500000  -37.000000  35.000000  0
31.500000  -37.000000  34.000000  0
31.000000  -37.000000  34.500000  0
26.500000  -37.000000  34.000000  0
31.500000  -37.000000  33.000000  0
28.500000  -37.000000  33.000000  0
28.000000  -37.000000  33.500000  0
27.000000  -37.000000  33.500000  0
33.000000  -37.500000  32.000000  0
32.500000  -37.000000  32.000000  0
32.000000  -37.000000  32.500000  0
29.500000  -37.000000  32.000000  0
29.000000  -37.000000  32.500000  0
33.500000  -37.000000  31.000000  0
33.000000  -37.000000  31.500000  0
30.500000  -37.000000  31.000000  0
30.000000  -37.000000  31.500000  0
34.500000  -37.000000  30.000000  0
34.000000  -37.000000  30.500000  0
33.000000  -37.500000  30.000000  0
32.500000  -37.000000  30.000000  0
32.000000  -37.000000  30.500000  0
31.000000  -37.000000  30.500000  0
34.500000  -37.000000  29.000000  0
33.500000  -37.000000  29.000000  0
33.000000  -37.000000  29.500000  0
34.500000  -37.000000  28.000000  0
33.500000  -37.000000  28.000000  0
35.000000  -37.500000  27.000000  0
35.500000  -37.000000  27.000000  0
35.000000  -37.000000  27.500000  0
33.500000  -37.000000  27.000000  0
36.000000  -37.500000  26.000000  0
36.500000  -37.000000  26.000000  0
36.000000  -37.000000  26.500000  0
35.000000  -37.500000  26.000000  0
34.500000  -37.000000  26.000000  0
34.000000  -37.000000  26.500000  0
36.000000  -37.500000  25.000000  0
36.500000  -37.000000  25.000000  0
35.000000  -37.500000  25.000000  0
34.500000  -37.000000  25.000000  0
36.000000  -37.000000  24.500000  0
35.000000  -37.000000  24.500000  0
24.500000  -36.000000  42.000000  0
24.000000  -36.000000  42.500000  0
23.000000  -36.000000  42.500000  0
22.500000  -36.000000  42.000000  0
26.500000  -36.000000  41.000000  0
26.000000  -36.000000  41.500000  0
25.000000  -36.000000  41.500000  0
23.000000  -36.500000  41.000000  0
22.500000  -36.000000  41.000000  0
26.500000  -36.000000  40.000000  0
23.000000  -36.500000  40.000000  0
22.500000  -36.000000  40.000000  0
28.000000  -36.500000  39.000000  0
27.500000  -36.000000  39.000000  0
27.000000  -36.000000  39.500000  0
24.500000  -36.000000  39.000000  0
24.000000  -36.000000  39.500000  0
23.000000  -36.000000  39.500000  0
29.000000  -36.500000  38.000000  0
28.000000  -36.500000  38.000000  0
27.500000  -36.000000  38.000000  0
26.000000  -36.500000  38.000000  0
25.500000  -36.000000  38.000000  0
25.000000  -36.000000  38.500000  0
29.000000  -36.500000  37.000000  0
28.000000  -36.500000  37.000000  0
27.000000  -36.500000  37.000000  0
27.000000  -36.000000  37.500000  0
26.000000  -36.000000  37.500000  0
29.000000  -36.500000  36.000000  0
28.000000  -36.500000  36.000000  0
27.000000  -36.500000  36.000000  0
30.000000  -36.500000  35.000000  0
29.500000  -36.000000  35.000000  0
29.000000  -36.000000  35.500000  0
28.000000  -36.000000  35.500000  0
27.000000  -36.500000  35.000000  0
27.500000  -36.000000  35.000000  0
31.000000  -36.500000  34.000000  0
30.500000  -36.000000  34.000000  0
30.000000  -36.000000  34.500000  0
27.000000  -36.500000  34.000000  0
27.500000  -36.000000  34.000000  0
31.000000  -36.500000  33.000000  0
30.500000  -36.000000  33.000000  0
29.000000  -36.500000  33.000000  0
29.500000  -36.000000  33.000000  0
29.000000  -36.000000  33.500000  0
28.000000  -36.000000  33.500000  0
32.000000  -36.500000  32.000000  0
31.500000  -36.000000  32.000000  0
31.000000  -36.000000  32.500000  0
29.500000  -36.000000  32.000000  0
33.000000  -36.500000  31.000000  0
32.500000  -36.000000  31.000000  0
32.000000  -36.000000  31.500000  0
30.500000  -36.000000  31.000000  0
30.000000  -36.000000  31.500000  0
34.000000  -36.500000  30.000000  0
33.500000  -36.000000  30.000000  0
33.000000  -36.000000  30.500000  0
32.000000  -36.500000  30.000000  0
31.500000  -36.000000  30.000000  0
31.000000  -36.000000  30.500000  0
34.500000  -36.000000  29.000000  0
34.000000  -36.000000  29.500000  0
33.500000  -36.000000  29.000000  0
33.000000  -36.000000  29.500000  0
32.000000  -36.000000  29.500000  0
34.500000  -36.000000  28.000000  0
33.500000  -36.000000  28.000000  0
35.500000  -36.000000  27.000000  0
35.000000  -36.000000  27.500000  0
34.000000  -36.500000  27.000000  0
34.500000  -36.000000  27.000000  0
34.000000  -36.000000  27.500000  0
36.500000  -36.000000  26.000000  0
36.000000  -36.000000  26.500000  0
35.000000  -36.500000  26.000000  0
35.500000  -36.000000  26.000000  0
35.000000  -36.000000  26.500000  0
36.000000  -36.500000  25.000000  0
36.000000  -36.000000  25.500000  0
35.000000  -36.500000  25.000000  0
24.000000  -35.500000  43.000000  0
24.500000  -35.000000  43.000000  0
24.000000  -35.000000  43.500000  0
23.000000  -35.500000  43.000000  0
23.000000  -35.000000  43.500000  0
22.500000  -35.000000  43.000000  0
24.500000  -35.000000  42.000000  0
22.000000  -35.500000  42.000000  0
22.000000  -35.000000  42.500000  0
21.500000  -35.000000  42.000000  0
26.000000  -35.500000  41.000000  0
25.000000  -35.500000  41.000000  0
24.500000  -35.000000  41.000000  0
22.000000  -35.500000  41.000000  0
21.500000  -35.000000  41.000000  0
26.000000  -35.500000  40.000000  0
25.000000  -35.500000  40.000000  0
24.500000  -35.000000  40.000000  0
22.000000  -35.500000  40.000000  0
21.500000  -35.000000  40.000000  0
27.000000  -35.500000  39.000000  0
26.000000  -35.500000  39.000000  0
25.000000  -35.500000  39.000000  0
24.000000  -35.000000  39.500000  0
23.000000  -35.000000  39.500000  0
22.000000  -35.000000  39.500000  0
27.000000  -35.500000  38.000000  0
26.000000  -35.500000  38.000000  0
29.000000  -35.500000  35.000000  0
28.000000  -35.500000  35.000000  0
30.000000  -35.500000  34.000000  0
29.000000  -35.500000  34.000000  0
28.000000  -35.500000  34.000000  0
30.000000  -35.500000  33.000000  0
31.500000  -35.000000  32.000000  0
31.000000  -35.000000  32.500000  0
30.000000  -35.000000  32.500000  0
29.500000  -35.000000  32.000000  0
32.500000  -35.000000  31.000000  0
32.000000  -35.000000  31.500000  0
30.500000  -35.000000  31.000000  0
30.000000  -35.000000  31.500000  0
33.500000  -35.000000  30.000000  0
33.000000  -35.000000  30.500000  0
31.500000  -35.000000  30.000000  0
31.000000  -35.000000  30.500000  0
34.000000  -35.500000  29.000000  0
33.000000  -35.000000  29.500000  0
32.000000  -35.500000  29.000000  0
32.500000  -35.000000  29.000000  0
31.500000  -35.000000  29.000000  0
34.500000  -35.000000  28.000000  0
34.000000  -35.000000  28.500000  0
33.500000  -35.000000  28.000000  0
32.000000  -35.000000  28.500000  0
35.500000  -35.000000  27.000000  0
35.000000  -35.000000  27.500000  0
34.500000  -35.000000  27.000000  0
34.000000  -35.000000  27.500000  0
36.500000  -35.000000  26.000000  0
36.000000  -35.000000  26.500000  0
35.500000  -35.000000  26.000000  0
35.000000  -35.000000  26.500000  0
36.000000  -35.000000  25.500000  0
22.000000  -34.500000  45.000000  0
22.500000  -34.000000  45.000000  0
22.000000  -34.000000  45.500000  0
21.000000  -34.500000  45.000000  0
21.000000  -34.000000  45.500000  0
20.500000  -34.000000  45.000000  0
24.000000  -34.500000  44.000000  0
24.500000  -34.000000  44.000000  0
24.000000  -34.000000  44.500000  0
23.000000  -34.500000  44.000000  0
23.000000  -34.000000  44.500000  0
22.000000  -34.500000  44.000000  0
21.000000  -34.500000  44.000000  0
20.500000  -34.000000  44.000000  0
24.500000  -34.000000  43.000000  0
22.000000  -34.500000  43.000000  0
21.000000  -34.500000  43.000000  0
20.500000  -34.000000  43.000000  0
24.500000  -34.000000  42.000000  0
21.500000  -34.000000  42.000000  0
21.000000  -34.000000  42.500000  0
24.500000  -34.000000  41.000000  0
21.500000  -34.000000  41.000000  0
24.500000  -34.000000  40.000000  0
21.500000  -34.000000  40.000000  0
24.000000  -34.000000  39.500000  0
23.000000  -34.000000  39.500000  0
22.000000  -34.000000  39.500000  0
31.000000  -34.500000  32.000000  0
30.000000  -34.500000  32.000000  0
32.000000  -34.500000  31.000000  0
31.000000  -34.500000  31.000000  0
33.000000  -34.500000  30.000000  0
32.000000  -34.500000  30.000000  0
32.000000  -34.500000  29.000000  0
34.000000  -34.500000  28.000000  0
35.000000  -34.500000  27.000000  0
37.000000  -34.500000  26.000000  0
37.500000  -34.000000  26.000000  0
37.000000  -34.000000  26.500000  0
36.000000  -34.000000  26.500000  0
35.500000  -34.000000  26.000000  0
37.000000  -34.500000  25.000000  0
37.500000  -34.000000  25.000000  0
36.000000  -34.500000  25.000000  0
35.500000  -34.000000  25.000000  0
37.000000  -34.000000  24.500000  0
36.000000  -34.000000  24.500000  0
22.500000  -33.000000  45.000000  0
22.000000  -33.000000  45.500000  0
21.000000  -33.500000  45.000000  0
21.500000  -33.000000  45.000000  0
24.000000  -33.500000  44.000000  0
23.500000  -33.000000  44.000000  0
23.000000  -33.000000  44.500000  0
21.000000  -33.000000  44.500000  0
20.500000  -33.000000  44.000000  0
24.000000  -33.500000  43.000000  0
23.500000  -33.000000  43.000000  0
20.000000  -33.500000  43.000000  0
20.000000  -33.000000  43.500000  0
19.500000  -33.000000  43.000000  0
24.000000  -33.500000  42.000000  0
23.000000  -33.500000  42.000000  0
23.000000  -33.000000  42.500000  0
22.500000  -33.000000  42.000000  0
21.000000  -33.500000  42.000000  0
20.000000  -33.500000  42.000000  0
19.500000  -33.000000  42.000000  0
24.000000  -33.500000  41.000000  0
23.000000  -33.500000  41.000000  0
22.000000  -33.500000  41.000000  0
22.000000  -33.000000  41.500000  0
21.000000  -33.000000  41.500000  0
20.000000  -33.000000  41.500000  0
24.000000  -33.500000  40.000000  0
23.000000  -33.500000  40.000000  0
22.000000  -33.500000  40.000000  0
37.500000  -33.000000  26.000000  0
37.000000  -33.000000  26.500000  0
36.000000  -33.000000  26.500000  0
35.500000  -33.000000  26.000000  0
37.500000  -33.000000  25.000000  0
35.500000  -33.000000  25.000000  0
37.000000  -33.500000  24.000000  0
37.500000  -33.000000  24.000000  0
36.000000  -33.500000  24.000000  0
35.500000  -33.000000  24.000000  0
37.000000  -33.000000  23.500000  0
36.000000  -33.000000  23.500000  0
20.000000  -32.500000  46.000000  0
20.500000  -32.000000  46.000000  0
20.000000  -32.000000  46.500000  0
19.500000  -32.000000  46.000000  0
22.000000  -32.500000  45.000000  0
21.000000  -32.500000  45.000000  0
21.500000  -32.000000  45.000000  0
21.000000  -32.000000  45.500000  0
20.000000  -32.500000  45.000000  0
19.500000  -32.000000  45.000000  0
23.000000  -32.500000  44.000000  0
22.000000  -32.500000  44.000000  0
21.500000  -32.000000  44.000000  0
20.000000  -32.500000  44.000000  0
19.500000  -32.000000  44.000000  0
23.000000  -32.500000  43.000000  0
22.000000  -32.500000  43.000000  0
21.000000  -32.500000  43.000000  0
21.000000  -32.000000  43.500000  0
20.000000  -32.500000  43.000000  0
20.000000  -32.000000  43.500000  0
22.000000  -32.500000  42.000000  0
21.000000  -32.500000  42.000000  0
20.000000  -32.500000  42.000000  0
37.500000  -32.000000  26.000000  0
37.000000  -32.000000  26.500000  0
36.000000  -32.000000  26.500000  0
35.500000  -32.000000  26.000000  0
37.500000  -32.000000  25.000000  0
35.500000  -32.000000  25.000000  0
37.500000  -32.000000  24.000000  0
35.500000  -32.000000  24.000000  0
37.000000  -32.000000  23.500000  0
36.000000  -32.000000  23.500000  0
20.500000  -31.000000  46.000000  0
20.000000  -31.000000  46.500000  0
19.000000  -31.500000  46.000000  0
19.000000  -31.000000  46.500000  0
18.500000  -31.000000  46.000000  0
21.500000  -31.000000  45.000000  0
21.000000  -31.000000  45.500000  0
19.500000  -31.000000  45.000000  0
19.000000  -31.000000  45.500000  0
21.500000  -31.000000  44.000000  0
20.000000  -31.500000  44.000000  0
20.500000  -31.000000  44.000000  0
20.000000  -31.000000  44.500000  0
21.000000  -31.000000  43.500000  0
37.000000  -31.500000  26.000000  0
36.000000  -31.500000  26.000000  0
37.500000  -31.000000  25.000000  0
37.000000  -31.000000  25.500000  0
36.000000  -31.000000  25.500000  0
35.500000  -31.000000  25.000000  0
37.500000  -31.000000  24.000000  0
35.500000  -31.000000  24.000000  0
37.000000  -31.000000  23.500000  0
36.000000  -31.000000  23.500000  0
20.500000  -30.000000  46.000000  0
20.000000  -30.000000  46.500000  0
19.000000  -30.000000  46.500000  0
18.500000  -30.000000  46.000000  0
21.000000  -30.500000  45.000000  0
20.000000  -30.500000  45.000000  0
20.000000  -30.000000  45.500000  0
19.000000  -30.000000  45.500000  0
21.000000  -30.500000  44.000000  0
37.000000  -30.500000  25.000000  0
36.000000  -30.500000  25.000000  0
37.500000  -30.000000  24.000000  0
37.000000  -30.000000  24.500000  0
36.000000  -30.000000  24.500000  0
35.500000  -30.000000  24.000000  0
37.000000  -30.000000  23.500000  0
36.000000  -30.000000  23.500000  0
20.000000  -29.500000  46.000000  0
19.000000  -29.500000  46.000000  0
37.500000  -29.000000  24.000000  0
37.000000  -29.000000  24.500000  0
36.000000  -29.000000  24.500000  0
35.500000  -29.000000  24.000000  0
37.000000  -29.000000  23.500000  0
36.000000  -29.000000  23.500000  0
37.000000  -28.500000  24.000000  0
36.000000  -28.500000  24.000000  0
2 0 1 0
2 3 0 0
4 3 2 0
5 3 4 0
0 7 1 0
6 7 0 0
8 0 3 0
6 0 8 0
5 8 3 0
9 8 5 0
6 11 7 0
10 11 6 0
12 6 8 0
10 6 12 0
9 12 8 0
13 12 9 0
16 14 15 0
10 17 14 0
11 10 14 0
16 11 14 0
18 10 12 0
17 10 18 0
13 18 12 0
19 18 13 0
14 21 15 0
20 21 14 0
22 14 17 0
20 14 22 0
22 17 18 0
23 22 18 0
24 23 18 0
18 19 24 0
20 26 21 0
25 26 20 0
25 20 22 0
27 25 22 0
28 27 22 0
22 23 28 0
25 30 26 0
29 30 25 0
27 29 25 0
31 29 27 0
30 29 32 0
29 31 32 0
35 33 34 0
35 36 33 0
37 36 35 0
38 36 37 0
40 1 39 0
2 1 40 0
4 2 40 0
4 40 34 0
4 34 33 0
33 36 41 0
33 41 5 0
33 5 4 0
38 41 36 0
42 41 38 0
1 43 39 0
7 43 1 0
44 9 5 0
44 5 41 0
44 41 45 0
41 42 45 0
7 46 43 0
11 46 7 0
13 44 47 0
9 44 13 0
49 15 48 0
16 15 49 0
16 49 11 0
11 49 46 0
19 47 50 0
13 47 19 0
15 51 48 0
21 51 15 0
53 52 54 0
24 55 54 0
24 54 52 0
24 52 23 0
19 55 24 0
50 55 19 0
21 56 51 0
26 56 21 0
53 57 27 0
53 27 28 0
53 28 52 0
28 23 52 0
26 58 56 0
30 58 26 0
31 57 59 0
27 57 31 0
58 32 60 0
30 32 58 0
31 60 32 0
59 60 31 0
63 61 62 0
61 63 64 0
61 66 62 0
65 66 61 0
67 65 64 0
65 61 64 0
66 65 68 0
68 65 67 0
70 34 69 0
35 34 70 0
71 35 70 0
37 35 71 0
72 37 71 0
38 37 72 0
40 39 73 0
74 69 34 0
74 34 40 0
74 40 73 0
42 72 75 0
38 72 42 0
76 39 43 0
73 39 76 0
73 76 74 0
74 76 77 0
78 44 79 0
79 44 45 0
42 79 45 0
75 79 42 0
43 46 80 0
76 43 80 0
81 76 80 0
81 77 76 0
47 78 82 0
44 78 47 0
84 48 83 0
49 48 84 0
49 84 46 0
46 84 80 0
50 82 85 0
47 82 50 0
48 86 83 0
51 86 48 0
87 53 54 0
54 55 89 0
54 89 88 0
54 88 87 0
50 89 55 0
85 89 50 0
92 90 91 0
92 93 90 0
94 93 92 0
86 51 56 0
86 56 93 0
86 93 94 0
57 53 95 0
95 53 87 0
88 95 87 0
96 95 88 0
90 98 91 0
97 98 90 0
99 90 93 0
97 90 99 0
56 58 93 0
93 58 99 0
100 59 57 0
100 57 95 0
100 95 101 0
95 96 101 0
98 97 102 0
103 97 99 0
102 97 103 0
60 104 103 0
58 60 103 0
99 58 103 0
59 104 60 0
100 104 59 0
106 62 105 0
63 62 106 0
107 63 106 0
64 63 107 0
62 108 105 0
66 108 62 0
67 107 109 0
64 107 67 0
111 108 66 0
110 111 66 0
68 110 66 0
67 109 112 0
68 67 112 0
110 68 112 0
110 114 111 0
113 114 110 0
112 113 110 0
115 113 112 0
114 113 116 0
113 115 116 0
119 117 118 0
119 120 117 0
121 120 119 0
121 122 120 0
123 122 121 0
124 122 123 0
117 126 118 0
125 126 117 0
127 117 120 0
125 117 127 0
128 120 122 0
127 120 128 0
124 128 122 0
129 128 124 0
132 130 131 0
132 133 130 0
134 133 132 0
125 135 133 0
126 125 133 0
134 126 133 0
135 125 127 0
136 135 127 0
137 136 127 0
127 138 137 0
128 138 127 0
128 129 138 0
140 69 139 0
70 69 140 0
71 70 140 0
71 140 131 0
71 131 130 0
130 133 141 0
130 141 72 0
130 72 71 0
141 133 135 0
142 141 135 0
143 142 135 0
135 136 143 0
69 144 139 0
74 144 69 0
75 72 145 0
145 72 141 0
142 145 141 0
146 145 142 0
149 147 148 0
149 150 147 0
151 150 149 0
144 74 77 0
144 77 150 0
144 150 151 0
152 78 79 0
145 153 152 0
145 152 79 0
145 79 75 0
146 153 145 0
154 153 146 0
147 156 148 0
155 156 147 0
155 147 150 0
155 150 81 0
155 81 80 0
150 77 81 0
82 78 157 0
157 78 152 0
158 152 153 0
157 152 158 0
154 158 153 0
159 158 154 0
83 160 156 0
84 83 156 0
155 84 156 0
155 80 84 0
85 82 161 0
161 82 157 0
162 157 158 0
161 157 162 0
159 162 158 0
163 162 159 0
83 164 160 0
86 164 83 0
165 88 89 0
166 161 167 0
166 165 161 0
165 85 161 0
89 85 165 0
161 168 167 0
162 168 161 0
162 163 168 0
170 91 169 0
92 91 170 0
171 92 170 0
94 92 171 0
94 171 86 0
86 171 164 0
172 96 88 0
172 88 165 0
172 165 173 0
165 166 173 0
91 174 169 0
98 174 91 0
175 100 176 0
176 100 101 0
96 176 101 0
172 176 96 0
179 177 178 0
102 174 98 0
181 174 102 0
177 179 180 0
181 103 182 0
102 103 181 0
182 104 183 0
103 104 182 0
100 183 104 0
175 183 100 0
105 184 178 0
106 105 178 0
177 106 178 0
180 185 107 0
177 180 107 0
106 177 107 0
105 186 184 0
108 186 105 0
109 185 187 0
107 185 109 0
108 188 186 0
111 188 108 0
112 187 189 0
109 187 112 0
188 111 114 0
191 188 114 0
190 191 114 0
115 112 189 0
190 115 189 0
191 190 189 0
190 114 116 0
116 115 190 0
194 192 193 0
194 195 192 0
196 195 194 0
197 195 196 0
199 118 198 0
119 118 199 0
200 119 199 0
121 119 200 0
123 121 200 0
123 200 193 0
123 193 192 0
192 195 123 0
195 124 123 0
195 202 124 0
202 201 124 0
195 197 202 0
118 203 198 0
126 203 118 0
129 201 204 0
124 201 129 0
206 131 205 0
132 131 206 0
207 132 206 0
134 132 207 0
134 207 126 0
126 207 203 0
208 136 137 0
137 138 210 0
137 210 209 0
137 209 208 0
129 210 138 0
204 210 129 0
212 139 211 0
140 139 212 0
140 212 131 0
131 212 205 0
213 142 214 0
214 142 143 0
215 214 143 0
208 215 143 0
136 208 143 0
208 209 215 0
139 216 211 0
144 216 139 0
146 213 217 0
142 213 146 0
149 148 218 0
151 218 219 0
149 218 151 0
220 216 144 0
220 144 151 0
220 151 219 0
154 217 221 0
146 217 154 0
222 148 156 0
218 148 222 0
219 218 222 0
219 222 223 0
219 223 224 0
224 220 219 0
159 221 225 0
154 221 159 0
156 160 226 0
222 156 226 0
227 222 226 0
227 223 222 0
163 225 228 0
159 225 163 0
160 229 226 0
164 229 160 0
230 166 231 0
231 166 167 0
231 168 232 0
167 168 231 0
163 232 168 0
228 232 163 0
170 169 233 0
235 171 170 0
234 235 170 0
233 234 170 0
171 235 164 0
164 235 229 0
236 172 237 0
237 172 173 0
166 237 173 0
230 237 166 0
169 174 238 0
233 169 238 0
239 233 238 0
239 234 233 0
240 175 241 0
241 175 176 0
172 241 176 0
236 241 172 0
243 178 242 0
179 178 243 0
238 244 243 0
238 174 244 0
174 181 244 0
243 244 179 0
179 244 180 0
181 182 246 0
181 246 245 0
181 245 244 0
246 183 247 0
182 183 246 0
175 247 183 0
240 247 175 0
178 248 242 0
184 248 178 0
249 185 180 0
249 180 244 0
249 244 250 0
244 245 250 0
184 251 248 0
186 251 184 0
187 249 252 0
185 249 187 0
255 253 254 0
251 186 188 0
251 188 253 0
251 253 255 0
189 252 256 0
187 252 189 0
259 257 258 0
253 260 257 0
254 253 257 0
259 254 257 0
253 261 260 0
253 262 261 0
188 262 253 0
191 262 188 0
189 262 191 0
256 262 189 0
257 264 258 0
263 264 257 0
265 257 260 0
263 257 265 0
261 265 260 0
266 265 261 0
264 263 267 0
263 268 267 0
265 268 263 0
265 266 268 0
270 193 269 0
194 193 270 0
271 194 270 0
196 194 271 0
272 196 271 0
197 196 272 0
274 198 273 0
199 198 274 0
275 199 274 0
200 199 275 0
200 275 193 0
193 275 269 0
276 201 202 0
197 272 277 0
202 197 277 0
276 202 277 0
198 278 273 0
203 278 198 0
204 201 279 0
279 201 276 0
277 279 276 0
280 279 277 0
206 205 281 0
283 207 206 0
282 283 206 0
281 282 206 0
207 283 203 0
203 283 278 0
284 209 285 0
285 209 210 0
286 285 210 0
279 286 210 0
204 279 210 0
279 280 286 0
212 211 287 0
287 288 281 0
212 287 281 0
205 212 281 0
281 288 282 0
282 288 289 0
290 213 214 0
214 215 292 0
214 292 291 0
214 291 290 0
209 292 215 0
284 292 209 0
293 211 216 0
287 211 293 0
293 288 287 0
294 288 293 0
288 294 295 0
288 295 296 0
288 296 289 0
296 290 297 0
296 213 290 0
295 213 296 0
217 213 295 0
290 291 297 0
298 216 220 0
293 216 298 0
298 294 293 0
299 294 298 0
299 295 294 0
300 295 299 0
295 221 217 0
300 221 295 0
224 223 301 0
298 302 303 0
298 220 302 0
220 301 302 0
224 301 220 0
303 304 298 0
298 304 299 0
305 300 299 0
305 299 304 0
305 304 306 0
300 225 221 0
305 225 300 0
227 226 307 0
301 308 309 0
301 223 308 0
223 307 308 0
227 307 223 0
309 302 301 0
306 311 305 0
305 311 310 0
305 228 225 0
310 228 305 0
312 226 229 0
307 226 312 0
307 312 308 0
308 312 313 0
315 314 316 0
231 317 316 0
231 316 314 0
231 314 230 0
317 231 232 0
311 317 232 0
310 311 232 0
232 228 310 0
235 234 318 0
312 319 320 0
312 229 319 0
229 318 319 0
235 318 229 0
320 313 312 0
315 321 236 0
315 236 237 0
315 237 314 0
237 230 314 0
239 238 322 0
318 323 324 0
318 234 323 0
234 322 323 0
239 322 234 0
324 319 318 0
325 240 326 0
326 240 241 0
236 326 241 0
321 326 236 0
243 242 327 0
322 328 329 0
322 238 328 0
238 327 328 0
243 327 238 0
329 323 322 0
246 330 245 0
246 247 332 0
246 332 331 0
246 331 330 0
240 332 247 0
325 332 240 0
242 248 333 0
327 242 333 0
334 327 333 0
250 327 249 0
250 336 327 0
336 328 327 0
249 327 335 0
335 327 334 0
337 336 250 0
330 337 250 0
245 330 250 0
330 331 337 0
248 338 333 0
251 338 248 0
252 335 339 0
249 335 252 0
341 254 340 0
255 254 341 0
255 342 251 0
255 341 342 0
341 343 342 0
251 342 338 0
338 342 344 0
256 252 339 0
342 256 339 0
344 342 339 0
346 258 345 0
259 258 346 0
259 347 254 0
259 346 347 0
346 348 347 0
254 347 340 0
340 347 349 0
347 343 349 0
347 261 343 0
261 342 343 0
262 342 261 0
262 256 342 0
351 345 350 0
345 264 350 0
258 264 345 0
350 352 347 0
350 347 348 0
350 348 351 0
347 266 261 0
352 266 347 0
267 350 264 0
267 352 350 0
268 352 267 0
268 266 352 0
355 353 354 0
355 356 353 0
357 356 355 0
358 356 357 0
269 359 354 0
270 269 354 0
353 270 354 0
353 356 270 0
270 356 271 0
361 356 358 0
361 360 356 0
360 271 356 0
272 271 360 0
362 360 361 0
274 273 363 0
275 363 364 0
274 363 275 0
365 359 269 0
365 269 275 0
365 275 364 0
277 272 366 0
366 272 360 0
362 366 360 0
367 366 362 0
368 273 278 0
363 273 368 0
368 364 363 0
369 364 368 0
364 369 365 0
365 369 370 0
280 277 371 0
371 277 366 0
367 371 366 0
372 371 367 0
283 282 373 0
373 374 368 0
283 373 368 0
278 283 368 0
374 369 368 0
375 369 374 0
369 375 370 0
375 376 370 0
375 284 376 0
284 285 376 0
376 286 377 0
285 286 376 0
378 377 286 0
371 378 286 0
280 371 286 0
371 372 378 0
379 282 289 0
373 282 379 0
379 374 373 0
380 374 379 0
375 374 380 0
292 375 380 0
291 292 380 0
292 284 375 0
379 289 296 0
296 380 379 0
297 380 296 0
297 291 380 0
303 302 381 0
304 381 382 0
303 381 304 0
304 382 306 0
309 308 383 0
383 384 381 0
309 383 381 0
302 309 381 0
384 382 381 0
385 382 384 0
382 311 306 0
385 311 382 0
386 308 313 0
383 308 386 0
384 383 386 0
316 384 386 0
315 316 386 0
316 385 384 0
317 385 316 0
317 311 385 0
388 319 387 0
320 319 388 0
320 388 389 0
320 389 386 0
320 386 313 0
390 321 315 0
389 390 315 0
386 389 315 0
392 323 391 0
324 323 392 0
324 392 319 0
319 392 387 0
393 325 394 0
394 325 326 0
321 394 326 0
390 394 321 0
396 328 395 0
329 328 396 0
329 396 323 0
323 396 391 0
397 331 398 0
398 331 332 0
325 398 332 0
393 398 325 0
334 333 399 0
395 336 400 0
328 336 395 0
399 335 334 0
400 336 337 0
400 337 401 0
400 401 402 0
331 397 403 0
337 331 403 0
401 337 403 0
333 338 404 0
399 333 404 0
405 399 404 0
406 339 335 0
405 406 335 0
399 405 335 0
402 401 407 0
401 403 407 0
409 340 408 0
341 340 409 0
338 344 404 0
344 411 404 0
343 341 409 0
410 343 409 0
339 411 344 0
406 411 339 0
413 345 412 0
346 345 413 0
340 349 408 0
349 415 408 0
348 346 413 0
414 348 413 0
343 415 349 0
410 415 343 0
412 351 416 0
345 351 412 0
348 416 351 0
414 416 348 0
419 417 418 0
419 420 417 0
421 420 419 0
422 420 421 0
425 423 424 0
425 426 423 0
427 426 425 0
417 428 426 0
418 417 426 0
427 418 426 0
429 417 420 0
428 417 429 0
422 429 420 0
430 429 422 0
354 431 424 0
355 354 424 0
423 355 424 0
423 426 355 0
355 426 357 0
426 428 432 0
426 432 358 0
426 358 357 0
433 428 429 0
432 428 433 0
430 433 429 0
434 433 430 0
354 435 431 0
359 435 354 0
361 358 432 0
432 433 361 0
433 362 361 0
433 437 362 0
437 436 362 0
433 434 437 0
359 438 435 0
365 438 359 0
367 436 439 0
362 436 367 0
365 440 438 0
370 440 365 0
372 439 441 0
367 439 372 0
440 376 442 0
370 376 440 0
442 377 443 0
376 377 442 0
443 378 444 0
377 378 443 0
372 444 378 0
441 444 372 0
388 387 445 0
389 445 446 0
388 445 389 0
389 446 390 0
392 391 447 0
447 448 445 0
392 447 445 0
387 392 445 0
446 445 448 0
394 446 448 0
393 394 448 0
394 390 446 0
396 395 449 0
449 450 447 0
396 449 447 0
391 396 447 0
448 447 450 0
398 448 450 0
397 398 450 0
398 393 448 0
449 395 400 0
451 450 449 0
402 451 449 0
400 402 449 0
450 403 397 0
451 403 450 0
405 404 452 0
405 452 406 0
402 407 451 0
403 451 407 0
409 408 453 0
452 404 411 0
453 410 409 0
411 406 452 0
456 454 455 0
456 457 413 0
454 456 413 0
412 454 413 0
458 413 457 0
414 413 458 0
453 408 415 0
415 410 453 0
454 460 455 0
459 460 454 0
461 459 454 0
461 454 412 0
461 412 416 0
414 458 462 0
416 414 462 0
461 416 462 0
460 459 463 0
459 464 463 0
461 464 459 0
461 462 464 0
466 418 465 0
419 418 466 0
421 419 466 0
467 421 466 0
468 467 466 0
421 467 422 0
425 424 469 0
471 427 425 0
470 471 425 0
469 470 425 0
427 471 418 0
418 471 465 0
472 467 468 0
473 430 422 0
472 473 422 0
467 472 422 0
474 424 431 0
469 424 474 0
469 474 470 0
470 474 475 0
434 430 473 0
434 473 477 0
434 477 476 0
478 476 477 0
479 431 435 0
474 431 479 0
474 479 480 0
474 480 481 0
474 481 475 0
481 480 482 0
483 436 437 0
476 484 483 0
476 483 437 0
476 437 434 0
478 484 476 0
485 484 478 0
486 435 438 0
479 435 486 0
486 480 479 0
487 480 486 0
480 487 488 0
480 488 489 0
480 489 482 0
489 483 490 0
489 436 483 0
488 436 489 0
439 436 488 0
483 491 490 0
484 491 483 0
484 485 491 0
492 438 440 0
486 438 492 0
492 487 486 0
493 487 492 0
493 488 487 0
494 488 493 0
488 441 439 0
494 441 488 0
492 440 442 0
442 493 492 0
443 493 442 0
443 494 493 0
444 494 443 0
444 441 494 0
496 455 495 0
456 455 496 0
497 456 496 0
457 456 497 0
498 457 497 0
458 457 498 0
455 499 495 0
460 499 455 0
462 498 500 0
458 498 462 0
502 499 460 0
501 502 460 0
463 501 460 0
503 501 464 0
464 501 463 0
462 500 504 0
464 462 504 0
503 464 504 0
502 501 505 0
501 506 505 0
503 506 501 0
503 504 506 0
509 507 508 0
510 507 509 0
466 465 511 0
514 512 513 0
466 511 468 0
507 515 512 0
508 507 512 0
514 508 512 0
510 515 507 0
516 515 510 0
471 470 517 0
517 518 511 0
471 517 511 0
465 471 511 0
519 472 518 0
519 513 472 0
513 512 472 0
518 472 511 0
511 472 468 0
512 515 520 0
512 520 473 0
512 473 472 0
516 520 515 0
521 520 516 0
522 470 475 0
517 470 522 0
522 518 517 0
523 518 522 0
518 523 524 0
518 524 525 0
518 525 519 0
524 473 525 0
524 526 473 0
526 477 473 0
525 473 527 0
527 473 520 0
521 527 520 0
478 477 526 0
522 475 481 0
528 523 522 0
482 528 522 0
481 482 522 0
528 524 523 0
529 524 528 0
529 526 524 0
530 526 529 0
526 485 478 0
530 485 526 0
528 482 489 0
489 529 528 0
490 529 489 0
490 530 529 0
491 530 490 0
491 485 530 0
532 495 531 0
496 495 532 0
533 496 532 0
497 496 533 0
534 497 533 0
498 497 534 0
495 535 531 0
499 535 495 0
500 534 536 0
498 534 500 0
499 537 535 0
502 537 499 0
504 536 538 0
500 536 504 0
537 505 539 0
502 505 537 0
539 506 540 0
505 506 539 0
504 540 506 0
538 540 504 0
542 508 541 0
509 508 542 0
509 542 544 0
510 509 544 0
543 510 544 0
545 543 544 0
547 513 546 0
514 513 547 0
514 547 508 0
508 547 541 0
548 516 510 0
548 510 543 0
548 543 549 0
543 545 549 0
513 550 546 0
519 550 513 0
552 551 553 0
521 516 548 0
551 521 548 0
553 551 548 0
550 525 554 0
519 525 550 0
554 525 527 0
552 554 527 0
551 552 527 0
527 521 551 0
532 531 555 0
533 555 556 0
532 555 533 0
533 556 534 0
531 535 557 0
555 531 557 0
558 555 557 0
558 559 555 0
555 559 556 0
560 536 534 0
559 560 534 0
556 559 534 0
535 561 557 0
537 561 535 0
538 560 562 0
536 560 538 0
561 539 563 0
537 539 561 0
563 540 564 0
539 540 563 0
538 564 540 0
562 564 538 0
566 541 565 0
542 541 566 0
567 542 566 0
544 542 567 0
568 544 567 0
545 544 568 0
547 546 569 0
541 571 565 0
541 570 571 0
547 570 541 0
569 570 547 0
549 572 571 0
549 571 570 0
549 570 548 0
545 572 549 0
568 572 545 0
573 546 550 0
569 546 573 0
570 569 573 0
553 570 573 0
552 553 573 0
553 548 570 0
573 550 554 0
554 552 573 0
558 557 574 0
559 574 575 0
558 574 559 0
559 575 560 0
557 561 576 0
574 557 576 0
577 574 576 0
577 578 574 0
574 578 575 0
579 562 560 0
578 579 560 0
575 578 560 0
576 563 580 0
561 563 576 0
580 564 581 0
563 564 580 0
562 581 564 0
579 581 562 0
566 565 582 0
582 567 566 0
583 567 582 0
568 567 583 0
582 565 571 0
571 583 582 0
572 583 571 0
572 568 583 0
585 576 584 0
577 576 585 0
586 577 585 0
578 577 586 0
587 578 586 0
579 578 587 0
584 580 588 0
576 580 584 0
588 581 589 0
580 581 588 0
579 589 581 0
587 589 579 0
585 584 590 0
586 590 591 0
585 590 586 0
586 591 587 0
590 584 588 0
588 591 590 0
589 591 588 0
589 587 591 0
