#!ascii version of
656 1316
4.000000  3.500000  34.000000  0
4.500000  4.000000  34.000000  0
4.000000  4.000000  34.500000  0
3.500000  4.000000  34.000000  0
5.000000  3.500000  33.000000  0
5.500000  4.000000  33.000000  0
5.000000  4.000000  33.500000  0
4.000000  3.500000  33.000000  0
3.500000  4.000000  33.000000  0
7.000000  3.500000  32.000000  0
7.500000  4.000000  32.000000  0
7.000000  4.000000  32.500000  0
6.000000  3.500000  32.000000  0
6.000000  4.000000  32.500000  0
5.000000  3.500000  32.000000  0
4.000000  3.500000  32.000000  0
3.500000  4.000000  32.000000  0
7.000000  3.500000  31.000000  0
7.500000  4.000000  31.000000  0
6.000000  3.500000  31.000000  0
5.000000  3.500000  31.000000  0
4.000000  3.500000  31.000000  0
3.500000  4.000000  31.000000  0
7.000000  4.000000  30.500000  0
6.000000  3.500000  30.000000  0
6.500000  4.000000  30.000000  0
5.000000  3.500000  30.000000  0
4.000000  3.500000  30.000000  0
3.500000  4.000000  30.000000  0
6.000000  4.000000  29.500000  0
5.000000  4.000000  29.500000  0
4.000000  4.000000  29.500000  0
4.000000  4.500000  34.000000  0
5.500000  5.000000  33.000000  0
5.000000  5.000000  33.500000  0
4.000000  5.000000  33.500000  0
3.500000  5.000000  33.000000  0
8.000000  4.500000  32.000000  0
8.500000  5.000000  32.000000  0
8.000000  5.000000  32.500000  0
7.000000  5.000000  32.500000  0
6.000000  5.000000  32.500000  0
3.500000  5.000000  32.000000  0
8.000000  4.500000  31.000000  0
8.500000  5.000000  31.000000  0
3.500000  5.000000  31.000000  0
8.000000  4.500000  30.000000  0
8.500000  5.000000  30.000000  0
7.000000  4.500000  30.000000  0
3.500000  5.000000  30.000000  0
9.000000  4.500000  29.000000  0
9.500000  5.000000  29.000000  0
9.000000  5.000000  29.500000  0
8.000000  4.500000  29.000000  0
7.000000  4.500000  29.000000  0
6.000000  4.500000  29.000000  0
5.500000  5.000000  29.000000  0
5.000000  5.000000  29.500000  0
4.000000  5.000000  29.500000  0
10.000000  4.500000  28.000000  0
10.500000  5.000000  28.000000  0
10.000000  5.000000  28.500000  0
9.000000  4.500000  28.000000  0
8.000000  4.500000  28.000000  0
7.000000  4.500000  28.000000  0
6.000000  4.500000  28.000000  0
5.500000  5.000000  28.000000  0
10.000000  4.500000  27.000000  0
10.500000  5.000000  27.000000  0
9.000000  4.500000  27.000000  0
8.000000  4.500000  27.000000  0
7.000000  4.500000  27.000000  0
6.000000  4.500000  27.000000  0
5.500000  5.000000  27.000000  0
13.000000  4.500000  26.000000  0
13.500000  5.000000  26.000000  0
13.000000  5.000000  26.500000  0
12.000000  4.500000  26.000000  0
12.000000  5.000000  26.500000  0
11.000000  4.500000  26.000000  0
11.000000  5.000000  26.500000  0
10.000000  4.500000  26.000000  0
9.000000  4.500000  26.000000  0
8.000000  4.500000  26.000000  0
7.000000  4.500000  26.000000  0
6.500000  5.000000  26.000000  0
6.000000  5.000000  26.500000  0
13.000000  4.500000  25.000000  0
13.500000  5.000000  25.000000  0
12.000000  4.500000  25.000000  0
11.000000  4.500000  25.000000  0
10.000000  4.500000  25.000000  0
9.000000  4.500000  25.000000  0
8.500000  5.000000  25.000000  0
8.000000  5.000000  25.500000  0
7.000000  5.000000  25.500000  0
13.000000  5.000000  24.500000  0
12.000000  5.000000  24.500000  0
11.000000  5.000000  24.500000  0
10.000000  5.000000  24.500000  0
9.000000  5.000000  24.500000  0
5.000000  5.500000  33.000000  0
4.000000  5.500000  33.000000  0
8.500000  6.000000  32.000000  0
8.000000  6.000000  32.500000  0
7.000000  6.000000  32.500000  0
6.000000  6.000000  32.500000  0
5.000000  6.000000  32.500000  0
4.000000  6.000000  32.500000  0
3.500000  6.000000  32.000000  0
8.500000  6.000000  31.000000  0
3.500000  6.000000  31.000000  0
8.500000  6.000000  30.000000  0
3.500000  6.000000  30.000000  0
10.000000  5.500000  29.000000  0
10.500000  6.000000  29.000000  0
10.000000  6.000000  29.500000  0
9.000000  6.000000  29.500000  0
5.500000  6.000000  29.000000  0
5.000000  6.000000  29.500000  0
4.000000  6.000000  29.500000  0
10.500000  6.000000  28.000000  0
5.500000  6.000000  28.000000  0
10.500000  6.000000  27.000000  0
5.500000  6.000000  27.000000  0
13.500000  6.000000  26.000000  0
13.000000  6.000000  26.500000  0
12.000000  6.000000  26.500000  0
11.000000  6.000000  26.500000  0
6.500000  6.000000  26.000000  0
6.000000  6.000000  26.500000  0
13.500000  6.000000  25.000000  0
8.500000  6.000000  25.000000  0
8.000000  6.000000  25.500000  0
7.000000  6.000000  25.500000  0
13.000000  6.000000  24.500000  0
12.000000  6.000000  24.500000  0
11.000000  6.000000  24.500000  0
10.000000  6.000000  24.500000  0
9.000000  6.000000  24.500000  0
8.500000  7.000000  32.000000  0
8.000000  7.000000  32.500000  0
7.000000  7.000000  32.500000  0
6.000000  7.000000  32.500000  0
5.000000  7.000000  32.500000  0
4.000000  7.000000  32.500000  0
3.500000  7.000000  32.000000  0
8.500000  7.000000  31.000000  0
3.500000  7.000000  31.000000  0
8.500000  7.000000  30.000000  0
3.500000  7.000000  30.000000  0
10.500000  7.000000  29.000000  0
10.000000  7.000000  29.500000  0
9.000000  7.000000  29.500000  0
5.000000  6.500000  29.000000  0
4.000000  6.500000  29.000000  0
3.500000  7.000000  29.000000  0
12.000000  6.500000  28.000000  0
12.500000  7.000000  28.000000  0
12.000000  7.000000  28.500000  0
11.000000  6.500000  28.000000  0
11.000000  7.000000  28.500000  0
5.000000  6.500000  28.000000  0
4.000000  6.500000  28.000000  0
3.500000  7.000000  28.000000  0
13.000000  6.500000  27.000000  0
13.500000  7.000000  27.000000  0
13.000000  7.000000  27.500000  0
12.000000  6.500000  27.000000  0
11.000000  6.500000  27.000000  0
5.500000  7.000000  27.000000  0
5.000000  7.000000  27.500000  0
4.000000  7.000000  27.500000  0
13.500000  7.000000  26.000000  0
6.500000  7.000000  26.000000  0
6.000000  7.000000  26.500000  0
13.500000  7.000000  25.000000  0
8.500000  7.000000  25.000000  0
8.000000  7.000000  25.500000  0
7.000000  7.000000  25.500000  0
13.000000  7.000000  24.500000  0
12.000000  7.000000  24.500000  0
11.000000  7.000000  24.500000  0
10.000000  7.000000  24.500000  0
9.000000  7.000000  24.500000  0
4.000000  7.500000  33.000000  0
4.500000  8.000000  33.000000  0
4.000000  8.000000  33.500000  0
3.500000  8.000000  33.000000  0
8.500000  8.000000  32.000000  0
8.000000  8.000000  32.500000  0
7.000000  8.000000  32.500000  0
6.000000  8.000000  32.500000  0
5.000000  8.000000  32.500000  0
3.500000  8.000000  32.000000  0
8.500000  8.000000  31.000000  0
3.500000  8.000000  31.000000  0
8.500000  8.000000  30.000000  0
3.500000  8.000000  30.000000  0
10.500000  8.000000  29.000000  0
10.000000  8.000000  29.500000  0
9.000000  8.000000  29.500000  0
3.500000  8.000000  29.000000  0
13.000000  7.500000  28.000000  0
13.500000  8.000000  28.000000  0
13.000000  8.000000  28.500000  0
12.000000  8.000000  28.500000  0
11.000000  8.000000  28.500000  0
3.500000  8.000000  28.000000  0
13.500000  8.000000  27.000000  0
5.500000  8.000000  27.000000  0
5.000000  8.000000  27.500000  0
4.000000  8.000000  27.500000  0
13.500000  8.000000  26.000000  0
6.500000  8.000000  26.000000  0
6.000000  8.000000  26.500000  0
13.500000  8.000000  25.000000  0
8.500000  8.000000  25.000000  0
8.000000  8.000000  25.500000  0
7.000000  8.000000  25.500000  0
13.000000  8.000000  24.500000  0
12.000000  8.000000  24.500000  0
11.000000  8.000000  24.500000  0
10.000000  8.000000  24.500000  0
9.000000  8.000000  24.500000  0
7.000000  8.500000  33.000000  0
7.500000  9.000000  33.000000  0
7.000000  9.000000  33.500000  0
6.000000  8.500000  33.000000  0
6.000000  9.000000  33.500000  0
5.000000  8.500000  33.000000  0
5.000000  9.000000  33.500000  0
4.000000  9.000000  33.500000  0
3.500000  9.000000  33.000000  0
8.500000  9.000000  32.000000  0
8.000000  9.000000  32.500000  0
3.500000  9.000000  32.000000  0
8.500000  9.000000  31.000000  0
3.500000  9.000000  31.000000  0
12.000000  8.500000  30.000000  0
12.500000  9.000000  30.000000  0
12.000000  9.000000  30.500000  0
11.000000  8.500000  30.000000  0
11.000000  9.000000  30.500000  0
10.000000  8.500000  30.000000  0
10.000000  9.000000  30.500000  0
9.000000  8.500000  30.000000  0
9.000000  9.000000  30.500000  0
3.500000  9.000000  30.000000  0
12.000000  8.500000  29.000000  0
12.500000  9.000000  29.000000  0
11.000000  8.500000  29.000000  0
4.000000  8.500000  29.000000  0
4.500000  9.000000  29.000000  0
4.000000  9.000000  29.500000  0
13.500000  9.000000  28.000000  0
13.000000  9.000000  28.500000  0
6.000000  8.500000  28.000000  0
6.500000  9.000000  28.000000  0
6.000000  9.000000  28.500000  0
5.000000  8.500000  28.000000  0
5.000000  9.000000  28.500000  0
4.000000  8.500000  28.000000  0
13.500000  9.000000  27.000000  0
7.000000  8.500000  27.000000  0
7.500000  9.000000  27.000000  0
7.000000  9.000000  27.500000  0
6.000000  8.500000  27.000000  0
13.500000  9.000000  26.000000  0
8.000000  8.500000  26.000000  0
8.500000  9.000000  26.000000  0
8.000000  9.000000  26.500000  0
7.000000  8.500000  26.000000  0
13.500000  9.000000  25.000000  0
8.500000  9.000000  25.000000  0
13.000000  9.000000  24.500000  0
12.000000  9.000000  24.500000  0
11.000000  9.000000  24.500000  0
10.000000  9.000000  24.500000  0
9.000000  9.000000  24.500000  0
4.000000  9.500000  34.000000  0
4.500000  10.000000  34.000000  0
4.000000  10.000000  34.500000  0
3.500000  10.000000  34.000000  0
8.000000  9.500000  33.000000  0
8.500000  10.000000  33.000000  0
8.000000  10.000000  33.500000  0
7.000000  10.000000  33.500000  0
6.000000  10.000000  33.500000  0
5.000000  10.000000  33.500000  0
3.500000  10.000000  33.000000  0
8.500000  10.000000  32.000000  0
3.500000  10.000000  32.000000  0
8.500000  10.000000  31.000000  0
3.500000  10.000000  31.000000  0
12.500000  10.000000  30.000000  0
12.000000  10.000000  30.500000  0
11.000000  10.000000  30.500000  0
10.000000  10.000000  30.500000  0
9.000000  10.000000  30.500000  0
3.500000  10.000000  30.000000  0
12.500000  10.000000  29.000000  0
4.500000  10.000000  29.000000  0
4.000000  10.000000  29.500000  0
13.500000  10.000000  28.000000  0
13.000000  10.000000  28.500000  0
6.500000  10.000000  28.000000  0
6.000000  10.000000  28.500000  0
5.000000  10.000000  28.500000  0
13.500000  10.000000  27.000000  0
9.000000  9.500000  27.000000  0
9.500000  10.000000  27.000000  0
9.000000  10.000000  27.500000  0
8.000000  9.500000  27.000000  0
8.000000  10.000000  27.500000  0
7.000000  10.000000  27.500000  0
13.000000  9.500000  26.000000  0
13.000000  10.000000  26.500000  0
12.000000  9.500000  26.000000  0
12.000000  10.000000  26.500000  0
11.000000  9.500000  26.000000  0
11.000000  10.000000  26.500000  0
10.000000  9.500000  26.000000  0
10.000000  10.000000  26.500000  0
9.000000  9.500000  26.000000  0
13.000000  9.500000  25.000000  0
12.000000  9.500000  25.000000  0
11.000000  9.500000  25.000000  0
10.000000  9.500000  25.000000  0
9.000000  9.500000  25.000000  0
4.000000  10.500000  34.000000  0
8.500000  11.000000  33.000000  0
8.000000  11.000000  33.500000  0
7.000000  11.000000  33.500000  0
6.000000  11.000000  33.500000  0
5.000000  11.000000  33.500000  0
4.000000  10.500000  33.000000  0
4.500000  11.000000  33.000000  0
8.500000  11.000000  32.000000  0
4.000000  10.500000  32.000000  0
4.500000  11.000000  32.000000  0
8.500000  11.000000  31.000000  0
6.000000  10.500000  31.000000  0
6.500000  11.000000  31.000000  0
6.000000  11.000000  31.500000  0
5.000000  10.500000  31.000000  0
5.000000  11.000000  31.500000  0
4.000000  10.500000  31.000000  0
12.500000  11.000000  30.000000  0
12.000000  11.000000  30.500000  0
11.000000  11.000000  30.500000  0
10.000000  11.000000  30.500000  0
9.000000  11.000000  30.500000  0
6.000000  10.500000  30.000000  0
6.500000  11.000000  30.000000  0
5.000000  10.500000  30.000000  0
4.000000  10.500000  30.000000  0
13.000000  10.500000  29.000000  0
13.500000  11.000000  29.000000  0
13.000000  11.000000  29.500000  0
6.000000  10.500000  29.000000  0
6.500000  11.000000  29.000000  0
5.000000  10.500000  29.000000  0
13.500000  11.000000  28.000000  0
6.500000  11.000000  28.000000  0
13.500000  11.000000  27.000000  0
9.500000  11.000000  27.000000  0
9.000000  11.000000  27.500000  0
8.000000  11.000000  27.500000  0
7.000000  11.000000  27.500000  0
13.000000  11.000000  26.500000  0
12.000000  11.000000  26.500000  0
11.000000  11.000000  26.500000  0
10.000000  11.000000  26.500000  0
8.500000  12.000000  33.000000  0
8.000000  12.000000  33.500000  0
7.000000  12.000000  33.500000  0
6.000000  11.500000  33.000000  0
6.500000  12.000000  33.000000  0
5.000000  11.500000  33.000000  0
8.500000  12.000000  32.000000  0
6.000000  11.500000  32.000000  0
6.500000  12.000000  32.000000  0
5.000000  11.500000  32.000000  0
8.500000  12.000000  31.000000  0
6.500000  12.000000  31.000000  0
12.500000  12.000000  30.000000  0
12.000000  12.000000  30.500000  0
11.000000  12.000000  30.500000  0
10.000000  12.000000  30.500000  0
9.000000  12.000000  30.500000  0
6.500000  12.000000  30.000000  0
13.500000  12.000000  29.000000  0
13.000000  12.000000  29.500000  0
6.500000  12.000000  29.000000  0
14.000000  11.500000  28.000000  0
14.500000  12.000000  28.000000  0
14.000000  12.000000  28.500000  0
9.000000  11.500000  28.000000  0
9.500000  12.000000  28.000000  0
9.000000  12.000000  28.500000  0
8.500000  12.000000  28.000000  0
6.500000  12.000000  28.000000  0
14.000000  12.000000  27.500000  0
13.500000  12.000000  27.000000  0
9.500000  12.000000  27.000000  0
8.000000  12.000000  27.500000  0
7.000000  12.000000  27.500000  0
13.000000  12.000000  26.500000  0
12.000000  12.000000  26.500000  0
11.000000  12.000000  26.500000  0
10.000000  12.000000  26.500000  0
7.000000  12.500000  34.000000  0
7.500000  13.000000  34.000000  0
7.000000  13.000000  34.500000  0
6.500000  13.000000  34.000000  0
8.500000  13.000000  33.000000  0
8.000000  13.000000  33.500000  0
6.500000  13.000000  33.000000  0
8.500000  13.000000  32.000000  0
6.500000  13.000000  32.000000  0
8.500000  13.000000  31.000000  0
6.500000  13.000000  31.000000  0
13.000000  12.500000  30.000000  0
13.500000  13.000000  30.000000  0
13.000000  13.000000  30.500000  0
12.000000  13.000000  30.500000  0
11.000000  13.000000  30.500000  0
10.000000  13.000000  30.500000  0
9.000000  13.000000  30.500000  0
8.000000  12.500000  30.000000  0
8.500000  13.000000  30.000000  0
8.000000  13.000000  30.500000  0
7.000000  12.500000  30.000000  0
7.000000  13.000000  30.500000  0
13.500000  13.000000  29.000000  0
9.000000  12.500000  29.000000  0
9.500000  13.000000  29.000000  0
9.000000  13.000000  29.500000  0
8.000000  12.500000  29.000000  0
7.000000  12.500000  29.000000  0
14.500000  13.000000  28.000000  0
14.000000  13.000000  28.500000  0
10.000000  12.500000  28.000000  0
10.500000  13.000000  28.000000  0
10.000000  13.000000  28.500000  0
8.000000  12.500000  28.000000  0
7.000000  12.500000  28.000000  0
14.000000  13.000000  27.500000  0
13.500000  13.000000  27.000000  0
10.000000  12.500000  27.000000  0
10.500000  13.000000  27.000000  0
13.000000  13.000000  26.500000  0
12.000000  13.000000  26.500000  0
11.000000  13.000000  26.500000  0
8.000000  13.500000  34.000000  0
8.500000  14.000000  34.000000  0
8.000000  14.000000  34.500000  0
7.000000  14.000000  34.500000  0
6.500000  14.000000  34.000000  0
8.500000  14.000000  33.000000  0
6.500000  14.000000  33.000000  0
10.000000  13.500000  32.000000  0
10.500000  14.000000  32.000000  0
10.000000  14.000000  32.500000  0
9.000000  13.500000  32.000000  0
9.000000  14.000000  32.500000  0
6.500000  14.000000  32.000000  0
10.000000  13.500000  31.000000  0
10.500000  14.000000  31.000000  0
9.000000  13.500000  31.000000  0
8.000000  13.500000  31.000000  0
8.500000  14.000000  31.000000  0
8.000000  14.000000  31.500000  0
7.000000  13.500000  31.000000  0
7.000000  14.000000  31.500000  0
14.000000  13.500000  30.000000  0
14.500000  14.000000  30.000000  0
14.000000  14.000000  30.500000  0
13.000000  14.000000  30.500000  0
12.000000  14.000000  30.500000  0
11.000000  14.000000  30.500000  0
8.500000  14.000000  30.000000  0
14.000000  13.500000  29.000000  0
14.500000  14.000000  29.000000  0
9.500000  14.000000  29.000000  0
9.000000  14.000000  29.500000  0
14.500000  14.000000  28.000000  0
11.000000  13.500000  28.000000  0
11.500000  14.000000  28.000000  0
11.000000  14.000000  28.500000  0
10.000000  14.000000  28.500000  0
14.000000  14.000000  27.500000  0
13.000000  13.500000  27.000000  0
13.000000  14.000000  27.500000  0
12.000000  13.500000  27.000000  0
12.000000  14.000000  27.500000  0
11.000000  13.500000  27.000000  0
8.000000  14.500000  35.000000  0
8.500000  15.000000  35.000000  0
8.000000  15.000000  35.500000  0
7.000000  14.500000  35.000000  0
7.000000  15.000000  35.500000  0
6.500000  15.000000  35.000000  0
8.500000  15.000000  34.000000  0
6.500000  15.000000  34.000000  0
8.500000  15.000000  33.000000  0
7.000000  14.500000  33.000000  0
7.500000  15.000000  33.000000  0
7.000000  15.000000  33.500000  0
12.000000  14.500000  32.000000  0
12.500000  15.000000  32.000000  0
12.000000  15.000000  32.500000  0
11.000000  14.500000  32.000000  0
11.000000  15.000000  32.500000  0
10.000000  15.000000  32.500000  0
9.000000  15.000000  32.500000  0
7.000000  14.500000  32.000000  0
7.500000  15.000000  32.000000  0
12.000000  14.500000  31.000000  0
12.500000  15.000000  31.000000  0
11.000000  14.500000  31.000000  0
8.500000  15.000000  31.000000  0
8.000000  15.000000  31.500000  0
14.500000  15.000000  30.000000  0
14.000000  15.000000  30.500000  0
13.000000  15.000000  30.500000  0
8.500000  15.000000  30.000000  0
14.500000  15.000000  29.000000  0
11.000000  14.500000  29.000000  0
11.500000  15.000000  29.000000  0
11.000000  15.000000  29.500000  0
10.000000  14.500000  29.000000  0
10.000000  15.000000  29.500000  0
9.000000  15.000000  29.500000  0
14.500000  15.000000  28.000000  0
11.500000  15.000000  28.000000  0
14.000000  15.000000  27.500000  0
13.000000  15.000000  27.500000  0
12.000000  15.000000  27.500000  0
8.500000  16.000000  35.000000  0
8.000000  16.000000  35.500000  0
7.000000  15.500000  35.000000  0
7.500000  16.000000  35.000000  0
10.000000  15.500000  34.000000  0
10.500000  16.000000  34.000000  0
10.000000  16.000000  34.500000  0
9.000000  15.500000  34.000000  0
9.000000  16.000000  34.500000  0
7.000000  15.500000  34.000000  0
7.500000  16.000000  34.000000  0
10.000000  15.500000  33.000000  0
10.500000  16.000000  33.000000  0
9.000000  15.500000  33.000000  0
8.000000  15.500000  33.000000  0
8.500000  16.000000  33.000000  0
8.000000  16.000000  33.500000  0
12.500000  16.000000  32.000000  0
12.000000  16.000000  32.500000  0
11.000000  16.000000  32.500000  0
8.000000  15.500000  32.000000  0
8.500000  16.000000  32.000000  0
12.500000  16.000000  31.000000  0
8.500000  16.000000  31.000000  0
14.500000  16.000000  30.000000  0
14.000000  16.000000  30.500000  0
13.000000  16.000000  30.500000  0
9.000000  15.500000  30.000000  0
9.500000  16.000000  30.000000  0
9.000000  16.000000  30.500000  0
14.000000  15.500000  29.000000  0
14.000000  16.000000  29.500000  0
13.000000  15.500000  29.000000  0
13.000000  16.000000  29.500000  0
12.500000  16.000000  29.000000  0
11.500000  16.000000  29.000000  0
11.000000  16.000000  29.500000  0
10.000000  16.000000  29.500000  0
14.000000  15.500000  28.000000  0
13.000000  15.500000  28.000000  0
12.000000  15.500000  28.000000  0
12.000000  16.000000  28.500000  0
8.500000  17.000000  35.000000  0
8.000000  17.000000  35.500000  0
7.500000  17.000000  35.000000  0
10.000000  16.500000  34.000000  0
9.500000  17.000000  34.000000  0
9.000000  17.000000  34.500000  0
7.500000  17.000000  34.000000  0
10.500000  17.000000  33.000000  0
10.000000  17.000000  33.500000  0
8.500000  17.000000  33.000000  0
8.000000  17.000000  33.500000  0
12.500000  17.000000  32.000000  0
12.000000  17.000000  32.500000  0
11.000000  17.000000  32.500000  0
8.500000  17.000000  32.000000  0
12.500000  17.000000  31.000000  0
9.000000  16.500000  31.000000  0
9.500000  17.000000  31.000000  0
9.000000  17.000000  31.500000  0
14.500000  17.000000  30.000000  0
14.000000  17.000000  30.500000  0
13.000000  17.000000  30.500000  0
10.000000  16.500000  30.000000  0
10.500000  17.000000  30.000000  0
10.000000  17.000000  30.500000  0
14.000000  17.000000  29.500000  0
13.000000  17.000000  29.500000  0
12.000000  16.500000  29.000000  0
12.000000  17.000000  29.500000  0
11.000000  17.000000  29.500000  0
9.000000  17.500000  35.000000  0
9.500000  18.000000  35.000000  0
9.000000  18.000000  35.500000  0
8.000000  18.000000  35.500000  0
7.500000  18.000000  35.000000  0
9.500000  18.000000  34.000000  0
7.500000  18.000000  34.000000  0
10.000000  17.500000  33.000000  0
9.000000  17.500000  33.000000  0
9.000000  18.000000  33.500000  0
8.000000  18.000000  33.500000  0
12.500000  18.000000  32.000000  0
12.000000  18.000000  32.500000  0
11.000000  18.000000  32.500000  0
10.000000  17.500000  32.000000  0
10.500000  18.000000  32.000000  0
9.000000  17.500000  32.000000  0
12.500000  18.000000  31.000000  0
10.000000  17.500000  31.000000  0
10.500000  18.000000  31.000000  0
15.000000  17.500000  30.000000  0
15.500000  18.000000  30.000000  0
15.000000  18.000000  30.500000  0
14.000000  18.000000  30.500000  0
13.000000  18.000000  30.500000  0
11.000000  17.500000  30.000000  0
11.500000  18.000000  30.000000  0
11.000000  18.000000  30.500000  0
15.000000  18.000000  29.500000  0
14.000000  18.000000  29.500000  0
13.000000  18.000000  29.500000  0
12.000000  18.000000  29.500000  0
9.000000  18.500000  35.000000  0
8.000000  18.500000  35.000000  0
9.000000  18.500000  34.000000  0
8.000000  18.500000  34.000000  0
12.000000  18.500000  32.000000  0
11.000000  18.500000  32.000000  0
12.000000  18.500000  31.000000  0
11.000000  18.500000  31.000000  0
15.000000  18.500000  30.000000  0
14.000000  18.500000  30.000000  0
13.000000  18.500000  30.000000  0
12.000000  18.500000  30.000000  0
2 0 1 0
3 0 2 0
6 4 5 0
0 7 4 0
1 0 4 0
6 1 4 0
3 7 0 0
8 7 3 0
11 9 10 0
11 12 9 0
13 12 11 0
4 14 12 0
5 4 12 0
13 5 12 0
15 4 7 0
14 4 15 0
8 15 7 0
16 15 8 0
9 18 10 0
17 18 9 0
19 9 12 0
17 9 19 0
20 12 14 0
19 12 20 0
21 14 15 0
20 14 21 0
16 21 15 0
22 21 16 0
18 17 23 0
17 19 24 0
23 17 24 0
25 23 24 0
26 19 20 0
24 19 26 0
27 20 21 0
26 20 27 0
22 27 21 0
28 27 22 0
25 24 29 0
24 30 29 0
26 30 24 0
26 31 30 0
27 31 26 0
27 28 31 0
2 1 32 0
2 32 3 0
34 5 33 0
6 5 34 0
6 34 35 0
6 35 32 0
6 32 1 0
36 8 3 0
35 36 3 0
32 35 3 0
39 37 38 0
39 40 11 0
37 39 11 0
10 37 11 0
41 11 40 0
13 11 41 0
13 41 5 0
5 41 33 0
16 36 42 0
8 36 16 0
37 44 38 0
43 44 37 0
10 18 37 0
37 18 43 0
22 42 45 0
16 42 22 0
43 47 44 0
46 47 43 0
48 46 43 0
48 43 18 0
48 18 23 0
25 48 23 0
28 45 49 0
22 45 28 0
52 50 51 0
46 53 50 0
47 46 50 0
52 47 50 0
54 46 48 0
53 46 54 0
55 54 48 0
55 48 25 0
55 25 29 0
29 30 57 0
29 57 56 0
29 56 55 0
57 31 58 0
30 31 57 0
28 58 31 0
49 58 28 0
61 59 60 0
50 62 59 0
51 50 59 0
61 51 59 0
63 50 53 0
62 50 63 0
64 53 54 0
63 53 64 0
65 54 55 0
64 54 65 0
56 65 55 0
66 65 56 0
59 68 60 0
67 68 59 0
69 59 62 0
67 59 69 0
70 62 63 0
69 62 70 0
71 63 64 0
70 63 71 0
72 64 65 0
71 64 72 0
66 72 65 0
73 72 66 0
76 74 75 0
76 77 74 0
78 77 76 0
78 79 77 0
80 79 78 0
67 81 79 0
68 67 79 0
80 68 79 0
82 67 69 0
81 67 82 0
83 69 70 0
82 69 83 0
84 70 71 0
83 70 84 0
84 71 72 0
85 84 72 0
86 85 72 0
72 73 86 0
74 88 75 0
87 88 74 0
89 74 77 0
87 74 89 0
90 77 79 0
89 77 90 0
91 79 81 0
90 79 91 0
92 81 82 0
91 81 92 0
92 82 83 0
93 92 83 0
94 93 83 0
83 95 94 0
84 95 83 0
84 85 95 0
88 87 96 0
87 97 96 0
89 97 87 0
89 98 97 0
90 98 89 0
90 99 98 0
91 99 90 0
91 100 99 0
92 100 91 0
92 93 100 0
34 33 101 0
35 101 102 0
34 101 35 0
35 102 36 0
104 38 103 0
39 38 104 0
105 39 104 0
40 39 105 0
106 40 105 0
41 40 106 0
41 106 107 0
41 107 101 0
41 101 33 0
107 108 101 0
101 108 102 0
109 42 36 0
108 109 36 0
102 108 36 0
38 110 103 0
44 110 38 0
45 109 111 0
42 109 45 0
44 112 110 0
47 112 44 0
49 111 113 0
45 111 49 0
116 114 115 0
116 117 52 0
114 116 52 0
51 114 52 0
52 117 47 0
47 117 112 0
118 56 119 0
119 56 57 0
119 58 120 0
57 58 119 0
49 120 58 0
113 120 49 0
60 121 115 0
61 60 115 0
114 61 115 0
114 51 61 0
66 118 122 0
56 118 66 0
60 123 121 0
68 123 60 0
73 122 124 0
66 122 73 0
126 75 125 0
76 75 126 0
127 76 126 0
78 76 127 0
128 78 127 0
80 78 128 0
80 128 68 0
68 128 123 0
129 85 130 0
130 85 86 0
73 130 86 0
124 130 73 0
75 131 125 0
88 131 75 0
132 93 133 0
133 93 94 0
133 95 134 0
94 95 133 0
85 134 95 0
129 134 85 0
131 96 135 0
88 96 131 0
135 97 136 0
96 97 135 0
136 98 137 0
97 98 136 0
137 99 138 0
98 99 137 0
138 100 139 0
99 100 138 0
93 139 100 0
132 139 93 0
141 103 140 0
104 103 141 0
142 104 141 0
105 104 142 0
143 105 142 0
106 105 143 0
144 106 143 0
107 106 144 0
145 107 144 0
108 107 145 0
146 108 145 0
109 108 146 0
103 147 140 0
110 147 103 0
111 146 148 0
109 146 111 0
110 149 147 0
112 149 110 0
113 148 150 0
111 148 113 0
152 115 151 0
116 115 152 0
153 116 152 0
117 116 153 0
117 153 112 0
112 153 149 0
154 118 119 0
155 154 120 0
120 154 119 0
113 150 156 0
120 113 156 0
155 120 156 0
159 157 158 0
159 160 157 0
161 160 159 0
151 115 121 0
151 121 160 0
151 160 161 0
122 118 162 0
162 118 154 0
163 154 155 0
162 154 163 0
156 163 155 0
164 163 156 0
167 165 166 0
157 168 165 0
158 157 165 0
167 158 165 0
169 157 160 0
168 157 169 0
121 123 160 0
160 123 169 0
170 124 122 0
170 122 162 0
170 162 171 0
162 172 171 0
163 172 162 0
163 164 172 0
125 173 166 0
126 125 166 0
165 126 166 0
165 168 126 0
126 168 127 0
168 169 127 0
127 169 128 0
169 123 128 0
174 129 175 0
175 129 130 0
124 175 130 0
170 175 124 0
125 176 173 0
131 176 125 0
177 132 178 0
178 132 133 0
178 134 179 0
133 134 178 0
129 179 134 0
174 179 129 0
176 135 180 0
131 135 176 0
180 136 181 0
135 136 180 0
181 137 182 0
136 137 181 0
182 138 183 0
137 138 182 0
183 139 184 0
138 139 183 0
132 184 139 0
177 184 132 0
187 185 186 0
188 185 187 0
190 140 189 0
141 140 190 0
191 141 190 0
142 141 191 0
192 142 191 0
143 142 192 0
193 143 192 0
144 143 193 0
145 144 193 0
145 193 186 0
145 186 185 0
188 194 146 0
185 188 146 0
145 185 146 0
140 195 189 0
147 195 140 0
148 194 196 0
146 194 148 0
147 197 195 0
149 197 147 0
150 196 198 0
148 196 150 0
200 151 199 0
152 151 200 0
201 152 200 0
153 152 201 0
153 201 149 0
149 201 197 0
156 198 202 0
150 198 156 0
205 203 204 0
205 206 159 0
203 205 159 0
158 203 159 0
207 159 206 0
161 159 207 0
161 207 151 0
151 207 199 0
164 202 208 0
156 202 164 0
166 209 204 0
167 166 204 0
203 167 204 0
203 158 167 0
210 170 211 0
211 170 171 0
211 172 212 0
171 172 211 0
164 212 172 0
208 212 164 0
166 213 209 0
173 213 166 0
214 174 215 0
215 174 175 0
170 215 175 0
210 215 170 0
173 216 213 0
176 216 173 0
217 177 218 0
218 177 178 0
218 179 219 0
178 179 218 0
174 219 179 0
214 219 174 0
216 180 220 0
176 180 216 0
220 181 221 0
180 181 220 0
221 182 222 0
181 182 221 0
222 183 223 0
182 183 222 0
223 184 224 0
183 184 223 0
177 224 184 0
217 224 177 0
227 225 226 0
227 228 225 0
229 228 227 0
229 230 228 0
231 230 229 0
231 232 187 0
230 231 187 0
186 230 187 0
233 187 232 0
188 187 233 0
235 189 234 0
190 189 235 0
191 190 235 0
191 235 226 0
191 226 225 0
225 228 191 0
191 228 192 0
228 230 192 0
192 230 193 0
230 186 193 0
194 233 236 0
188 233 194 0
189 237 234 0
195 237 189 0
196 236 238 0
194 236 196 0
241 239 240 0
241 242 239 0
243 242 241 0
243 244 242 0
245 244 243 0
245 246 244 0
247 246 245 0
237 195 197 0
237 197 246 0
237 246 247 0
198 238 248 0
196 238 198 0
239 250 240 0
249 250 239 0
251 239 242 0
249 239 251 0
251 242 244 0
251 244 200 0
251 200 199 0
244 246 200 0
200 246 201 0
246 197 201 0
253 252 254 0
202 198 248 0
252 202 248 0
254 252 248 0
256 204 255 0
205 204 256 0
206 205 256 0
206 256 250 0
206 250 249 0
249 251 206 0
206 251 207 0
251 199 207 0
258 257 259 0
257 260 259 0
259 260 261 0
260 262 252 0
260 252 253 0
260 253 261 0
252 208 202 0
262 208 252 0
204 263 255 0
209 263 204 0
265 264 266 0
264 267 257 0
264 257 258 0
264 258 266 0
260 257 267 0
211 260 267 0
210 211 267 0
211 262 260 0
212 262 211 0
212 208 262 0
209 268 263 0
213 268 209 0
270 269 271 0
269 272 264 0
269 264 265 0
269 265 271 0
267 264 272 0
215 267 272 0
214 215 272 0
215 210 267 0
213 273 268 0
216 273 213 0
270 274 217 0
270 217 218 0
270 218 269 0
218 272 269 0
219 272 218 0
219 214 272 0
273 220 275 0
216 220 273 0
275 221 276 0
220 221 275 0
276 222 277 0
221 222 276 0
277 223 278 0
222 223 277 0
278 224 279 0
223 224 278 0
217 279 224 0
274 279 217 0
282 280 281 0
283 280 282 0
286 284 285 0
286 287 227 0
284 286 227 0
226 284 227 0
288 227 287 0
229 227 288 0
289 229 288 0
231 229 289 0
232 231 289 0
232 289 281 0
232 281 280 0
283 290 233 0
280 283 233 0
232 280 233 0
234 291 285 0
235 234 285 0
284 235 285 0
284 226 235 0
236 290 292 0
233 290 236 0
234 293 291 0
237 293 234 0
238 292 294 0
236 292 238 0
296 240 295 0
241 240 296 0
297 241 296 0
243 241 297 0
298 243 297 0
245 243 298 0
299 245 298 0
247 245 299 0
247 299 237 0
237 299 293 0
248 294 300 0
238 294 248 0
240 301 295 0
250 301 240 0
302 253 303 0
303 253 254 0
248 303 254 0
300 303 248 0
305 255 304 0
256 255 305 0
256 305 250 0
250 305 301 0
306 258 307 0
307 258 259 0
307 261 308 0
259 261 307 0
253 308 261 0
302 308 253 0
255 309 304 0
263 309 255 0
311 310 312 0
310 313 312 0
312 313 314 0
266 315 314 0
266 314 313 0
266 313 265 0
258 315 266 0
306 315 258 0
309 263 268 0
317 309 268 0
316 317 268 0
316 318 317 0
317 318 319 0
318 320 319 0
319 320 321 0
320 322 321 0
321 322 323 0
322 324 310 0
322 310 311 0
322 311 323 0
313 310 324 0
271 313 324 0
270 271 324 0
271 265 313 0
325 268 273 0
316 268 325 0
325 318 316 0
326 318 325 0
326 320 318 0
327 320 326 0
327 322 320 0
328 322 327 0
328 324 322 0
329 324 328 0
324 274 270 0
329 274 324 0
325 273 275 0
275 326 325 0
276 326 275 0
276 327 326 0
277 327 276 0
277 328 327 0
278 328 277 0
278 329 328 0
279 329 278 0
279 274 329 0
282 281 330 0
282 330 283 0
332 285 331 0
286 285 332 0
333 286 332 0
287 286 333 0
334 287 333 0
288 287 334 0
335 288 334 0
289 288 335 0
289 335 281 0
335 330 281 0
335 337 330 0
337 336 330 0
330 290 283 0
336 290 330 0
285 338 331 0
291 338 285 0
337 340 336 0
336 340 339 0
336 292 290 0
339 292 336 0
291 341 338 0
293 341 291 0
343 342 344 0
342 345 344 0
344 345 346 0
345 347 339 0
345 339 340 0
345 340 346 0
339 294 292 0
347 294 339 0
349 295 348 0
296 295 349 0
350 296 349 0
297 296 350 0
351 297 350 0
298 297 351 0
352 298 351 0
299 298 352 0
299 352 293 0
293 352 341 0
343 354 342 0
342 354 353 0
353 345 342 0
355 345 353 0
355 347 345 0
356 347 355 0
347 300 294 0
356 300 347 0
359 357 358 0
348 295 301 0
348 301 357 0
348 357 359 0
354 361 353 0
353 361 360 0
360 355 353 0
362 355 360 0
356 355 362 0
303 356 362 0
302 303 362 0
303 300 356 0
304 363 358 0
305 304 358 0
357 305 358 0
357 301 305 0
361 364 306 0
361 306 307 0
361 307 360 0
307 362 360 0
308 362 307 0
308 302 362 0
304 365 363 0
309 365 304 0
366 311 367 0
367 311 312 0
367 314 368 0
312 314 367 0
368 315 369 0
314 315 368 0
306 369 315 0
364 369 306 0
365 317 370 0
309 317 365 0
370 319 371 0
317 319 370 0
371 321 372 0
319 321 371 0
372 323 373 0
321 323 372 0
311 373 323 0
366 373 311 0
375 331 374 0
332 331 375 0
376 332 375 0
333 332 376 0
334 333 376 0
377 334 376 0
378 377 376 0
335 377 379 0
334 377 335 0
335 379 337 0
331 380 374 0
338 380 331 0
378 382 377 0
377 382 381 0
381 379 377 0
383 379 381 0
379 340 337 0
383 340 379 0
338 384 380 0
341 384 338 0
382 385 343 0
382 343 344 0
382 344 381 0
344 383 381 0
346 383 344 0
346 340 383 0
387 348 386 0
349 348 387 0
388 349 387 0
350 349 388 0
389 350 388 0
351 350 389 0
390 351 389 0
352 351 390 0
352 390 341 0
341 390 384 0
354 385 391 0
343 385 354 0
393 358 392 0
359 358 393 0
359 393 348 0
348 393 386 0
361 391 394 0
354 391 361 0
397 395 396 0
392 358 363 0
392 363 395 0
392 395 397 0
399 398 400 0
400 398 401 0
364 394 402 0
361 394 364 0
396 395 403 0
363 365 404 0
363 404 403 0
363 403 395 0
399 405 366 0
399 366 367 0
399 367 398 0
367 368 406 0
398 367 406 0
401 398 406 0
406 369 407 0
368 369 406 0
364 407 369 0
402 407 364 0
404 370 408 0
365 370 404 0
408 371 409 0
370 371 408 0
409 372 410 0
371 372 409 0
410 373 411 0
372 373 410 0
366 411 373 0
405 411 366 0
414 412 413 0
415 412 414 0
417 374 416 0
375 374 417 0
376 375 417 0
376 417 413 0
376 413 412 0
415 418 378 0
412 415 378 0
376 412 378 0
374 419 416 0
380 419 374 0
382 418 420 0
378 418 382 0
380 421 419 0
384 421 380 0
385 420 422 0
382 420 385 0
425 423 424 0
425 426 387 0
423 425 387 0
386 423 387 0
427 387 426 0
388 387 427 0
428 388 427 0
389 388 428 0
429 389 428 0
390 389 429 0
390 430 384 0
390 429 430 0
429 431 430 0
384 430 421 0
421 430 432 0
430 433 432 0
432 433 434 0
391 385 422 0
433 391 422 0
434 433 422 0
392 435 424 0
393 392 424 0
423 393 424 0
423 386 393 0
437 436 438 0
436 439 430 0
436 430 431 0
436 431 438 0
439 433 430 0
440 433 439 0
433 394 391 0
440 394 433 0
442 396 441 0
397 396 442 0
397 442 392 0
392 442 435 0
444 443 445 0
443 437 445 0
443 399 437 0
399 436 437 0
400 436 399 0
446 439 436 0
401 446 436 0
400 401 436 0
446 440 439 0
447 440 446 0
440 402 394 0
447 402 440 0
441 403 448 0
396 403 441 0
448 403 449 0
449 403 404 0
444 451 443 0
443 451 450 0
443 405 399 0
450 405 443 0
446 401 406 0
406 447 446 0
407 447 406 0
407 402 447 0
449 408 452 0
404 408 449 0
452 409 453 0
408 409 452 0
453 410 454 0
409 410 453 0
454 410 411 0
451 454 411 0
450 451 411 0
411 405 450 0
457 455 456 0
457 458 414 0
455 457 414 0
413 455 414 0
459 414 458 0
415 414 459 0
416 460 456 0
417 416 456 0
455 417 456 0
455 413 417 0
418 459 461 0
415 459 418 0
464 462 463 0
464 465 462 0
466 465 464 0
460 416 419 0
460 419 465 0
460 465 466 0
420 461 467 0
418 461 420 0
462 469 463 0
468 469 462 0
470 462 465 0
468 462 470 0
419 473 465 0
419 421 473 0
421 471 473 0
465 473 470 0
470 473 472 0
471 474 473 0
473 474 475 0
422 420 467 0
474 422 467 0
475 474 467 0
478 476 477 0
478 479 425 0
476 478 425 0
424 476 425 0
480 425 479 0
426 425 480 0
481 426 480 0
427 426 481 0
428 427 481 0
428 481 469 0
428 469 468 0
468 470 428 0
428 470 429 0
432 471 421 0
470 472 429 0
472 431 429 0
482 431 472 0
432 474 471 0
434 474 432 0
434 422 474 0
476 484 477 0
483 484 476 0
424 435 476 0
476 435 483 0
485 437 486 0
486 437 438 0
431 486 438 0
482 486 431 0
441 487 484 0
442 441 484 0
483 442 484 0
483 435 442 0
489 488 490 0
445 491 490 0
445 490 488 0
445 488 444 0
437 491 445 0
485 491 437 0
487 448 492 0
441 448 487 0
494 492 448 0
494 448 449 0
494 449 493 0
493 495 494 0
494 495 496 0
495 497 488 0
495 488 489 0
495 489 496 0
488 451 444 0
497 451 488 0
493 449 452 0
452 495 493 0
453 495 452 0
453 497 495 0
454 497 453 0
454 451 497 0
500 498 499 0
500 501 498 0
502 501 500 0
503 501 502 0
456 504 499 0
457 456 499 0
498 457 499 0
498 501 457 0
457 501 458 0
503 505 459 0
501 503 459 0
458 501 459 0
456 506 504 0
460 506 456 0
508 507 509 0
461 459 505 0
507 461 505 0
509 507 505 0
512 510 511 0
512 513 510 0
514 513 512 0
514 515 464 0
513 514 464 0
463 513 464 0
516 464 515 0
466 464 516 0
466 516 460 0
460 516 506 0
508 518 507 0
507 518 517 0
507 467 461 0
517 467 507 0
510 520 511 0
519 520 510 0
521 510 513 0
519 510 521 0
463 469 513 0
513 469 521 0
522 472 523 0
523 472 473 0
523 473 475 0
518 523 475 0
517 518 475 0
475 467 517 0
525 477 524 0
478 477 525 0
526 478 525 0
479 478 526 0
480 479 526 0
480 526 520 0
480 520 519 0
519 521 480 0
480 521 481 0
521 469 481 0
482 522 527 0
472 522 482 0
477 528 524 0
484 528 477 0
530 529 531 0
529 532 531 0
531 532 533 0
486 534 533 0
486 533 532 0
486 532 485 0
482 534 486 0
527 534 482 0
484 535 528 0
487 535 484 0
530 536 489 0
530 489 490 0
530 490 529 0
490 532 529 0
491 532 490 0
491 485 532 0
535 492 537 0
487 492 535 0
537 494 538 0
492 494 537 0
538 496 539 0
494 496 538 0
489 539 496 0
536 539 489 0
541 499 540 0
500 499 541 0
502 500 541 0
542 502 541 0
543 542 541 0
502 542 503 0
546 544 545 0
546 547 544 0
548 547 546 0
540 499 504 0
540 504 547 0
540 547 548 0
543 550 542 0
542 550 549 0
542 505 503 0
549 505 542 0
544 552 545 0
551 552 544 0
553 544 547 0
551 544 553 0
504 556 547 0
504 506 556 0
506 554 556 0
547 556 553 0
553 556 555 0
554 550 556 0
554 508 550 0
508 549 550 0
509 549 508 0
509 505 549 0
558 511 557 0
512 511 558 0
559 512 558 0
514 512 559 0
515 514 559 0
515 559 552 0
515 552 551 0
551 553 515 0
515 553 516 0
560 516 561 0
560 554 516 0
554 506 516 0
561 516 555 0
555 516 553 0
554 518 508 0
560 518 554 0
511 562 557 0
520 562 511 0
561 563 522 0
561 522 523 0
561 523 560 0
523 518 560 0
565 524 564 0
525 524 565 0
566 525 565 0
526 525 566 0
526 566 520 0
520 566 562 0
568 567 569 0
527 522 563 0
567 527 563 0
569 567 563 0
564 524 528 0
571 564 528 0
570 571 528 0
570 572 571 0
571 572 573 0
573 572 574 0
575 530 576 0
576 530 531 0
576 533 577 0
531 533 576 0
577 533 534 0
568 577 534 0
567 568 534 0
534 527 567 0
578 528 535 0
570 528 578 0
578 572 570 0
579 572 578 0
572 579 580 0
572 580 581 0
572 581 574 0
536 530 575 0
580 536 575 0
581 580 575 0
578 535 537 0
537 579 578 0
538 579 537 0
538 580 579 0
539 580 538 0
539 536 580 0
583 540 582 0
541 540 583 0
584 541 583 0
543 541 584 0
546 545 585 0
587 548 546 0
586 587 546 0
585 586 546 0
548 587 540 0
540 587 582 0
550 584 588 0
543 584 550 0
545 552 589 0
585 545 589 0
590 585 589 0
590 586 585 0
591 555 592 0
592 555 556 0
550 592 556 0
588 592 550 0
594 557 593 0
558 557 594 0
595 558 594 0
559 558 595 0
559 595 552 0
552 595 589 0
561 591 596 0
555 591 561 0
557 597 593 0
562 597 557 0
599 598 600 0
563 561 596 0
598 563 596 0
600 598 596 0
602 564 601 0
565 564 602 0
603 565 602 0
566 565 603 0
566 603 562 0
562 603 597 0
605 604 606 0
604 599 606 0
604 568 599 0
568 598 599 0
569 598 568 0
569 563 598 0
601 571 607 0
564 571 601 0
607 573 608 0
571 573 607 0
610 608 573 0
610 573 574 0
610 574 609 0
576 611 610 0
576 610 609 0
576 609 575 0
611 576 577 0
605 611 577 0
604 605 577 0
577 568 604 0
609 574 581 0
581 575 609 0
614 612 613 0
614 615 583 0
612 614 583 0
582 612 583 0
616 583 615 0
584 583 616 0
586 617 613 0
587 586 613 0
612 587 613 0
612 582 587 0
588 616 618 0
584 616 588 0
590 589 619 0
586 621 617 0
586 620 621 0
590 620 586 0
619 620 590 0
592 622 621 0
592 621 620 0
592 620 591 0
588 622 592 0
618 622 588 0
624 593 623 0
594 593 624 0
625 594 624 0
595 594 625 0
595 625 589 0
625 619 589 0
625 627 619 0
627 626 619 0
626 620 619 0
628 620 626 0
620 596 591 0
628 596 620 0
593 629 623 0
597 629 593 0
627 631 626 0
626 631 630 0
628 626 630 0
600 628 630 0
599 600 630 0
600 596 628 0
634 632 633 0
634 635 602 0
632 634 602 0
601 632 602 0
636 602 635 0
603 602 636 0
603 636 597 0
597 636 629 0
638 637 639 0
637 631 639 0
637 605 631 0
605 630 631 0
606 630 605 0
606 599 630 0
633 632 640 0
607 641 640 0
601 607 640 0
632 601 640 0
641 608 642 0
607 608 641 0
642 610 643 0
608 610 642 0
643 610 611 0
638 643 611 0
637 638 611 0
611 605 637 0
614 613 644 0
615 644 645 0
614 644 615 0
615 645 616 0
646 613 617 0
644 613 646 0
646 645 644 0
647 645 646 0
645 618 616 0
647 618 645 0
646 617 621 0
621 647 646 0
622 647 621 0
622 618 647 0
624 623 648 0
625 648 649 0
624 648 625 0
625 649 627 0
650 623 629 0
648 623 650 0
650 649 648 0
651 649 650 0
649 631 627 0
651 631 649 0
634 633 652 0
635 652 653 0
634 652 635 0
636 653 654 0
635 653 636 0
654 655 650 0
636 654 650 0
629 636 650 0
651 650 655 0
639 651 655 0
638 639 655 0
639 631 651 0
652 633 640 0
640 653 652 0
641 653 640 0
641 654 653 0
642 654 641 0
642 655 654 0
643 655 642 0
643 638 655 0
