#!ascii version of
1248 2492
35.000000  -3.000000  10.500000  0
34.000000  -3.000000  10.500000  0
33.000000  -3.000000  10.500000  0
32.000000  -3.500000  10.000000  0
32.500000  -3.000000  10.000000  0
31.000000  -3.500000  10.000000  0
21.500000  -3.000000  10.000000  0
21.000000  -3.000000  10.500000  0
32.000000  -3.000000  9.500000  0
31.000000  -3.500000  9.000000  0
31.500000  -3.000000  9.000000  0
30.000000  -3.500000  9.000000  0
24.500000  -3.000000  9.000000  0
24.000000  -3.000000  9.500000  0
23.000000  -3.000000  9.500000  0
22.000000  -3.000000  9.500000  0
31.000000  -3.000000  8.500000  0
30.000000  -3.500000  8.000000  0
30.500000  -3.000000  8.000000  0
29.000000  -3.500000  8.000000  0
24.500000  -3.000000  8.000000  0
30.000000  -3.500000  7.000000  0
30.500000  -3.000000  7.000000  0
29.000000  -3.500000  7.000000  0
28.000000  -3.500000  7.000000  0
27.000000  -3.500000  7.000000  0
26.000000  -3.500000  7.000000  0
25.500000  -3.000000  7.000000  0
25.000000  -3.000000  7.500000  0
30.000000  -3.000000  6.500000  0
29.000000  -3.000000  6.500000  0
28.000000  -3.000000  6.500000  0
27.000000  -3.500000  6.000000  0
27.500000  -3.000000  6.000000  0
26.000000  -3.500000  6.000000  0
25.500000  -3.000000  6.000000  0
27.000000  -3.000000  5.500000  0
26.000000  -3.000000  5.500000  0
24.000000  -2.500000  23.000000  0
23.000000  -2.500000  23.000000  0
22.000000  -2.500000  23.000000  0
21.000000  -2.500000  23.000000  0
20.000000  -2.500000  23.000000  0
19.000000  -2.500000  23.000000  0
28.000000  -2.500000  22.000000  0
27.000000  -2.500000  22.000000  0
26.000000  -2.500000  22.000000  0
25.000000  -2.500000  22.000000  0
24.000000  -2.500000  22.000000  0
23.000000  -2.500000  22.000000  0
22.000000  -2.500000  22.000000  0
21.000000  -2.500000  22.000000  0
20.000000  -2.500000  22.000000  0
19.000000  -2.500000  22.000000  0
28.500000  -2.000000  21.000000  0
28.000000  -2.000000  21.500000  0
27.000000  -2.000000  21.500000  0
26.000000  -2.000000  21.500000  0
25.000000  -2.000000  21.500000  0
24.000000  -2.000000  21.500000  0
23.000000  -2.000000  21.500000  0
22.000000  -2.000000  21.500000  0
21.000000  -2.000000  21.500000  0
20.000000  -2.000000  21.500000  0
19.000000  -2.000000  21.500000  0
18.500000  -2.000000  21.000000  0
31.500000  -2.000000  20.000000  0
31.000000  -2.000000  20.500000  0
30.000000  -2.000000  20.500000  0
29.000000  -2.000000  20.500000  0
18.000000  -2.000000  20.500000  0
17.500000  -2.000000  20.000000  0
32.000000  -2.500000  19.000000  0
31.500000  -2.000000  19.000000  0
17.500000  -2.000000  19.000000  0
33.000000  -2.500000  18.000000  0
32.500000  -2.000000  18.000000  0
32.000000  -2.000000  18.500000  0
17.000000  -2.500000  18.000000  0
17.500000  -2.000000  18.000000  0
16.000000  -2.500000  18.000000  0
33.500000  -2.000000  17.000000  0
33.000000  -2.000000  17.500000  0
17.000000  -2.000000  17.500000  0
16.000000  -2.000000  17.500000  0
15.000000  -2.500000  17.000000  0
15.500000  -2.000000  17.000000  0
34.000000  -2.500000  16.000000  0
34.500000  -2.000000  16.000000  0
34.000000  -2.000000  16.500000  0
15.000000  -2.500000  16.000000  0
15.500000  -2.000000  16.000000  0
14.000000  -2.500000  16.000000  0
35.000000  -2.500000  15.000000  0
35.500000  -2.000000  15.000000  0
35.000000  -2.000000  15.500000  0
34.000000  -2.500000  15.000000  0
15.000000  -2.500000  15.000000  0
15.500000  -2.000000  15.000000  0
14.000000  -2.500000  15.000000  0
35.000000  -2.500000  14.000000  0
35.500000  -2.000000  14.000000  0
19.500000  -2.000000  14.000000  0
19.000000  -2.000000  14.500000  0
18.000000  -2.000000  14.500000  0
17.000000  -2.000000  14.500000  0
16.000000  -2.000000  14.500000  0
35.000000  -2.500000  13.000000  0
35.500000  -2.000000  13.000000  0
20.000000  -2.500000  13.000000  0
20.500000  -2.000000  13.000000  0
20.000000  -2.000000  13.500000  0
35.500000  -2.000000  12.000000  0
20.500000  -2.000000  12.000000  0
35.500000  -2.000000  11.000000  0
21.000000  -2.500000  11.000000  0
21.500000  -2.000000  11.000000  0
21.000000  -2.000000  11.500000  0
35.000000  -2.500000  10.000000  0
35.500000  -2.000000  10.000000  0
34.000000  -2.500000  10.000000  0
33.000000  -2.500000  10.000000  0
24.000000  -2.500000  10.000000  0
24.500000  -2.000000  10.000000  0
24.000000  -2.000000  10.500000  0
23.000000  -2.500000  10.000000  0
23.000000  -2.000000  10.500000  0
22.000000  -2.500000  10.000000  0
22.000000  -2.000000  10.500000  0
35.000000  -2.500000  9.000000  0
35.500000  -2.000000  9.000000  0
34.000000  -2.500000  9.000000  0
33.000000  -2.500000  9.000000  0
32.000000  -2.500000  9.000000  0
25.000000  -2.500000  9.000000  0
25.500000  -2.000000  9.000000  0
25.000000  -2.000000  9.500000  0
35.000000  -2.000000  8.500000  0
34.000000  -2.000000  8.500000  0
33.000000  -2.000000  8.500000  0
32.000000  -2.000000  8.500000  0
31.000000  -2.500000  8.000000  0
31.500000  -2.000000  8.000000  0
25.000000  -2.500000  8.000000  0
25.500000  -2.000000  8.000000  0
31.000000  -2.500000  7.000000  0
31.500000  -2.000000  7.000000  0
25.500000  -2.000000  7.000000  0
31.000000  -2.000000  6.500000  0
30.000000  -2.000000  6.500000  0
29.000000  -2.000000  6.500000  0
28.000000  -2.000000  6.500000  0
27.000000  -2.500000  6.000000  0
27.000000  -2.000000  6.500000  0
26.000000  -2.500000  6.000000  0
26.000000  -2.000000  6.500000  0
30.000000  -1.500000  21.000000  0
30.500000  -1.000000  21.000000  0
30.000000  -1.000000  21.500000  0
29.000000  -1.500000  21.000000  0
29.000000  -1.000000  21.500000  0
28.000000  -1.000000  21.500000  0
27.000000  -1.000000  21.500000  0
26.000000  -1.000000  21.500000  0
25.000000  -1.000000  21.500000  0
24.000000  -1.000000  21.500000  0
23.000000  -1.000000  21.500000  0
22.000000  -1.000000  21.500000  0
21.000000  -1.000000  21.500000  0
20.000000  -1.000000  21.500000  0
19.000000  -1.500000  21.000000  0
19.500000  -1.000000  21.000000  0
31.500000  -1.000000  20.000000  0
31.000000  -1.000000  20.500000  0
19.000000  -1.000000  20.500000  0
18.000000  -1.500000  20.000000  0
18.500000  -1.000000  20.000000  0
31.500000  -1.000000  19.000000  0
18.000000  -1.500000  19.000000  0
18.500000  -1.000000  19.000000  0
33.000000  -1.500000  18.000000  0
33.500000  -1.000000  18.000000  0
33.000000  -1.000000  18.500000  0
32.000000  -1.000000  18.500000  0
18.000000  -1.500000  18.000000  0
18.500000  -1.000000  18.000000  0
33.500000  -1.000000  17.000000  0
19.000000  -1.500000  17.000000  0
19.500000  -1.000000  17.000000  0
19.000000  -1.000000  17.500000  0
18.000000  -1.500000  17.000000  0
17.000000  -1.500000  17.000000  0
16.000000  -1.500000  17.000000  0
34.500000  -1.000000  16.000000  0
34.000000  -1.000000  16.500000  0
19.000000  -1.500000  16.000000  0
19.500000  -1.000000  16.000000  0
18.000000  -1.500000  16.000000  0
17.000000  -1.500000  16.000000  0
16.000000  -1.500000  16.000000  0
35.500000  -1.000000  15.000000  0
35.000000  -1.000000  15.500000  0
20.000000  -1.500000  15.000000  0
20.500000  -1.000000  15.000000  0
20.000000  -1.000000  15.500000  0
19.000000  -1.500000  15.000000  0
18.000000  -1.500000  15.000000  0
17.000000  -1.500000  15.000000  0
16.000000  -1.500000  15.000000  0
35.500000  -1.000000  14.000000  0
20.000000  -1.500000  14.000000  0
20.500000  -1.000000  14.000000  0
35.500000  -1.000000  13.000000  0
20.500000  -1.000000  13.000000  0
35.500000  -1.000000  12.000000  0
22.000000  -1.500000  12.000000  0
22.500000  -1.000000  12.000000  0
22.000000  -1.000000  12.500000  0
21.000000  -1.500000  12.000000  0
21.000000  -1.000000  12.500000  0
35.500000  -1.000000  11.000000  0
24.000000  -1.500000  11.000000  0
24.500000  -1.000000  11.000000  0
24.000000  -1.000000  11.500000  0
23.000000  -1.500000  11.000000  0
23.000000  -1.000000  11.500000  0
22.000000  -1.500000  11.000000  0
35.500000  -1.000000  10.000000  0
25.000000  -1.500000  10.000000  0
25.500000  -1.000000  10.000000  0
25.000000  -1.000000  10.500000  0
35.500000  -1.000000  9.000000  0
25.500000  -1.000000  9.000000  0
35.000000  -1.000000  8.500000  0
34.000000  -1.500000  8.000000  0
34.500000  -1.000000  8.000000  0
33.000000  -1.500000  8.000000  0
32.000000  -1.500000  8.000000  0
25.500000  -1.000000  8.000000  0
34.000000  -1.000000  7.500000  0
33.000000  -1.000000  7.500000  0
32.000000  -1.000000  7.500000  0
31.500000  -1.000000  7.000000  0
26.000000  -1.500000  7.000000  0
26.500000  -1.000000  7.000000  0
26.000000  -1.000000  7.500000  0
31.000000  -1.000000  6.500000  0
30.000000  -1.000000  6.500000  0
29.000000  -1.000000  6.500000  0
28.000000  -1.000000  6.500000  0
27.000000  -1.000000  6.500000  0
30.000000  -0.500000  21.000000  0
29.000000  -0.500000  21.000000  0
28.000000  -0.500000  21.000000  0
27.500000  0.000000  21.000000  0
27.000000  0.000000  21.500000  0
26.000000  0.000000  21.500000  0
25.000000  0.000000  21.500000  0
24.000000  0.000000  21.500000  0
23.000000  0.000000  21.500000  0
22.000000  -0.500000  21.000000  0
22.500000  0.000000  21.000000  0
21.000000  -0.500000  21.000000  0
20.000000  -0.500000  21.000000  0
31.000000  -0.500000  20.000000  0
30.000000  -0.500000  20.000000  0
29.500000  0.000000  20.000000  0
29.000000  0.000000  20.500000  0
28.000000  0.000000  20.500000  0
22.000000  0.000000  20.500000  0
21.000000  0.000000  20.500000  0
20.000000  0.000000  20.500000  0
19.000000  -0.500000  20.000000  0
19.500000  0.000000  20.000000  0
31.500000  0.000000  19.000000  0
31.000000  0.000000  19.500000  0
30.000000  0.000000  19.500000  0
19.000000  -0.500000  19.000000  0
19.500000  0.000000  19.000000  0
33.000000  -0.500000  18.000000  0
32.000000  -0.500000  18.000000  0
31.500000  0.000000  18.000000  0
19.000000  -0.500000  18.000000  0
19.500000  0.000000  18.000000  0
33.500000  0.000000  17.000000  0
33.000000  0.000000  17.500000  0
32.000000  0.000000  17.500000  0
19.500000  0.000000  17.000000  0
34.500000  0.000000  16.000000  0
34.000000  0.000000  16.500000  0
20.000000  -0.500000  16.000000  0
20.500000  0.000000  16.000000  0
20.000000  0.000000  16.500000  0
35.000000  -0.500000  15.000000  0
34.500000  0.000000  15.000000  0
20.500000  0.000000  15.000000  0
35.000000  -0.500000  14.000000  0
34.500000  0.000000  14.000000  0
21.000000  -0.500000  14.000000  0
21.500000  0.000000  14.000000  0
21.000000  0.000000  14.500000  0
35.000000  -0.500000  13.000000  0
34.500000  0.000000  13.000000  0
22.000000  -0.500000  13.000000  0
22.500000  0.000000  13.000000  0
22.000000  0.000000  13.500000  0
21.000000  -0.500000  13.000000  0
35.500000  0.000000  12.000000  0
35.000000  0.000000  12.500000  0
23.000000  -0.500000  12.000000  0
23.500000  0.000000  12.000000  0
23.000000  0.000000  12.500000  0
35.500000  0.000000  11.000000  0
26.000000  -0.500000  11.000000  0
26.500000  0.000000  11.000000  0
26.000000  0.000000  11.500000  0
25.000000  -0.500000  11.000000  0
25.000000  0.000000  11.500000  0
24.000000  0.000000  11.500000  0
35.500000  0.000000  10.000000  0
26.000000  -0.500000  10.000000  0
26.500000  0.000000  10.000000  0
35.000000  -0.500000  9.000000  0
35.000000  0.000000  9.500000  0
34.000000  -0.500000  9.000000  0
34.000000  0.000000  9.500000  0
33.000000  -0.500000  9.000000  0
33.000000  0.000000  9.500000  0
32.500000  0.000000  9.000000  0
26.000000  -0.500000  9.000000  0
26.500000  0.000000  9.000000  0
34.000000  -0.500000  8.000000  0
33.000000  -0.500000  8.000000  0
32.500000  0.000000  8.000000  0
26.000000  -0.500000  8.000000  0
26.500000  0.000000  8.000000  0
32.000000  0.000000  7.500000  0
31.500000  0.000000  7.000000  0
26.500000  0.000000  7.000000  0
31.000000  0.000000  6.500000  0
30.000000  0.000000  6.500000  0
29.000000  0.000000  6.500000  0
28.000000  0.000000  6.500000  0
27.000000  0.000000  6.500000  0
28.000000  0.500000  21.000000  0
28.500000  1.000000  21.000000  0
28.000000  1.000000  21.500000  0
27.000000  1.000000  21.500000  0
26.000000  1.000000  21.500000  0
25.000000  0.500000  21.000000  0
25.500000  1.000000  21.000000  0
24.000000  0.500000  21.000000  0
23.000000  0.500000  21.000000  0
29.500000  1.000000  20.000000  0
29.000000  1.000000  20.500000  0
25.000000  1.000000  20.500000  0
24.000000  1.000000  20.500000  0
23.000000  1.000000  20.500000  0
22.000000  1.000000  20.500000  0
21.000000  0.500000  20.000000  0
21.500000  1.000000  20.000000  0
20.000000  0.500000  20.000000  0
31.500000  1.000000  19.000000  0
31.000000  1.000000  19.500000  0
30.000000  1.000000  19.500000  0
21.000000  1.000000  19.500000  0
20.000000  0.500000  19.000000  0
20.500000  1.000000  19.000000  0
31.500000  1.000000  18.000000  0
20.000000  0.500000  18.000000  0
20.500000  1.000000  18.000000  0
33.500000  1.000000  17.000000  0
33.000000  1.000000  17.500000  0
32.000000  1.000000  17.500000  0
21.000000  0.500000  17.000000  0
21.500000  1.000000  17.000000  0
21.000000  1.000000  17.500000  0
20.000000  0.500000  17.000000  0
34.500000  1.000000  16.000000  0
34.000000  1.000000  16.500000  0
21.000000  0.500000  16.000000  0
21.500000  1.000000  16.000000  0
34.500000  1.000000  15.000000  0
21.000000  0.500000  15.000000  0
21.500000  1.000000  15.000000  0
34.500000  1.000000  14.000000  0
21.500000  1.000000  14.000000  0
34.500000  1.000000  13.000000  0
22.500000  1.000000  13.000000  0
22.000000  1.000000  13.500000  0
35.000000  0.500000  12.000000  0
34.500000  1.000000  12.000000  0
25.000000  0.500000  12.000000  0
25.500000  1.000000  12.000000  0
25.000000  1.000000  12.500000  0
24.000000  0.500000  12.000000  0
24.000000  1.000000  12.500000  0
23.000000  1.000000  12.500000  0
35.000000  0.500000  11.000000  0
34.500000  1.000000  11.000000  0
26.500000  1.000000  11.000000  0
26.000000  1.000000  11.500000  0
35.000000  0.500000  10.000000  0
34.000000  0.500000  10.000000  0
34.000000  1.000000  10.500000  0
33.500000  1.000000  10.000000  0
26.500000  1.000000  10.000000  0
33.000000  1.000000  9.500000  0
32.500000  1.000000  9.000000  0
27.000000  0.500000  9.000000  0
27.500000  1.000000  9.000000  0
27.000000  1.000000  9.500000  0
32.000000  0.500000  8.000000  0
32.000000  1.000000  8.500000  0
31.500000  1.000000  8.000000  0
27.000000  0.500000  8.000000  0
27.500000  1.000000  8.000000  0
31.000000  0.500000  7.000000  0
31.000000  1.000000  7.500000  0
30.000000  0.500000  7.000000  0
30.000000  1.000000  7.500000  0
29.000000  0.500000  7.000000  0
29.000000  1.000000  7.500000  0
28.000000  0.500000  7.000000  0
28.000000  1.000000  7.500000  0
27.000000  0.500000  7.000000  0
28.000000  1.500000  21.000000  0
27.000000  1.500000  21.000000  0
26.000000  1.500000  21.000000  0
29.000000  1.500000  20.000000  0
28.000000  1.500000  20.000000  0
27.000000  1.500000  20.000000  0
26.000000  1.500000  20.000000  0
25.000000  1.500000  20.000000  0
24.000000  1.500000  20.000000  0
23.000000  1.500000  20.000000  0
22.000000  1.500000  20.000000  0
31.000000  1.500000  19.000000  0
30.000000  1.500000  19.000000  0
29.000000  1.500000  19.000000  0
28.000000  1.500000  19.000000  0
27.000000  1.500000  19.000000  0
26.000000  1.500000  19.000000  0
25.000000  1.500000  19.000000  0
24.000000  1.500000  19.000000  0
23.000000  1.500000  19.000000  0
22.000000  1.500000  19.000000  0
21.000000  1.500000  19.000000  0
31.000000  1.500000  18.000000  0
30.000000  1.500000  18.000000  0
29.000000  1.500000  18.000000  0
28.000000  1.500000  18.000000  0
27.000000  1.500000  18.000000  0
26.000000  1.500000  18.000000  0
25.000000  1.500000  18.000000  0
24.000000  1.500000  18.000000  0
23.000000  1.500000  18.000000  0
22.000000  1.500000  18.000000  0
21.000000  1.500000  18.000000  0
33.000000  1.500000  17.000000  0
32.000000  1.500000  17.000000  0
31.000000  1.500000  17.000000  0
30.000000  1.500000  17.000000  0
29.000000  1.500000  17.000000  0
28.000000  1.500000  17.000000  0
27.000000  1.500000  17.000000  0
26.000000  1.500000  17.000000  0
25.000000  1.500000  17.000000  0
24.000000  1.500000  17.000000  0
23.000000  1.500000  17.000000  0
22.000000  1.500000  17.000000  0
34.000000  1.500000  16.000000  0
33.000000  1.500000  16.000000  0
32.000000  1.500000  16.000000  0
31.000000  1.500000  16.000000  0
30.000000  1.500000  16.000000  0
29.000000  1.500000  16.000000  0
28.000000  1.500000  16.000000  0
27.000000  1.500000  16.000000  0
26.000000  1.500000  16.000000  0
25.000000  1.500000  16.000000  0
24.000000  1.500000  16.000000  0
23.000000  1.500000  16.000000  0
22.000000  1.500000  16.000000  0
34.000000  1.500000  15.000000  0
33.000000  1.500000  15.000000  0
32.000000  1.500000  15.000000  0
31.000000  1.500000  15.000000  0
30.000000  1.500000  15.000000  0
29.000000  1.500000  15.000000  0
28.000000  1.500000  15.000000  0
27.000000  1.500000  15.000000  0
26.000000  1.500000  15.000000  0
25.000000  1.500000  15.000000  0
24.000000  1.500000  15.000000  0
23.000000  1.500000  15.000000  0
22.000000  1.500000  15.000000  0
34.000000  1.500000  14.000000  0
33.000000  1.500000  14.000000  0
32.000000  1.500000  14.000000  0
31.000000  1.500000  14.000000  0
30.500000  2.000000  14.000000  0
30.000000  2.000000  14.500000  0
29.000000  2.000000  14.500000  0
28.000000  2.000000  14.500000  0
27.000000  2.000000  14.500000  0
26.000000  1.500000  14.000000  0
26.500000  2.000000  14.000000  0
25.000000  1.500000  14.000000  0
24.000000  1.500000  14.000000  0
23.000000  1.500000  14.000000  0
22.000000  1.500000  14.000000  0
34.000000  1.500000  13.000000  0
33.500000  2.000000  13.000000  0
33.000000  2.000000  13.500000  0
32.000000  2.000000  13.500000  0
31.000000  2.000000  13.500000  0
26.000000  1.500000  13.000000  0
26.500000  2.000000  13.000000  0
25.000000  1.500000  13.000000  0
24.000000  1.500000  13.000000  0
23.000000  1.500000  13.000000  0
34.000000  1.500000  12.000000  0
33.500000  2.000000  12.000000  0
26.000000  1.500000  12.000000  0
26.500000  2.000000  12.000000  0
34.000000  1.500000  11.000000  0
33.500000  2.000000  11.000000  0
27.000000  1.500000  11.000000  0
27.500000  2.000000  11.000000  0
27.000000  2.000000  11.500000  0
33.000000  1.500000  10.000000  0
33.000000  2.000000  10.500000  0
32.000000  1.500000  10.000000  0
32.000000  2.000000  10.500000  0
31.500000  2.000000  10.000000  0
27.000000  1.500000  10.000000  0
27.500000  2.000000  10.000000  0
32.000000  1.500000  9.000000  0
31.000000  1.500000  9.000000  0
31.000000  2.000000  9.500000  0
30.500000  2.000000  9.000000  0
27.500000  2.000000  9.000000  0
31.000000  1.500000  8.000000  0
30.000000  1.500000  8.000000  0
30.000000  2.000000  8.500000  0
29.000000  1.500000  8.000000  0
29.000000  2.000000  8.500000  0
28.000000  1.500000  8.000000  0
28.000000  2.000000  8.500000  0
30.000000  2.500000  14.000000  0
29.000000  2.500000  14.000000  0
28.000000  2.500000  14.000000  0
27.000000  2.500000  14.000000  0
33.000000  2.500000  13.000000  0
32.000000  2.500000  13.000000  0
31.000000  2.500000  13.000000  0
30.000000  2.500000  13.000000  0
29.000000  2.500000  13.000000  0
28.000000  2.500000  13.000000  0
27.000000  2.500000  13.000000  0
33.000000  2.500000  12.000000  0
32.000000  2.500000  12.000000  0
31.000000  2.500000  12.000000  0
30.000000  2.500000  12.000000  0
29.000000  2.500000  12.000000  0
28.000000  2.500000  12.000000  0
27.000000  2.500000  12.000000  0
33.000000  2.500000  11.000000  0
32.000000  2.500000  11.000000  0
31.000000  2.500000  11.000000  0
30.000000  2.500000  11.000000  0
29.000000  2.500000  11.000000  0
28.000000  2.500000  11.000000  0
31.000000  2.500000  10.000000  0
30.000000  2.500000  10.000000  0
29.000000  2.500000  10.000000  0
28.000000  2.500000  10.000000  0
30.000000  2.500000  9.000000  0
29.000000  2.500000  9.000000  0
28.000000  2.500000  9.000000  0
2 0 1 0
2 3 0 0
4 3 2 0
4 5 3 0
6 5 4 0
6 7 5 0
8 7 6 0
8 9 7 0
10 9 8 0
11 9 10 0
14 12 13 0
14 15 12 0
16 15 14 0
16 17 15 0
18 17 16 0
18 19 17 0
20 19 18 0
0 21 19 0
1 0 19 0
20 1 19 0
22 0 3 0
21 0 22 0
23 3 5 0
22 3 23 0
24 5 7 0
23 5 24 0
25 7 9 0
24 7 25 0
11 25 9 0
26 25 11 0
12 28 13 0
27 28 12 0
29 12 15 0
27 12 29 0
30 15 17 0
29 15 30 0
31 17 19 0
30 17 31 0
32 19 21 0
31 19 32 0
33 21 22 0
32 21 33 0
34 22 23 0
33 22 34 0
35 23 24 0
34 23 35 0
36 24 25 0
35 24 36 0
26 36 25 0
37 36 26 0
28 27 38 0
27 39 38 0
29 39 27 0
29 40 39 0
30 40 29 0
30 41 40 0
31 41 30 0
31 32 42 0
41 31 42 0
43 41 42 0
44 32 33 0
42 32 44 0
45 33 34 0
44 33 45 0
46 34 35 0
45 34 46 0
47 35 36 0
46 35 47 0
37 47 36 0
48 47 37 0
43 42 49 0
42 50 49 0
44 50 42 0
44 51 50 0
45 51 44 0
45 46 52 0
51 45 52 0
53 51 52 0
54 46 47 0
52 46 54 0
48 54 47 0
55 54 48 0
53 52 56 0
52 57 56 0
54 57 52 0
54 55 57 0
60 58 59 0
60 61 58 0
62 61 60 0
62 63 61 0
64 63 62 0
64 65 2 0
63 64 2 0
1 63 2 0
66 2 65 0
4 2 66 0
67 4 66 0
6 4 67 0
68 6 67 0
8 6 68 0
69 8 68 0
10 8 69 0
70 10 69 0
11 10 70 0
72 13 71 0
14 13 72 0
16 14 72 0
16 72 59 0
16 59 58 0
58 61 16 0
16 61 18 0
61 63 18 0
18 63 20 0
63 1 20 0
26 70 73 0
11 70 26 0
13 74 71 0
28 74 13 0
37 73 75 0
26 73 37 0
78 76 77 0
78 79 76 0
80 79 78 0
74 28 80 0
28 79 80 0
28 38 79 0
38 81 79 0
82 81 39 0
39 81 38 0
83 82 40 0
40 82 39 0
84 83 41 0
41 83 40 0
43 84 41 0
48 75 85 0
37 75 48 0
88 86 87 0
76 90 77 0
86 88 89 0
76 91 90 0
79 91 76 0
79 92 91 0
81 92 79 0
81 93 92 0
82 93 81 0
82 94 93 0
83 94 82 0
83 84 95 0
94 83 95 0
96 94 95 0
97 95 84 0
97 84 43 0
97 43 49 0
98 97 50 0
50 97 49 0
99 98 51 0
51 98 50 0
53 99 51 0
101 100 102 0
55 48 85 0
100 55 85 0
102 100 85 0
87 86 103 0
86 89 103 0
95 105 96 0
104 105 95 0
106 95 97 0
104 95 106 0
107 97 98 0
106 97 107 0
108 98 99 0
107 98 108 0
109 108 99 0
109 99 53 0
109 53 56 0
101 110 100 0
110 57 100 0
110 109 57 0
109 56 57 0
57 55 100 0
105 104 111 0
104 112 111 0
106 112 104 0
106 113 112 0
107 113 106 0
107 114 113 0
108 114 107 0
108 115 114 0
109 115 108 0
109 110 115 0
118 116 117 0
118 119 60 0
116 118 60 0
59 116 60 0
120 60 119 0
62 60 120 0
121 62 120 0
64 62 121 0
122 64 121 0
65 64 122 0
123 65 122 0
66 65 123 0
124 66 123 0
67 66 124 0
125 67 124 0
68 67 125 0
126 68 125 0
69 68 126 0
127 69 126 0
70 69 127 0
71 128 117 0
72 71 117 0
116 72 117 0
116 59 72 0
73 70 127 0
73 127 130 0
73 130 129 0
130 131 129 0
132 131 130 0
133 131 132 0
71 134 128 0
74 134 71 0
75 73 135 0
135 73 129 0
136 129 131 0
135 129 136 0
133 136 131 0
137 136 133 0
139 77 138 0
78 77 139 0
140 78 139 0
80 78 140 0
80 140 74 0
74 140 134 0
85 75 141 0
141 75 135 0
142 135 136 0
141 135 142 0
137 142 136 0
143 142 137 0
145 87 144 0
88 87 145 0
138 146 145 0
138 77 146 0
77 90 146 0
145 146 88 0
88 146 89 0
147 146 91 0
91 146 90 0
148 147 92 0
92 147 91 0
149 148 93 0
93 148 92 0
150 149 94 0
94 149 93 0
96 150 94 0
151 101 152 0
152 101 102 0
153 152 102 0
141 153 102 0
85 141 102 0
141 154 153 0
142 154 141 0
142 143 154 0
144 103 155 0
87 103 144 0
156 155 103 0
146 156 103 0
89 146 103 0
146 157 156 0
147 157 146 0
147 158 157 0
148 158 147 0
148 149 159 0
158 148 159 0
160 158 159 0
161 149 150 0
159 149 161 0
96 105 150 0
150 105 161 0
110 151 162 0
101 151 110 0
160 159 163 0
159 164 163 0
161 164 159 0
111 165 164 0
105 111 164 0
161 105 164 0
165 112 166 0
111 112 165 0
166 113 167 0
112 113 166 0
167 114 168 0
113 114 167 0
168 115 169 0
114 115 168 0
110 169 115 0
162 169 110 0
171 117 170 0
118 117 171 0
172 118 171 0
119 118 172 0
173 119 172 0
120 119 173 0
174 120 173 0
121 120 174 0
175 121 174 0
122 121 175 0
176 122 175 0
123 122 176 0
177 123 176 0
124 123 177 0
178 124 177 0
125 124 178 0
179 125 178 0
126 125 179 0
180 126 179 0
127 126 180 0
117 181 170 0
128 181 117 0
182 130 180 0
180 130 127 0
183 130 182 0
132 130 183 0
184 132 183 0
133 132 184 0
187 185 186 0
181 128 134 0
181 134 185 0
181 185 187 0
137 184 188 0
133 184 137 0
190 138 189 0
139 138 190 0
140 139 190 0
140 190 186 0
140 186 185 0
185 134 140 0
143 137 188 0
143 188 192 0
143 192 191 0
192 193 191 0
194 193 192 0
195 193 194 0
197 144 196 0
145 144 197 0
145 197 138 0
138 197 189 0
198 151 152 0
199 198 153 0
153 198 152 0
200 199 154 0
154 199 153 0
191 201 200 0
191 200 154 0
191 154 143 0
201 191 193 0
202 201 193 0
203 202 193 0
193 195 203 0
205 196 144 0
204 205 144 0
155 204 144 0
206 204 156 0
156 204 155 0
207 206 157 0
157 206 156 0
208 207 158 0
158 207 157 0
160 208 158 0
162 151 209 0
209 151 198 0
210 198 199 0
209 198 210 0
210 199 200 0
211 210 200 0
212 211 200 0
200 213 212 0
201 213 200 0
201 202 213 0
205 204 214 0
204 215 214 0
206 215 204 0
206 207 216 0
215 206 216 0
217 215 216 0
218 207 208 0
216 207 218 0
219 218 208 0
219 208 160 0
219 160 163 0
220 219 164 0
164 219 163 0
221 220 165 0
165 220 164 0
222 221 166 0
166 221 165 0
223 222 167 0
167 222 166 0
224 223 168 0
168 223 167 0
225 224 169 0
169 224 168 0
209 226 225 0
209 225 169 0
209 169 162 0
227 209 210 0
226 209 227 0
211 227 210 0
228 227 211 0
217 216 229 0
216 218 230 0
229 216 230 0
231 229 230 0
232 218 219 0
230 218 232 0
233 219 220 0
232 219 233 0
234 220 221 0
233 220 234 0
235 221 222 0
234 221 235 0
236 222 223 0
235 222 236 0
237 223 224 0
236 223 237 0
237 224 225 0
238 237 225 0
239 238 225 0
225 240 239 0
226 240 225 0
226 241 240 0
227 241 226 0
227 228 241 0
231 230 242 0
230 243 242 0
232 243 230 0
232 244 243 0
233 244 232 0
233 245 244 0
234 245 233 0
234 246 245 0
235 246 234 0
235 247 246 0
236 247 235 0
236 248 247 0
237 248 236 0
237 238 248 0
251 249 250 0
251 252 249 0
253 252 251 0
253 254 252 0
255 254 253 0
255 256 254 0
257 256 255 0
258 256 257 0
260 170 259 0
171 170 260 0
261 171 260 0
172 171 261 0
262 172 261 0
173 172 262 0
263 173 262 0
174 173 263 0
264 174 263 0
175 174 264 0
176 175 264 0
176 264 250 0
176 250 249 0
249 252 176 0
176 252 177 0
252 254 177 0
177 254 178 0
254 256 178 0
178 256 179 0
258 265 180 0
256 258 180 0
179 256 180 0
170 266 259 0
181 266 170 0
267 182 265 0
265 182 180 0
268 182 267 0
183 182 268 0
269 183 268 0
184 183 269 0
187 186 270 0
271 266 181 0
271 181 187 0
271 187 270 0
188 269 272 0
184 269 188 0
190 189 273 0
270 274 275 0
270 186 274 0
186 273 274 0
190 273 186 0
275 271 270 0
276 192 272 0
272 192 188 0
194 192 276 0
277 194 276 0
278 277 276 0
194 277 195 0
280 196 279 0
197 196 280 0
197 280 281 0
197 281 273 0
197 273 189 0
281 274 273 0
278 282 202 0
278 202 203 0
278 203 277 0
203 195 277 0
285 283 284 0
279 196 205 0
279 205 283 0
279 283 285 0
286 211 287 0
287 211 212 0
287 213 288 0
212 213 287 0
202 288 213 0
282 288 202 0
291 289 290 0
283 292 289 0
284 283 289 0
291 284 289 0
293 292 283 0
293 283 205 0
293 205 214 0
294 293 215 0
215 293 214 0
217 294 215 0
228 286 295 0
211 286 228 0
290 289 296 0
289 297 296 0
292 297 289 0
292 293 298 0
297 292 298 0
299 297 298 0
300 293 294 0
298 293 300 0
301 300 294 0
301 294 217 0
301 217 229 0
231 301 229 0
302 238 303 0
303 238 239 0
303 240 304 0
239 240 303 0
304 241 305 0
240 241 304 0
228 305 241 0
295 305 228 0
299 298 306 0
298 307 306 0
300 307 298 0
300 308 307 0
301 308 300 0
242 309 308 0
231 242 308 0
301 231 308 0
309 243 310 0
242 243 309 0
310 243 244 0
310 244 311 0
310 311 312 0
313 311 245 0
245 311 244 0
245 246 315 0
245 315 314 0
245 314 313 0
315 247 316 0
246 247 315 0
316 248 317 0
247 248 316 0
238 317 248 0
302 317 238 0
312 311 318 0
311 319 318 0
313 319 311 0
313 314 319 0
322 320 321 0
322 323 320 0
324 323 322 0
324 325 323 0
326 325 324 0
326 327 251 0
325 326 251 0
250 325 251 0
328 251 327 0
253 251 328 0
329 253 328 0
255 253 329 0
330 255 329 0
257 255 330 0
257 330 332 0
258 257 332 0
331 258 332 0
333 331 332 0
335 259 334 0
260 259 335 0
336 260 335 0
261 260 336 0
262 261 336 0
262 336 321 0
262 321 320 0
320 323 262 0
262 323 263 0
323 325 263 0
263 325 264 0
325 250 264 0
265 258 337 0
337 258 331 0
338 337 331 0
339 338 331 0
333 339 331 0
340 338 339 0
259 341 334 0
266 341 259 0
267 265 337 0
337 338 267 0
267 338 268 0
340 342 269 0
338 340 269 0
268 338 269 0
266 343 341 0
271 343 266 0
272 342 344 0
269 342 272 0
347 345 346 0
347 348 275 0
345 347 275 0
274 345 275 0
275 348 271 0
271 348 343 0
349 276 344 0
344 276 272 0
350 276 349 0
278 276 350 0
353 351 352 0
353 354 280 0
351 353 280 0
279 351 280 0
281 280 354 0
281 354 346 0
281 346 345 0
345 274 281 0
282 278 350 0
282 350 356 0
282 356 355 0
356 357 355 0
358 357 356 0
359 357 358 0
284 360 352 0
285 284 352 0
351 285 352 0
351 279 285 0
361 286 287 0
362 361 288 0
288 361 287 0
355 363 362 0
355 362 288 0
355 288 282 0
364 355 357 0
363 355 364 0
359 364 357 0
365 364 359 0
367 290 366 0
291 290 367 0
291 367 284 0
284 367 360 0
295 286 368 0
368 286 361 0
369 361 362 0
368 361 369 0
370 362 363 0
369 362 370 0
371 363 364 0
370 363 371 0
365 371 364 0
372 371 365 0
374 366 290 0
373 374 290 0
296 373 290 0
375 373 297 0
297 373 296 0
299 375 297 0
376 302 303 0
377 376 304 0
304 376 303 0
378 377 305 0
305 377 304 0
368 379 378 0
368 378 305 0
368 305 295 0
380 368 369 0
379 368 380 0
380 369 370 0
381 380 370 0
382 381 370 0
370 383 382 0
371 383 370 0
371 372 383 0
373 385 374 0
384 385 373 0
386 373 375 0
384 373 386 0
387 386 375 0
387 375 299 0
387 299 306 0
388 387 307 0
307 387 306 0
389 388 308 0
308 388 307 0
390 389 309 0
309 389 308 0
391 390 310 0
310 390 309 0
312 391 310 0
392 314 315 0
393 392 316 0
316 392 315 0
394 393 317 0
317 393 316 0
376 395 394 0
376 394 317 0
376 317 302 0
396 376 377 0
395 376 396 0
397 377 378 0
396 377 397 0
397 378 379 0
398 397 379 0
399 398 379 0
379 400 399 0
380 400 379 0
380 381 400 0
385 384 401 0
384 386 402 0
401 384 402 0
403 401 402 0
404 386 387 0
402 386 404 0
405 387 388 0
404 387 405 0
406 388 389 0
405 388 406 0
407 389 390 0
406 389 407 0
408 390 391 0
407 390 408 0
409 408 391 0
409 391 312 0
409 312 318 0
410 409 319 0
319 409 318 0
392 411 410 0
392 410 319 0
392 319 314 0
412 392 393 0
411 392 412 0
413 393 394 0
412 393 413 0
414 394 395 0
413 394 414 0
414 395 396 0
415 414 396 0
416 415 396 0
396 417 416 0
397 417 396 0
397 398 417 0
402 419 403 0
418 419 402 0
420 402 404 0
418 402 420 0
421 404 405 0
420 404 421 0
422 405 406 0
421 405 422 0
423 406 407 0
422 406 423 0
424 407 408 0
423 407 424 0
424 408 409 0
425 424 409 0
426 425 409 0
409 427 426 0
410 427 409 0
410 428 427 0
411 428 410 0
411 429 428 0
412 429 411 0
412 430 429 0
413 430 412 0
413 431 430 0
414 431 413 0
414 415 431 0
419 418 432 0
418 433 432 0
420 433 418 0
420 434 433 0
421 434 420 0
421 435 434 0
422 435 421 0
422 436 435 0
423 436 422 0
423 437 436 0
424 437 423 0
424 425 437 0
322 321 438 0
324 438 439 0
322 438 324 0
326 439 440 0
324 439 326 0
327 440 441 0
326 440 327 0
328 441 442 0
327 441 328 0
329 442 443 0
328 442 329 0
330 443 444 0
329 443 330 0
332 444 445 0
330 444 332 0
332 445 333 0
335 334 446 0
336 446 447 0
335 446 336 0
447 448 438 0
336 447 438 0
321 336 438 0
448 439 438 0
449 439 448 0
440 439 449 0
440 449 450 0
440 450 451 0
451 452 440 0
440 452 441 0
452 453 441 0
441 453 442 0
453 454 442 0
442 454 443 0
454 455 443 0
443 455 444 0
455 456 444 0
444 456 445 0
456 457 339 0
456 339 333 0
456 333 445 0
458 339 457 0
340 339 458 0
334 341 459 0
446 334 459 0
460 446 459 0
460 461 446 0
446 461 447 0
461 462 447 0
447 462 448 0
462 463 448 0
448 463 449 0
463 450 449 0
342 458 464 0
340 458 342 0
341 465 459 0
343 465 341 0
344 464 466 0
342 464 344 0
468 346 467 0
347 346 468 0
469 347 468 0
348 347 469 0
348 469 343 0
343 469 465 0
344 466 471 0
344 471 470 0
344 470 349 0
349 470 350 0
473 352 472 0
353 352 473 0
474 353 473 0
354 353 474 0
354 474 346 0
346 474 467 0
475 470 471 0
475 476 356 0
475 356 350 0
475 350 470 0
358 356 476 0
477 358 476 0
478 477 476 0
358 477 359 0
352 479 472 0
360 479 352 0
480 477 478 0
481 365 359 0
480 481 359 0
477 480 359 0
483 366 482 0
367 366 483 0
367 483 360 0
360 483 479 0
372 365 481 0
372 481 485 0
372 485 484 0
486 484 485 0
366 487 482 0
374 487 366 0
488 381 382 0
489 488 383 0
383 488 382 0
484 490 489 0
484 489 383 0
484 383 372 0
486 490 484 0
491 490 486 0
374 492 487 0
385 492 374 0
493 398 399 0
494 493 400 0
400 493 399 0
488 495 494 0
488 494 400 0
488 400 381 0
496 488 489 0
495 488 496 0
497 489 490 0
496 489 497 0
491 497 490 0
498 497 491 0
501 499 500 0
492 385 501 0
385 499 501 0
385 401 499 0
401 502 499 0
403 502 401 0
503 415 416 0
504 503 417 0
417 503 416 0
493 505 504 0
493 504 417 0
493 417 398 0
506 493 494 0
505 493 506 0
507 494 495 0
506 494 507 0
507 495 496 0
508 507 496 0
509 508 496 0
496 510 509 0
497 510 496 0
497 498 510 0
499 512 500 0
511 512 499 0
513 499 502 0
511 499 513 0
403 419 502 0
502 419 513 0
514 425 426 0
515 514 427 0
427 514 426 0
516 515 428 0
428 515 427 0
517 516 429 0
429 516 428 0
518 517 430 0
430 517 429 0
519 518 431 0
431 518 430 0
503 520 519 0
503 519 431 0
503 431 415 0
520 503 504 0
521 520 504 0
522 521 504 0
504 523 522 0
505 523 504 0
505 524 523 0
506 524 505 0
506 525 524 0
507 525 506 0
507 508 525 0
512 511 526 0
511 513 527 0
526 511 527 0
528 526 527 0
529 527 513 0
529 513 419 0
529 419 432 0
530 529 433 0
433 529 432 0
531 530 434 0
434 530 433 0
532 531 435 0
435 531 434 0
533 532 436 0
436 532 435 0
534 533 437 0
437 533 436 0
514 535 534 0
514 534 437 0
514 437 425 0
536 514 515 0
535 514 536 0
537 515 516 0
536 515 537 0
538 516 517 0
537 516 538 0
539 517 518 0
538 517 539 0
540 518 519 0
539 518 540 0
540 519 520 0
541 540 520 0
542 541 520 0
520 521 542 0
528 527 543 0
527 529 544 0
543 527 544 0
545 543 544 0
546 529 530 0
544 529 546 0
547 530 531 0
546 530 547 0
548 531 532 0
547 531 548 0
549 532 533 0
548 532 549 0
550 533 534 0
549 533 550 0
551 534 535 0
550 534 551 0
552 535 536 0
551 535 552 0
553 536 537 0
552 536 553 0
554 537 538 0
553 537 554 0
555 538 539 0
554 538 555 0
556 539 540 0
555 539 556 0
541 556 540 0
557 556 541 0
545 544 558 0
544 559 558 0
546 559 544 0
546 547 560 0
559 546 560 0
561 559 560 0
562 547 548 0
560 547 562 0
563 548 549 0
562 548 563 0
564 549 550 0
563 549 564 0
565 550 551 0
564 550 565 0
566 551 552 0
565 551 566 0
567 552 553 0
566 552 567 0
568 553 554 0
567 553 568 0
569 554 555 0
568 554 569 0
569 555 556 0
570 569 556 0
571 570 556 0
556 557 571 0
561 560 572 0
560 562 573 0
572 560 573 0
574 572 573 0
575 562 563 0
573 562 575 0
576 563 564 0
575 563 576 0
577 564 565 0
576 564 577 0
578 565 566 0
577 565 578 0
578 566 567 0
579 578 567 0
580 579 567 0
567 581 580 0
568 581 567 0
568 582 581 0
569 582 568 0
569 570 582 0
574 573 583 0
573 575 584 0
583 573 584 0
585 583 584 0
586 575 576 0
584 575 586 0
587 576 577 0
586 576 587 0
588 577 578 0
587 577 588 0
579 588 578 0
589 588 579 0
585 584 590 0
584 591 590 0
586 591 584 0
586 592 591 0
587 592 586 0
587 593 592 0
588 593 587 0
588 589 593 0
595 450 594 0
451 450 595 0
596 451 595 0
452 451 596 0
597 452 596 0
453 452 597 0
598 453 597 0
454 453 598 0
599 454 598 0
455 454 599 0
600 455 599 0
456 455 600 0
457 456 600 0
601 457 600 0
602 601 600 0
457 601 458 0
604 459 603 0
460 459 604 0
605 460 604 0
461 460 605 0
606 461 605 0
462 461 606 0
607 462 606 0
463 462 607 0
463 607 450 0
450 607 594 0
602 609 601 0
601 609 608 0
601 464 458 0
608 464 601 0
459 610 603 0
465 610 459 0
609 612 608 0
608 612 611 0
608 466 464 0
611 466 608 0
615 613 614 0
615 616 468 0
613 615 468 0
467 613 468 0
617 468 616 0
469 468 617 0
469 617 465 0
465 617 610 0
618 611 612 0
619 471 466 0
618 619 466 0
611 618 466 0
621 472 620 0
473 472 621 0
474 473 621 0
474 621 614 0
474 614 613 0
613 467 474 0
471 619 623 0
471 623 622 0
471 622 475 0
476 622 624 0
475 622 476 0
476 624 478 0
627 625 626 0
620 472 479 0
620 479 625 0
620 625 627 0
628 622 623 0
628 629 622 0
622 629 624 0
629 478 624 0
629 631 478 0
631 480 478 0
630 480 631 0
480 630 481 0
482 632 626 0
483 482 626 0
625 483 626 0
625 479 483 0
633 630 631 0
633 481 630 0
633 635 481 0
635 485 481 0
634 485 635 0
485 634 486 0
482 636 632 0
487 636 482 0
637 634 635 0
638 491 486 0
637 638 486 0
634 637 486 0
487 639 636 0
492 639 487 0
498 638 640 0
491 638 498 0
642 500 641 0
501 500 642 0
501 642 492 0
492 642 639 0
644 643 645 0
643 646 645 0
645 646 647 0
646 648 647 0
647 648 649 0
648 650 649 0
649 650 651 0
509 652 651 0
509 651 650 0
509 650 508 0
652 510 653 0
509 510 652 0
498 653 510 0
640 653 498 0
500 654 641 0
512 654 500 0
644 655 521 0
644 521 522 0
644 522 643 0
522 646 643 0
523 646 522 0
523 648 646 0
524 648 523 0
524 650 648 0
525 650 524 0
525 508 650 0
658 656 657 0
654 512 658 0
512 656 658 0
512 526 656 0
526 659 656 0
528 659 526 0
660 541 661 0
661 541 542 0
521 661 542 0
655 661 521 0
656 663 657 0
662 663 656 0
664 656 659 0
662 656 664 0
665 664 659 0
665 659 528 0
665 528 543 0
545 665 543 0
557 660 666 0
541 660 557 0
663 662 667 0
662 668 667 0
664 668 662 0
664 669 668 0
665 669 664 0
669 670 671 0
669 665 670 0
665 558 670 0
545 558 665 0
672 670 559 0
559 670 558 0
561 672 559 0
673 570 674 0
674 570 571 0
557 674 571 0
666 674 557 0
671 670 675 0
670 672 676 0
675 670 676 0
677 675 676 0
678 676 672 0
678 672 561 0
678 561 572 0
574 678 572 0
679 579 680 0
680 579 580 0
680 581 681 0
580 581 680 0
681 582 682 0
581 582 681 0
570 682 582 0
673 682 570 0
677 676 683 0
676 678 684 0
683 676 684 0
685 683 684 0
686 684 678 0
686 678 574 0
686 574 583 0
585 686 583 0
589 679 687 0
579 679 589 0
684 689 685 0
688 689 684 0
690 684 686 0
688 684 690 0
691 690 686 0
691 686 585 0
691 585 590 0
692 691 591 0
591 691 590 0
693 692 592 0
592 692 591 0
592 593 695 0
592 695 694 0
592 694 693 0
589 695 593 0
687 695 589 0
689 688 696 0
688 697 696 0
690 697 688 0
690 698 697 0
691 698 690 0
691 692 699 0
698 691 699 0
700 698 699 0
701 692 693 0
699 692 701 0
694 701 693 0
702 701 694 0
700 699 703 0
699 704 703 0
701 704 699 0
701 702 704 0
595 594 705 0
596 705 706 0
595 705 596 0
597 706 707 0
596 706 597 0
598 707 708 0
597 707 598 0
599 708 709 0
598 708 599 0
600 709 710 0
599 709 600 0
600 710 602 0
604 603 711 0
605 711 712 0
604 711 605 0
606 712 713 0
605 712 606 0
607 713 714 0
606 713 607 0
714 715 705 0
607 714 705 0
594 607 705 0
715 706 705 0
716 706 715 0
716 707 706 0
717 707 716 0
717 708 707 0
718 708 717 0
718 709 708 0
719 709 718 0
719 710 709 0
720 710 719 0
710 609 602 0
720 609 710 0
603 610 721 0
711 603 721 0
722 711 721 0
722 723 711 0
711 723 712 0
723 724 712 0
712 724 713 0
724 725 713 0
713 725 714 0
725 726 714 0
714 726 715 0
726 727 715 0
715 727 716 0
727 728 716 0
716 728 717 0
728 729 717 0
717 729 718 0
729 730 718 0
718 730 719 0
730 731 719 0
719 731 720 0
732 612 609 0
731 732 609 0
720 731 609 0
734 614 733 0
615 614 734 0
735 615 734 0
616 615 735 0
736 616 735 0
617 616 736 0
617 736 610 0
610 736 721 0
737 618 732 0
732 618 612 0
738 618 737 0
619 618 738 0
621 620 739 0
740 733 614 0
740 614 621 0
740 621 739 0
623 738 741 0
619 738 623 0
627 626 742 0
739 743 744 0
739 620 743 0
620 742 743 0
627 742 620 0
744 740 739 0
623 741 746 0
623 746 745 0
623 745 628 0
629 745 747 0
628 745 629 0
629 747 631 0
626 632 748 0
742 626 748 0
749 742 748 0
749 743 742 0
750 745 746 0
750 751 745 0
745 751 747 0
751 631 747 0
751 753 631 0
753 633 631 0
752 633 753 0
633 752 635 0
756 754 755 0
748 632 636 0
748 636 754 0
748 754 756 0
753 758 752 0
752 758 757 0
752 757 759 0
635 752 759 0
637 635 759 0
637 759 638 0
762 760 761 0
754 763 760 0
755 754 760 0
762 755 760 0
636 639 754 0
754 639 763 0
758 765 757 0
757 765 764 0
764 759 757 0
766 759 764 0
759 640 638 0
766 640 759 0
760 768 761 0
767 768 760 0
767 760 763 0
767 763 642 0
767 642 641 0
763 639 642 0
769 644 770 0
770 644 645 0
770 647 771 0
645 647 770 0
771 649 772 0
647 649 771 0
772 651 773 0
649 651 772 0
773 651 652 0
765 773 652 0
764 765 652 0
652 766 764 0
653 766 652 0
653 640 766 0
767 775 768 0
774 775 767 0
641 654 767 0
767 654 774 0
777 776 778 0
655 644 769 0
776 655 769 0
778 776 769 0
657 779 775 0
658 657 775 0
774 658 775 0
774 654 658 0
777 780 660 0
777 660 661 0
777 661 776 0
661 655 776 0
657 781 779 0
663 781 657 0
783 782 784 0
666 660 780 0
782 666 780 0
784 782 780 0
786 781 663 0
785 786 663 0
667 785 663 0
787 785 668 0
668 785 667 0
788 787 669 0
669 787 668 0
671 788 669 0
790 789 791 0
789 792 791 0
791 792 793 0
792 794 793 0
793 794 795 0
794 783 795 0
794 673 783 0
673 782 783 0
674 782 673 0
674 666 782 0
785 797 786 0
796 797 785 0
798 785 787 0
796 785 798 0
799 787 788 0
798 787 799 0
800 799 788 0
800 788 671 0
800 671 675 0
677 800 675 0
802 801 803 0
801 790 803 0
801 679 790 0
679 789 790 0
680 789 679 0
680 792 789 0
681 792 680 0
681 794 792 0
682 794 681 0
682 673 794 0
797 796 804 0
796 805 804 0
798 805 796 0
798 806 805 0
799 806 798 0
799 807 806 0
800 807 799 0
807 808 809 0
807 800 808 0
800 683 808 0
677 683 800 0
685 808 683 0
802 811 801 0
801 811 810 0
801 687 679 0
810 687 801 0
808 813 809 0
812 813 808 0
685 689 808 0
808 689 812 0
811 814 694 0
811 694 695 0
811 695 810 0
695 687 810 0
813 812 815 0
696 816 815 0
689 696 815 0
812 689 815 0
816 697 817 0
696 697 816 0
817 698 818 0
697 698 817 0
820 818 698 0
820 698 700 0
820 700 819 0
819 821 820 0
820 821 822 0
702 694 814 0
821 702 814 0
822 821 814 0
819 700 703 0
703 821 819 0
704 821 703 0
704 702 821 0
825 823 824 0
825 826 823 0
827 826 825 0
827 828 722 0
826 827 722 0
721 826 722 0
829 722 828 0
723 722 829 0
830 723 829 0
724 723 830 0
831 724 830 0
725 724 831 0
832 725 831 0
726 725 832 0
833 726 832 0
727 726 833 0
834 727 833 0
728 727 834 0
835 728 834 0
729 728 835 0
836 729 835 0
730 729 836 0
731 730 836 0
837 731 836 0
838 837 836 0
731 837 732 0
840 733 839 0
734 733 840 0
735 734 840 0
735 840 824 0
735 824 823 0
823 826 735 0
735 826 736 0
826 721 736 0
841 837 838 0
841 732 837 0
841 843 732 0
843 737 732 0
842 737 843 0
737 842 738 0
733 844 839 0
740 844 733 0
843 846 842 0
842 846 845 0
842 741 738 0
845 741 842 0
849 847 848 0
849 850 744 0
847 849 744 0
743 847 744 0
744 850 740 0
740 850 844 0
846 852 845 0
845 852 851 0
845 746 741 0
851 746 845 0
748 853 848 0
749 748 848 0
847 749 848 0
847 743 749 0
855 854 856 0
854 857 851 0
854 851 852 0
854 852 856 0
851 857 858 0
746 851 858 0
750 746 858 0
751 858 859 0
750 858 751 0
751 859 753 0
861 755 860 0
756 755 861 0
756 861 748 0
748 861 853 0
855 863 854 0
854 863 862 0
862 857 854 0
864 857 862 0
864 858 857 0
865 858 864 0
865 859 858 0
866 859 865 0
859 758 753 0
866 758 859 0
868 761 867 0
762 761 868 0
762 868 755 0
755 868 860 0
870 869 871 0
869 872 862 0
869 862 863 0
869 863 871 0
872 864 862 0
873 864 872 0
873 865 864 0
874 865 873 0
874 866 865 0
875 866 874 0
866 765 758 0
875 765 866 0
761 876 867 0
768 876 761 0
870 878 869 0
869 878 877 0
872 869 877 0
770 872 877 0
769 770 877 0
770 873 872 0
771 873 770 0
771 874 873 0
772 874 771 0
772 875 874 0
773 875 772 0
773 765 875 0
768 879 876 0
775 879 768 0
878 880 777 0
878 777 778 0
878 778 877 0
778 769 877 0
775 881 879 0
779 881 775 0
883 882 884 0
882 885 884 0
884 885 886 0
780 777 880 0
885 780 880 0
886 885 880 0
779 887 881 0
781 887 779 0
889 888 890 0
888 891 890 0
890 891 892 0
891 893 882 0
891 882 883 0
891 883 892 0
885 882 893 0
784 885 893 0
783 784 893 0
784 780 885 0
781 894 887 0
786 894 781 0
896 895 897 0
895 889 897 0
895 790 889 0
790 888 889 0
791 888 790 0
791 891 888 0
793 891 791 0
793 893 891 0
795 893 793 0
795 783 893 0
786 898 894 0
797 898 786 0
896 899 802 0
896 802 803 0
896 803 895 0
803 790 895 0
898 804 900 0
797 804 898 0
900 804 805 0
900 805 901 0
900 901 902 0
903 901 806 0
806 901 805 0
904 903 807 0
807 903 806 0
809 904 807 0
811 899 905 0
802 899 811 0
902 901 906 0
901 907 906 0
903 907 901 0
903 908 907 0
904 908 903 0
809 813 909 0
809 909 908 0
809 908 904 0
911 910 912 0
814 811 905 0
910 814 905 0
912 910 905 0
909 815 913 0
813 815 909 0
913 816 914 0
815 816 913 0
914 817 915 0
816 817 914 0
915 818 916 0
817 818 915 0
916 820 917 0
818 820 916 0
917 820 822 0
911 917 822 0
910 911 822 0
822 814 910 0
825 824 918 0
827 918 919 0
825 918 827 0
828 919 920 0
827 919 828 0
922 829 828 0
921 922 828 0
920 921 828 0
923 829 922 0
830 829 923 0
924 830 923 0
831 830 924 0
925 831 924 0
832 831 925 0
926 832 925 0
833 832 926 0
834 833 926 0
927 834 926 0
928 927 926 0
835 927 929 0
834 927 835 0
836 929 930 0
835 929 836 0
836 930 838 0
840 839 931 0
931 932 918 0
840 931 918 0
824 840 918 0
919 918 932 0
919 932 933 0
919 933 934 0
934 935 919 0
919 935 920 0
935 921 920 0
936 927 928 0
936 937 927 0
927 937 929 0
937 938 929 0
929 938 930 0
938 838 930 0
938 940 838 0
940 841 838 0
939 841 940 0
841 939 843 0
839 844 941 0
931 839 941 0
942 931 941 0
942 943 931 0
931 943 932 0
943 933 932 0
940 945 939 0
939 945 944 0
939 846 843 0
944 846 939 0
849 848 946 0
850 946 947 0
849 946 850 0
948 941 844 0
948 844 850 0
948 850 947 0
945 950 944 0
944 950 949 0
944 852 846 0
949 852 944 0
848 853 951 0
946 848 951 0
952 946 951 0
952 953 946 0
946 953 947 0
953 948 947 0
950 954 855 0
950 855 856 0
950 856 949 0
856 852 949 0
956 860 955 0
861 860 956 0
861 956 853 0
853 956 951 0
958 957 959 0
863 855 954 0
957 863 954 0
959 957 954 0
868 867 960 0
961 955 860 0
961 860 868 0
961 868 960 0
958 962 870 0
958 870 871 0
958 871 957 0
871 863 957 0
963 867 876 0
960 867 963 0
960 963 961 0
961 963 964 0
966 965 967 0
878 870 962 0
965 878 962 0
967 965 962 0
968 876 879 0
963 876 968 0
963 968 964 0
964 968 969 0
971 970 972 0
970 973 965 0
970 965 966 0
970 966 972 0
965 880 878 0
973 880 965 0
879 881 974 0
968 879 974 0
975 968 974 0
975 969 968 0
977 976 978 0
976 971 978 0
976 883 971 0
883 970 971 0
884 970 883 0
884 973 970 0
886 973 884 0
886 880 973 0
881 979 974 0
887 979 881 0
981 980 982 0
980 983 982 0
982 983 984 0
890 985 984 0
890 984 983 0
890 983 889 0
985 890 892 0
977 985 892 0
976 977 892 0
892 883 976 0
887 986 979 0
894 986 887 0
981 988 980 0
980 988 987 0
983 980 987 0
897 983 987 0
896 897 987 0
897 889 983 0
986 894 898 0
990 986 898 0
989 990 898 0
989 991 990 0
990 991 992 0
991 993 992 0
992 993 994 0
994 993 995 0
988 997 987 0
987 997 996 0
987 899 896 0
996 899 987 0
989 898 900 0
998 991 989 0
902 998 989 0
900 902 989 0
998 993 991 0
999 993 998 0
993 999 995 0
995 999 1000 0
997 1002 996 0
996 1002 1001 0
996 905 899 0
1001 905 996 0
998 902 906 0
906 999 998 0
907 999 906 0
907 908 1003 0
999 907 1003 0
1000 999 1003 0
1003 908 1004 0
1004 908 909 0
1002 1005 911 0
1002 911 912 0
1002 912 1001 0
912 905 1001 0
1004 913 1006 0
909 913 1004 0
1006 914 1007 0
913 914 1006 0
1007 915 1008 0
914 915 1007 0
1008 916 1009 0
915 916 1008 0
1009 917 1010 0
916 917 1009 0
911 1010 917 0
1005 1010 911 0
1013 1011 1012 0
1013 1014 922 0
1011 1013 922 0
921 1011 922 0
1015 922 1014 0
923 922 1015 0
924 923 1015 0
1016 924 1015 0
1017 1016 1015 0
925 1016 1018 0
924 1016 925 0
926 1018 1019 0
925 1018 926 0
926 1019 928 0
1021 933 1020 0
934 933 1021 0
935 934 1021 0
935 1021 1012 0
935 1012 1011 0
1011 921 935 0
1022 1016 1017 0
1022 1023 1016 0
1016 1023 1018 0
1023 1024 1018 0
1018 1024 1019 0
1024 1025 936 0
1024 936 928 0
1024 928 1019 0
937 936 1025 0
1026 937 1025 0
1027 1026 1025 0
938 1026 1028 0
937 1026 938 0
938 1028 940 0
1030 941 1029 0
942 941 1030 0
1031 942 1030 0
943 942 1031 0
943 1031 933 0
933 1031 1020 0
1032 1026 1027 0
1033 1028 1026 0
1033 1026 1032 0
1033 1032 1034 0
1028 945 940 0
1033 945 1028 0
941 1035 1029 0
948 1035 941 0
1034 1037 1033 0
1033 1037 1036 0
1033 950 945 0
1036 950 1033 0
1039 951 1038 0
952 951 1039 0
1040 952 1039 0
953 952 1040 0
953 1040 948 0
948 1040 1035 0
1042 1041 1043 0
1041 1044 1036 0
1041 1036 1037 0
1041 1037 1043 0
1036 954 950 0
1044 954 1036 0
1046 955 1045 0
956 955 1046 0
956 1046 951 0
951 1046 1038 0
1042 1048 1041 0
1041 1048 1047 0
1044 1041 1047 0
959 1044 1047 0
958 959 1047 0
959 954 1044 0
955 1049 1045 0
961 1049 955 0
1048 1051 1047 0
1047 1051 1050 0
1047 962 958 0
