#!ascii version of
2728 5452
1231 1230 1317 0
1315 1232 1318 0
1229 1232 1315 0
1318 1232 1319 0
1319 1232 1233 0
1320 1234 1317 0
1317 1234 1231 0
1321 1234 1320 0
1235 1234 1321 0
1323 1319 1233 0
1322 1323 1233 0
1236 1322 1233 0
1237 1322 1236 0
1238 1321 1324 0
1235 1321 1238 0
1322 1326 1323 0
1325 1326 1322 0
1237 1240 1322 0
1322 1240 1325 0
1327 1242 1324 0
1324 1242 1238 0
1328 1242 1327 0
1243 1242 1328 0
1326 1325 1329 0
1244 1330 1329 0
1240 1244 1329 0
1325 1240 1329 0
1330 1244 1331 0
1331 1244 1245 0
1246 1328 1332 0
1243 1328 1246 0
1245 1333 1331 0
1247 1333 1245 0
1248 1332 1334 0
1246 1332 1248 0
1333 1249 1335 0
1247 1249 1333 0
1335 1249 1250 0
1335 1250 1336 0
1335 1336 1337 0
1252 1336 1250 0
1253 1334 1338 0
1248 1334 1253 0
1336 1340 1337 0
1339 1340 1336 0
1341 1339 1336 0
1341 1336 1252 0
1341 1252 1254 0
1256 1341 1254 0
1257 1338 1342 0
1253 1338 1257 0
1340 1339 1343 0
1339 1341 1344 0
1343 1339 1344 0
1345 1343 1344 0
1346 1344 1341 0
1346 1341 1256 0
1346 1256 1258 0
1259 1346 1258 0
1260 1257 1342 0
1260 1342 1348 0
1260 1348 1347 0
1349 1347 1348 0
1345 1344 1350 0
1344 1346 1351 0
1350 1344 1351 0
1352 1350 1351 0
1259 1261 1346 0
1346 1261 1351 0
1263 1260 1347 0
1349 1353 1264 0
1347 1349 1264 0
1263 1347 1264 0
1352 1351 1354 0
1354 1355 1356 0
1354 1351 1355 0
1351 1265 1355 0
1261 1265 1351 0
1266 1355 1265 0
1268 1353 1357 0
1264 1353 1268 0
1355 1359 1356 0
1358 1359 1355 0
1266 1269 1355 0
1355 1269 1358 0
1271 1357 1360 0
1268 1357 1271 0
1358 1362 1359 0
1361 1362 1358 0
1363 1361 1358 0
1363 1358 1269 0
1363 1269 1272 0
1273 1363 1272 0
1275 1360 1364 0
1271 1360 1275 0
1362 1361 1365 0
1361 1366 1365 0
1363 1366 1361 0
1273 1276 1367 0
1273 1367 1366 0
1273 1366 1363 0
1278 1364 1368 0
1275 1364 1278 0
1276 1369 1367 0
1279 1369 1276 0
1280 1278 1368 0
1280 1368 1371 0
1280 1371 1370 0
1372 1370 1371 0
1279 1373 1369 0
1281 1373 1279 0
1282 1280 1374 0
1374 1280 1370 0
1372 1374 1370 0
1375 1374 1372 0
1281 1376 1373 0
1283 1376 1281 0
1284 1282 1374 0
1375 1377 1285 0
1374 1375 1285 0
1284 1374 1285 0
1283 1378 1376 0
1286 1378 1283 0
1379 1287 1380 0
1380 1287 1288 0
1380 1289 1381 0
1288 1289 1380 0
1285 1381 1289 0
1377 1381 1285 0
1286 1382 1378 0
1290 1382 1286 0
1291 1379 1383 0
1287 1379 1291 0
1290 1384 1382 0
1292 1384 1290 0
1293 1383 1385 0
1291 1383 1293 0
1384 1294 1386 0
1292 1294 1384 0
1386 1295 1387 0
1294 1295 1386 0
1293 1387 1295 0
1385 1387 1293 0
1389 1296 1388 0
1297 1296 1389 0
1390 1297 1389 0
1298 1297 1390 0
1298 1390 1392 0
1299 1298 1392 0
1391 1299 1392 0
1393 1391 1392 0
1296 1394 1388 0
1301 1394 1296 0
1302 1299 1391 0
1393 1395 1303 0
1391 1393 1303 0
1302 1391 1303 0
1397 1304 1396 0
1305 1304 1397 0
1305 1397 1301 0
1301 1397 1394 0
1303 1395 1399 0
1303 1399 1398 0
1303 1398 1306 0
1307 1398 1400 0
1306 1398 1307 0
1307 1400 1308 0
1304 1401 1396 0
1309 1401 1304 0
1402 1398 1399 0
1402 1403 1398 0
1398 1403 1400 0
1403 1404 1310 0
1403 1310 1308 0
1403 1308 1400 0
1405 1310 1404 0
1311 1310 1405 0
1309 1406 1401 0
1312 1406 1309 0
1407 1313 1405 0
1405 1313 1311 0
1408 1313 1407 0
1314 1313 1408 0
1312 1409 1406 0
1315 1409 1312 0
1410 1316 1408 0
1408 1316 1314 0
1411 1316 1410 0
1317 1316 1411 0
1413 1409 1315 0
1412 1413 1315 0
1318 1412 1315 0
1319 1412 1318 0
1414 1320 1411 0
1411 1320 1317 0
1415 1320 1414 0
1321 1320 1415 0
1412 1417 1413 0
1416 1417 1412 0
1319 1323 1412 0
1412 1323 1416 0
1324 1415 1418 0
1321 1415 1324 0
1416 1420 1417 0
1419 1420 1416 0
1323 1326 1416 0
1416 1326 1419 0
1421 1327 1418 0
1418 1327 1324 0
1422 1327 1421 0
1328 1327 1422 0
1420 1419 1423 0
1423 1424 1425 0
1423 1419 1424 0
1419 1329 1424 0
1326 1329 1419 0
1426 1424 1330 0
1330 1424 1329 0
1331 1426 1330 0
1332 1422 1427 0
1328 1422 1332 0
1425 1424 1428 0
1424 1429 1428 0
1426 1429 1424 0
1331 1333 1430 0
1331 1430 1429 0
1331 1429 1426 0
1334 1427 1431 0
1332 1427 1334 0
1433 1430 1333 0
1432 1433 1333 0
1335 1432 1333 0
1337 1432 1335 0
1338 1431 1434 0
1334 1431 1338 0
1432 1436 1433 0
1435 1436 1432 0
1337 1340 1432 0
1432 1340 1435 0
1342 1338 1434 0
1342 1434 1438 0
1342 1438 1437 0
1439 1437 1438 0
1436 1435 1440 0
1343 1441 1440 0
1340 1343 1440 0
1435 1340 1440 0
1441 1343 1442 0
1442 1343 1345 0
1348 1342 1437 0
1439 1443 1349 0
1437 1439 1349 0
1348 1437 1349 0
1442 1350 1444 0
1345 1350 1442 0
1444 1350 1445 0
1445 1350 1352 0
1353 1443 1446 0
1349 1443 1353 0
1445 1354 1447 0
1352 1354 1445 0
1447 1354 1448 0
1448 1354 1356 0
1357 1446 1449 0
1353 1446 1357 0
1356 1450 1448 0
1359 1450 1356 0
1360 1449 1451 0
1357 1449 1360 0
1359 1452 1450 0
1362 1452 1359 0
1364 1360 1451 0
1364 1451 1454 0
1364 1454 1453 0
1455 1453 1454 0
1452 1365 1456 0
1362 1365 1452 0
1456 1365 1366 0
1456 1366 1457 0
1456 1457 1458 0
1367 1457 1366 0
1368 1364 1459 0
1459 1364 1453 0
1455 1459 1453 0
1460 1459 1455 0
1457 1462 1458 0
1461 1462 1457 0
1367 1369 1457 0
1457 1369 1461 0
1371 1368 1459 0
1460 1463 1372 0
1459 1460 1372 0
1371 1459 1372 0
1461 1465 1462 0
1464 1465 1461 0
1369 1373 1461 0
1461 1373 1464 0
1375 1463 1466 0
1372 1463 1375 0
1464 1468 1465 0
1467 1468 1464 0
1373 1376 1464 0
1464 1376 1467 0
1470 1469 1471 0
1377 1375 1466 0
1469 1377 1466 0
1471 1469 1466 0
1474 1472 1473 0
1467 1475 1472 0
1468 1467 1472 0
1474 1468 1472 0
1376 1378 1467 0
1467 1378 1475 0
1476 1379 1477 0
1477 1379 1380 0
1477 1380 1381 0
1470 1477 1381 0
1469 1470 1381 0
1381 1377 1469 0
1472 1479 1473 0
1478 1479 1472 0
1480 1472 1475 0
1478 1472 1480 0
1378 1382 1475 0
1475 1382 1480 0
1383 1476 1481 0
1379 1476 1383 0
1479 1478 1482 0
1478 1483 1482 0
1480 1483 1478 0
1485 1483 1484 0
1483 1384 1484 0
1483 1480 1384 0
1480 1382 1384 0
1484 1486 1485 0
1485 1486 1487 0
1385 1383 1481 0
1486 1385 1481 0
1487 1486 1481 0
1484 1384 1386 0
1386 1486 1484 0
1387 1486 1386 0
1387 1385 1486 0
1389 1388 1488 0
1390 1488 1489 0
1389 1488 1390 0
1392 1489 1490 0
1390 1489 1392 0
1392 1490 1393 0
1388 1394 1491 0
1488 1388 1491 0
1492 1488 1491 0
1492 1493 1488 0
1488 1493 1489 0
1494 1490 1489 0
1494 1489 1493 0
1494 1493 1495 0
1490 1395 1393 0
1494 1395 1490 0
1497 1396 1496 0
1397 1396 1497 0
1397 1497 1394 0
1394 1497 1491 0
1498 1494 1495 0
1499 1399 1395 0
1498 1499 1395 0
1494 1498 1395 0
1396 1500 1496 0
1401 1500 1396 0
1501 1402 1499 0
1499 1402 1399 0
1502 1402 1501 0
1403 1402 1502 0
1404 1403 1502 0
1503 1404 1502 0
1504 1503 1502 0
1404 1503 1405 0
1401 1505 1500 0
1406 1505 1401 0
1506 1503 1504 0
1506 1405 1503 0
1506 1508 1405 0
1508 1407 1405 0
1507 1407 1508 0
1407 1507 1408 0
1406 1509 1505 0
1409 1509 1406 0
1510 1507 1508 0
1510 1408 1507 0
1510 1512 1408 0
1512 1410 1408 0
1511 1410 1512 0
1410 1511 1411 0
1409 1513 1509 0
1413 1513 1409 0
1514 1511 1512 0
1514 1411 1511 0
1514 1516 1411 0
1516 1414 1411 0
1515 1414 1516 0
1414 1515 1415 0
1413 1517 1513 0
1417 1517 1413 0
1518 1515 1516 0
1519 1418 1415 0
1518 1519 1415 0
1515 1518 1415 0
1417 1520 1517 0
1420 1520 1417 0
1521 1421 1519 0
1519 1421 1418 0
1522 1421 1521 0
1422 1421 1522 0
1520 1423 1523 0
1420 1423 1520 0
1523 1423 1524 0
1524 1423 1425 0
1427 1522 1525 0
1422 1522 1427 0
1524 1428 1526 0
1425 1428 1524 0
1526 1429 1527 0
1428 1429 1526 0
1527 1429 1528 0
1528 1429 1430 0
1431 1525 1529 0
1427 1525 1431 0
1430 1530 1528 0
1433 1530 1430 0
1434 1529 1531 0
1431 1529 1434 0
1433 1532 1530 0
1436 1532 1433 0
1533 1438 1531 0
1531 1438 1434 0
1534 1438 1533 0
1439 1438 1534 0
1532 1440 1535 0
1436 1440 1532 0
1535 1440 1441 0
1535 1441 1536 0
1535 1536 1537 0
1442 1536 1441 0
1443 1534 1538 0
1439 1534 1443 0
1537 1536 1539 0
1539 1540 1541 0
1539 1536 1540 0
1536 1444 1540 0
1442 1444 1536 0
1445 1540 1444 0
1446 1538 1542 0
1443 1538 1446 0
1540 1544 1541 0
1543 1544 1540 0
1545 1543 1540 0
1545 1540 1445 0
1545 1445 1447 0
1448 1545 1447 0
1449 1542 1546 0
1446 1542 1449 0
1544 1543 1547 0
1543 1548 1547 0
1545 1548 1543 0
1448 1450 1549 0
1448 1549 1548 0
1448 1548 1545 0
1451 1449 1546 0
1451 1546 1551 0
1451 1551 1550 0
1552 1550 1551 0
1450 1553 1549 0
1452 1553 1450 0
1454 1451 1550 0
1552 1554 1455 0
1550 1552 1455 0
1454 1550 1455 0
1556 1553 1452 0
1555 1556 1452 0
1456 1555 1452 0
1458 1555 1456 0
1460 1554 1557 0
1455 1554 1460 0
1555 1559 1556 0
1558 1559 1555 0
1458 1462 1555 0
1555 1462 1558 0
1463 1460 1557 0
1463 1557 1561 0
1463 1561 1560 0
1562 1560 1561 0
1558 1564 1559 0
1563 1564 1558 0
1462 1465 1558 0
1558 1465 1563 0
1466 1463 1565 0
1565 1463 1560 0
1566 1565 1560 0
1567 1566 1560 0
1562 1567 1560 0
1568 1566 1567 0
1563 1570 1564 0
1569 1570 1563 0
1465 1468 1563 0
1563 1468 1569 0
1572 1571 1573 0
1471 1574 1573 0
1471 1573 1571 0
1471 1571 1470 0
1575 1574 1471 0
1565 1575 1471 0
1466 1565 1471 0
1565 1576 1575 0
1566 1576 1565 0
1566 1568 1576 0
1473 1577 1570 0
1474 1473 1570 0
1569 1474 1570 0
1569 1468 1474 0
1572 1578 1476 0
1572 1476 1477 0
1572 1477 1571 0
1477 1470 1571 0
1473 1579 1577 0
1479 1579 1473 0
1481 1578 1580 0
1476 1578 1481 0
1579 1482 1581 0
1479 1482 1579 0
1581 1483 1582 0
1482 1483 1581 0
1582 1485 1583 0
1483 1485 1582 0
1583 1487 1584 0
1485 1487 1583 0
1481 1584 1487 0
1580 1584 1481 0
1586 1491 1585 0
1492 1491 1586 0
1587 1492 1586 0
1493 1492 1587 0
1493 1587 1589 0
1495 1493 1589 0
1588 1495 1589 0
1590 1588 1589 0
1592 1496 1591 0
1497 1496 1592 0
1497 1592 1491 0
1491 1592 1585 0
1498 1495 1588 0
1590 1593 1499 0
1588 1590 1499 0
1498 1588 1499 0
1496 1594 1591 0
1500 1594 1496 0
1595 1501 1593 0
1593 1501 1499 0
1502 1501 1595 0
1596 1502 1595 0
1597 1596 1595 0
1502 1596 1504 0
1500 1598 1594 0
1505 1598 1500 0
1599 1596 1597 0
1599 1600 1506 0
1599 1506 1504 0
1599 1504 1596 0
1601 1506 1600 0
1508 1506 1601 0
1604 1602 1603 0
1598 1505 1509 0
1598 1509 1602 0
1598 1602 1604 0
1605 1510 1601 0
1601 1510 1508 0
1606 1510 1605 0
1512 1510 1606 0
1602 1608 1603 0
1607 1608 1602 0
1509 1513 1602 0
1602 1513 1607 0
1609 1514 1606 0
1606 1514 1512 0
1610 1514 1609 0
1516 1514 1610 0
1607 1612 1608 0
1611 1612 1607 0
1513 1517 1607 0
1607 1517 1611 0
1613 1518 1610 0
1610 1518 1516 0
1614 1518 1613 0
1519 1518 1614 0
1611 1616 1612 0
1615 1616 1611 0
1517 1520 1611 0
1611 1520 1615 0
1617 1521 1614 0
1614 1521 1519 0
1618 1521 1617 0
1522 1521 1618 0
1616 1615 1619 0
1523 1620 1619 0
1520 1523 1619 0
1615 1520 1619 0
1620 1523 1621 0
1621 1523 1524 0
1525 1618 1622 0
1522 1618 1525 0
1621 1526 1623 0
1524 1526 1621 0
1623 1527 1624 0
1526 1527 1623 0
1624 1527 1625 0
1625 1527 1528 0
1529 1622 1626 0
1525 1622 1529 0
1528 1627 1625 0
1530 1627 1528 0
1531 1529 1626 0
1531 1626 1629 0
1531 1629 1628 0
1630 1628 1629 0
1530 1631 1627 0
1532 1631 1530 0
1533 1531 1628 0
1630 1632 1534 0
1628 1630 1534 0
1533 1628 1534 0
1634 1631 1532 0
1633 1634 1532 0
1535 1633 1532 0
1537 1633 1535 0
1538 1632 1635 0
1534 1632 1538 0
1634 1633 1636 0
1539 1637 1636 0
1537 1539 1636 0
1633 1537 1636 0
1637 1539 1638 0
1638 1539 1541 0
1542 1635 1639 0
1538 1635 1542 0
1541 1640 1638 0
1544 1640 1541 0
1546 1542 1639 0
1546 1639 1642 0
1546 1642 1641 0
1643 1641 1642 0
1640 1547 1644 0
1544 1547 1640 0
1644 1547 1548 0
1644 1548 1645 0
1644 1645 1646 0
1549 1645 1548 0
1551 1546 1641 0
1643 1647 1552 0
1641 1643 1552 0
1551 1641 1552 0
1646 1645 1648 0
1549 1553 1649 0
1549 1649 1648 0
1549 1648 1645 0
1554 1647 1650 0
1552 1647 1554 0
1553 1651 1649 0
1556 1651 1553 0
1557 1650 1652 0
1554 1650 1557 0
1556 1653 1651 0
1559 1653 1556 0
1557 1652 1655 0
1557 1655 1654 0
1557 1654 1561 0
1561 1654 1562 0
1559 1656 1653 0
1564 1656 1559 0
1655 1658 1654 0
1654 1658 1657 0
1654 1657 1659 0
1562 1654 1659 0
1567 1562 1659 0
1567 1659 1568 0
1564 1660 1656 0
1570 1660 1564 0
1661 1572 1662 0
1662 1572 1573 0
1662 1574 1663 0
1573 1574 1662 0
1663 1574 1575 0
1658 1663 1575 0
1657 1658 1575 0
1575 1659 1657 0
1576 1659 1575 0
1576 1568 1659 0
1570 1664 1660 0
1577 1664 1570 0
1578 1661 1665 0
1572 1661 1578 0
1577 1666 1664 0
1579 1666 1577 0
1580 1665 1667 0
1578 1665 1580 0
1666 1581 1668 0
1579 1581 1666 0
1668 1582 1669 0
1581 1582 1668 0
1669 1583 1670 0
1582 1583 1669 0
1670 1584 1671 0
1583 1584 1670 0
1580 1671 1584 0
1667 1671 1580 0
1586 1585 1672 0
1587 1672 1673 0
1586 1672 1587 0
1589 1673 1674 0
1587 1673 1589 0
1589 1674 1590 0
1676 1591 1675 0
1592 1591 1676 0
1592 1676 1677 0
1592 1677 1672 0
1592 1672 1585 0
1677 1678 1672 0
1672 1678 1673 0
1678 1679 1673 0
1673 1679 1674 0
1680 1593 1590 0
1679 1680 1590 0
1674 1679 1590 0
1591 1681 1675 0
1594 1681 1591 0
1682 1595 1680 0
1680 1595 1593 0
1683 1595 1682 0
1597 1595 1683 0
1594 1684 1681 0
1598 1684 1594 0
1685 1599 1683 0
1683 1599 1597 0
1600 1599 1685 0
1686 1600 1685 0
1687 1686 1685 0
1600 1686 1601 0
1689 1603 1688 0
1604 1603 1689 0
1604 1689 1598 0
1598 1689 1684 0
1690 1686 1687 0
1690 1601 1686 0
1690 1692 1601 0
1692 1605 1601 0
1691 1605 1692 0
1605 1691 1606 0
1603 1693 1688 0
1608 1693 1603 0
1694 1691 1692 0
1694 1606 1691 0
1694 1696 1606 0
1696 1609 1606 0
1695 1609 1696 0
1609 1695 1610 0
1608 1697 1693 0
1612 1697 1608 0
1698 1695 1696 0
1698 1610 1695 0
1698 1700 1610 0
1700 1613 1610 0
1699 1613 1700 0
1613 1699 1614 0
1612 1701 1697 0
1616 1701 1612 0
1702 1699 1700 0
1702 1614 1699 0
1702 1704 1614 0
1704 1617 1614 0
1703 1617 1704 0
1617 1703 1618 0
1701 1619 1705 0
1616 1619 1701 0
1705 1620 1706 0
1619 1620 1705 0
1706 1620 1707 0
1707 1620 1621 0
1708 1703 1704 0
1709 1622 1618 0
1708 1709 1618 0
1703 1708 1618 0
1707 1623 1710 0
1621 1623 1707 0
1710 1623 1624 0
1710 1624 1711 0
1710 1711 1712 0
1625 1711 1624 0
1626 1709 1713 0
1622 1709 1626 0
1711 1715 1712 0
1714 1715 1711 0
1625 1627 1711 0
1711 1627 1714 0
1716 1629 1713 0
1713 1629 1626 0
1717 1629 1716 0
1630 1629 1717 0
1715 1714 1718 0
1627 1631 1719 0
1627 1719 1718 0
1627 1718 1714 0
1632 1717 1720 0
1630 1717 1632 0
1631 1721 1719 0
1634 1721 1631 0
1635 1720 1722 0
1632 1720 1635 0
1724 1721 1634 0
1723 1724 1634 0
1636 1723 1634 0
1725 1723 1637 0
1637 1723 1636 0
1638 1725 1637 0
1639 1722 1726 0
1635 1722 1639 0
1723 1728 1724 0
1727 1728 1723 0
1729 1723 1725 0
1727 1723 1729 0
1638 1640 1725 0
1725 1640 1729 0
1730 1642 1726 0
1726 1642 1639 0
1731 1642 1730 0
1643 1642 1731 0
1727 1733 1728 0
1732 1733 1727 0
1734 1727 1729 0
1732 1727 1734 0
1735 1734 1729 0
1735 1729 1640 0
1735 1640 1644 0
1646 1735 1644 0
1647 1731 1736 0
1643 1731 1647 0
1733 1732 1737 0
1732 1738 1737 0
1734 1738 1732 0
1734 1735 1739 0
1738 1734 1739 0
1740 1738 1739 0
1741 1739 1735 0
1741 1735 1646 0
1741 1646 1648 0
1649 1741 1648 0
1650 1736 1742 0
1647 1736 1650 0
1740 1739 1743 0
1739 1744 1743 0
1741 1744 1739 0
1649 1651 1745 0
1649 1745 1744 0
1649 1744 1741 0
1652 1742 1746 0
1650 1742 1652 0
1651 1747 1745 0
1653 1747 1651 0
1655 1746 1748 0
1652 1746 1655 0
1653 1749 1747 0
1656 1749 1653 0
1658 1748 1750 0
1655 1748 1658 0
1656 1751 1749 0
1660 1751 1656 0
1752 1661 1753 0
1753 1661 1662 0
1753 1663 1754 0
1662 1663 1753 0
1658 1754 1663 0
1750 1754 1658 0
1660 1755 1751 0
1664 1755 1660 0
1665 1752 1756 0
1661 1752 1665 0
1664 1757 1755 0
1666 1757 1664 0
1667 1756 1758 0
1665 1756 1667 0
1757 1668 1759 0
1666 1668 1757 0
1759 1669 1760 0
1668 1669 1759 0
1760 1670 1761 0
1669 1670 1760 0
1761 1671 1762 0
1670 1671 1761 0
1667 1762 1671 0
1758 1762 1667 0
1764 1675 1763 0
1676 1675 1764 0
1765 1676 1764 0
1677 1676 1765 0
1678 1677 1765 0
1766 1678 1765 0
1767 1766 1765 0
1679 1766 1768 0
1678 1766 1679 0
1679 1768 1680 0
1675 1769 1763 0
1681 1769 1675 0
1770 1766 1767 0
1771 1768 1766 0
1771 1766 1770 0
1771 1770 1772 0
1768 1771 1773 0
1680 1768 1773 0
1682 1680 1773 0
1682 1773 1683 0
1681 1774 1769 0
1684 1774 1681 0
1775 1771 1772 0
1775 1776 1771 0
1771 1776 1773 0
1776 1777 1685 0
1776 1685 1683 0
1776 1683 1773 0
1778 1685 1777 0
1687 1685 1778 0
1780 1688 1779 0
1689 1688 1780 0
1689 1780 1684 0
1684 1780 1774 0
1781 1690 1778 0
1778 1690 1687 0
1782 1690 1781 0
1692 1690 1782 0
1688 1783 1779 0
1693 1783 1688 0
1784 1694 1782 0
1782 1694 1692 0
1785 1694 1784 0
1696 1694 1785 0
1693 1786 1783 0
1697 1786 1693 0
1787 1698 1785 0
1785 1698 1696 0
1788 1698 1787 0
1700 1698 1788 0
1697 1789 1786 0
1701 1789 1697 0
1790 1702 1788 0
1788 1702 1700 0
1791 1702 1790 0
1704 1702 1791 0
1789 1705 1792 0
1701 1705 1789 0
1792 1705 1706 0
1792 1706 1793 0
1792 1793 1794 0
1707 1793 1706 0
1704 1791 1796 0
1704 1796 1795 0
1704 1795 1708 0
1708 1795 1709 0
1794 1793 1797 0
1797 1798 1799 0
1797 1793 1798 0
1793 1710 1798 0
1707 1710 1793 0
1712 1798 1710 0
1800 1795 1796 0
1801 1713 1709 0
1800 1801 1709 0
1795 1800 1709 0
1799 1798 1802 0
1712 1715 1803 0
1712 1803 1802 0
1712 1802 1798 0
1713 1801 1805 0
1713 1805 1804 0
1713 1804 1716 0
1716 1804 1717 0
1803 1718 1806 0
1715 1718 1803 0
1806 1718 1807 0
1807 1718 1719 0
1808 1804 1805 0
1809 1720 1717 0
1808 1809 1717 0
1804 1808 1717 0
1719 1810 1807 0
1721 1810 1719 0
1722 1809 1811 0
1720 1809 1722 0
1721 1812 1810 0
1724 1812 1721 0
1726 1811 1813 0
1722 1811 1726 0
1724 1814 1812 0
1728 1814 1724 0
1726 1813 1816 0
1726 1816 1815 0
1726 1815 1730 0
1730 1815 1731 0
1728 1817 1814 0
1733 1817 1728 0
1818 1815 1816 0
1819 1736 1731 0
1818 1819 1731 0
1815 1818 1731 0
1817 1737 1820 0
1733 1737 1817 0
1820 1738 1821 0
1737 1738 1820 0
1821 1738 1822 0
1822 1738 1740 0
1742 1819 1823 0
1736 1819 1742 0
1822 1743 1824 0
1740 1743 1822 0
1824 1743 1744 0
1824 1744 1825 0
1824 1825 1826 0
1745 1825 1744 0
1746 1823 1827 0
1742 1823 1746 0
1825 1829 1826 0
1828 1829 1825 0
1745 1747 1825 0
1825 1747 1828 0
1748 1827 1830 0
1746 1827 1748 0
1828 1832 1829 0
1831 1832 1828 0
1747 1749 1828 0
1828 1749 1831 0
1834 1833 1835 0
1750 1748 1830 0
1833 1750 1830 0
1835 1833 1830 0
1838 1836 1837 0
1831 1839 1836 0
1832 1831 1836 0
1838 1832 1836 0
1749 1751 1831 0
1831 1751 1839 0
1840 1752 1841 0
1841 1752 1753 0
1841 1753 1754 0
1834 1841 1754 0
1833 1834 1754 0
1754 1750 1833 0
1836 1843 1837 0
1842 1843 1836 0
1844 1836 1839 0
1842 1836 1844 0
1751 1755 1839 0
1839 1755 1844 0
1756 1840 1845 0
1752 1840 1756 0
1842 1847 1843 0
1846 1847 1842 0
1848 1842 1844 0
1846 1842 1848 0
1755 1757 1844 0
1844 1757 1848 0
1758 1845 1849 0
1756 1845 1758 0
1847 1846 1850 0
1846 1851 1850 0
1848 1851 1846 0
1759 1852 1851 0
1757 1759 1851 0
1848 1757 1851 0
1852 1760 1853 0
1759 1760 1852 0
1853 1761 1854 0
1760 1761 1853 0
1854 1762 1855 0
1761 1762 1854 0
1758 1855 1762 0
1849 1855 1758 0
1857 1763 1856 0
1764 1763 1857 0
1858 1764 1857 0
1765 1764 1858 0
1859 1765 1858 0
1767 1765 1859 0
1763 1860 1856 0
1769 1860 1763 0
1767 1859 1862 0
1767 1862 1861 0
1767 1861 1770 0
1770 1861 1772 0
1769 1863 1860 0
1774 1863 1769 0
1864 1861 1862 0
1864 1865 1775 0
1864 1775 1772 0
1864 1772 1861 0
1776 1775 1865 0
1866 1776 1865 0
1867 1866 1865 0
1777 1866 1868 0
1776 1866 1777 0
1777 1868 1778 0
1870 1779 1869 0
1780 1779 1870 0
1780 1870 1774 0
1774 1870 1863 0
1871 1866 1867 0
1871 1872 1866 0
1866 1872 1868 0
1872 1778 1868 0
1872 1874 1778 0
1874 1781 1778 0
1873 1781 1874 0
1781 1873 1782 0
1779 1875 1869 0
1783 1875 1779 0
1876 1873 1874 0
1876 1782 1873 0
1876 1878 1782 0
1878 1784 1782 0
1877 1784 1878 0
1784 1877 1785 0
1783 1879 1875 0
1786 1879 1783 0
1880 1877 1878 0
1880 1785 1877 0
1880 1882 1785 0
1882 1787 1785 0
1881 1787 1882 0
1787 1881 1788 0
1786 1883 1879 0
1789 1883 1786 0
1884 1881 1882 0
1884 1788 1881 0
1884 1886 1788 0
1886 1790 1788 0
1885 1790 1886 0
1790 1885 1791 0
1888 1883 1789 0
1887 1888 1789 0
1792 1887 1789 0
1794 1887 1792 0
1889 1885 1886 0
1890 1796 1791 0
1889 1890 1791 0
1885 1889 1791 0
1888 1887 1891 0
1891 1892 1893 0
1891 1887 1892 0
1887 1797 1892 0
1794 1797 1887 0
1799 1892 1797 0
1894 1800 1890 0
1890 1800 1796 0
1895 1800 1894 0
1801 1800 1895 0
1892 1897 1893 0
1896 1897 1892 0
1898 1896 1892 0
1898 1892 1799 0
1898 1799 1802 0
1803 1898 1802 0
1805 1895 1899 0
1801 1895 1805 0
1897 1896 1900 0
1896 1898 1901 0
1900 1896 1901 0
1902 1900 1901 0
1903 1901 1898 0
1903 1898 1803 0
1903 1803 1806 0
1807 1903 1806 0
1805 1899 1905 0
1805 1905 1904 0
1805 1904 1808 0
1808 1904 1809 0
1902 1901 1906 0
1901 1907 1906 0
1903 1907 1901 0
1807 1810 1908 0
1807 1908 1907 0
1807 1907 1903 0
1909 1904 1905 0
1910 1811 1809 0
1909 1910 1809 0
1904 1909 1809 0
1810 1911 1908 0
1812 1911 1810 0
1813 1910 1912 0
1811 1910 1813 0
1812 1913 1911 0
1814 1913 1812 0
1816 1912 1914 0
1813 1912 1816 0
1814 1915 1913 0
1817 1915 1814 0
1816 1914 1917 0
1816 1917 1916 0
1816 1916 1818 0
1818 1916 1819 0
1915 1820 1918 0
1817 1820 1915 0
1918 1820 1821 0
1918 1821 1919 0
1918 1919 1920 0
1822 1919 1821 0
1921 1916 1917 0
1922 1823 1819 0
1921 1922 1819 0
1916 1921 1819 0
1919 1924 1920 0
1923 1924 1919 0
1925 1923 1919 0
1925 1919 1822 0
1925 1822 1824 0
1826 1925 1824 0
1827 1922 1926 0
1823 1922 1827 0
1924 1923 1927 0
1923 1925 1928 0
1927 1923 1928 0
1929 1927 1928 0
1826 1829 1925 0
1925 1829 1928 0
1830 1926 1930 0
1827 1926 1830 0
1928 1932 1929 0
1931 1932 1928 0
1829 1832 1928 0
1928 1832 1931 0
1934 1933 1935 0
1835 1936 1935 0
1835 1935 1933 0
1835 1933 1834 0
1830 1936 1835 0
1930 1936 1830 0
1837 1937 1932 0
1838 1837 1932 0
1931 1838 1932 0
1931 1832 1838 0
1934 1938 1840 0
1934 1840 1841 0
1934 1841 1933 0
1841 1834 1933 0
1837 1939 1937 0
1843 1939 1837 0
1941 1940 1942 0
1940 1943 1942 0
1942 1943 1944 0
1845 1840 1938 0
1943 1845 1938 0
1944 1943 1938 0
1843 1945 1939 0
1847 1945 1843 0
1941 1947 1940 0
1940 1947 1946 0
1946 1943 1940 0
1948 1943 1946 0
1943 1849 1845 0
1948 1849 1943 0
1945 1850 1949 0
1847 1850 1945 0
1949 1851 1950 0
1850 1851 1949 0
1950 1852 1951 0
1851 1852 1950 0
1951 1853 1952 0
1852 1853 1951 0
1952 1853 1854 0
1947 1952 1854 0
1946 1947 1854 0
1854 1948 1946 0
1855 1948 1854 0
1855 1849 1948 0
1857 1856 1953 0
1858 1953 1954 0
1857 1953 1858 0
1858 1954 1859 0
1955 1856 1860 0
1953 1856 1955 0
1955 1954 1953 0
1956 1954 1955 0
1954 1862 1859 0
1956 1862 1954 0
1860 1863 1957 0
1955 1860 1957 0
1958 1955 1957 0
1958 1959 1955 0
1955 1959 1956 0
1959 1960 1864 0
1959 1864 1862 0
1959 1862 1956 0
1961 1864 1960 0
1865 1864 1961 0
1962 1865 1961 0
1867 1865 1962 0
1870 1869 1963 0
1964 1957 1863 0
1964 1863 1870 0
1964 1870 1963 0
1965 1871 1962 0
1962 1871 1867 0
1872 1871 1965 0
1966 1872 1965 0
1967 1966 1965 0
1872 1966 1874 0
1869 1875 1968 0
1963 1869 1968 0
1969 1963 1968 0
1969 1964 1963 0
1970 1966 1967 0
1970 1874 1966 0
1970 1972 1874 0
1972 1876 1874 0
1971 1876 1972 0
1876 1971 1878 0
1875 1973 1968 0
1879 1973 1875 0
1974 1971 1972 0
1974 1878 1971 0
1974 1976 1878 0
1976 1880 1878 0
1975 1880 1976 0
1880 1975 1882 0
1879 1977 1973 0
1883 1977 1879 0
1978 1975 1976 0
1978 1882 1975 0
1978 1980 1882 0
1980 1884 1882 0
1979 1884 1980 0
1884 1979 1886 0
1883 1981 1977 0
1888 1981 1883 0
1982 1979 1980 0
1982 1886 1979 0
1982 1984 1886 0
1984 1889 1886 0
1983 1889 1984 0
1889 1983 1890 0
1981 1891 1985 0
1888 1891 1981 0
1985 1891 1986 0
1986 1891 1893 0
1987 1983 1984 0
1987 1890 1983 0
1987 1989 1890 0
1989 1894 1890 0
1988 1894 1989 0
1894 1988 1895 0
1986 1893 1897 0
1991 1986 1897 0
1990 1991 1897 0
1991 1990 1992 0
1989 1994 1988 0
1988 1994 1993 0
1988 1899 1895 0
1993 1899 1988 0
1990 1897 1900 0
1902 1995 1992 0
1902 1992 1990 0
1902 1990 1900 0
1996 1993 1994 0
1997 1905 1899 0
1996 1997 1899 0
1993 1996 1899 0
1995 1906 1998 0
1902 1906 1995 0
1998 1907 1999 0
1906 1907 1998 0
1999 1907 2000 0
2000 1907 1908 0
1905 1997 2002 0
1905 2002 2001 0
1905 2001 1909 0
1909 2001 1910 0
1908 2003 2000 0
1911 2003 1908 0
2004 2001 2002 0
2005 1912 1910 0
2004 2005 1910 0
2001 2004 1910 0
1911 2006 2003 0
1913 2006 1911 0
1914 2005 2007 0
1912 2005 1914 0
1913 2008 2006 0
1915 2008 1913 0
1917 2007 2009 0
1914 2007 1917 0
2011 2008 1915 0
2010 2011 1915 0
1918 2010 1915 0
1920 2010 1918 0
1917 2009 2013 0
1917 2013 2012 0
1917 2012 1921 0
1921 2012 1922 0
2010 2015 2011 0
2014 2015 2010 0
1920 1924 2010 0
2010 1924 2014 0
2013 2017 2012 0
2012 2017 2016 0
2012 1926 1922 0
2016 1926 2012 0
2014 2019 2015 0
2018 2019 2014 0
2020 2018 2014 0
2020 2014 1924 0
2020 1924 1927 0
1929 2020 1927 0
2022 2021 2023 0
2021 2024 2016 0
2021 2016 2017 0
2021 2017 2023 0
2016 1930 1926 0
2024 1930 2016 0
2019 2018 2025 0
2018 2020 2026 0
2025 2018 2026 0
2027 2025 2026 0
1929 1932 2020 0
2020 1932 2026 0
2022 2028 1934 0
2022 1934 1935 0
2022 1935 2021 0
1935 2024 2021 0
1936 2024 1935 0
1936 1930 2024 0
2026 2030 2027 0
2029 2030 2026 0
1932 1937 2026 0
2026 1937 2029 0
1938 2028 2031 0
1934 2028 1938 0
2029 2033 2030 0
2032 2033 2029 0
1937 1939 2029 0
2029 1939 2032 0
2035 2034 2036 0
2034 2037 2036 0
2036 2037 2038 0
1942 2039 2038 0
1942 2038 2037 0
1942 2037 1941 0
2039 1944 2040 0
1942 1944 2039 0
1938 2040 1944 0
2031 2040 1938 0
2033 2032 2041 0
1939 1945 2042 0
1939 2042 2041 0
1939 2041 2032 0
2035 2044 2034 0
2034 2044 2043 0
2043 2037 2034 0
2045 2037 2043 0
2037 1947 1941 0
2045 1947 2037 0
2042 1949 2046 0
1945 1949 2042 0
2046 1950 2047 0
1949 1950 2046 0
2047 1950 1951 0
2044 2047 1951 0
2043 2044 1951 0
1951 2045 2043 0
1952 2045 1951 0
1952 1947 2045 0
1958 1957 2048 0
1959 2048 2049 0
1958 2048 1959 0
1960 2049 2050 0
1959 2049 1960 0
1961 2050 2051 0
1960 2050 1961 0
1961 2051 1962 0
1957 1964 2052 0
2048 1957 2052 0
2053 2048 2052 0
2053 2054 2048 0
2048 2054 2049 0
2054 2055 2049 0
2049 2055 2050 0
2055 2056 2050 0
2050 2056 2051 0
2056 1962 2051 0
2056 2058 1962 0
2058 1965 1962 0
2057 1965 2058 0
1965 2057 1967 0
2060 1968 2059 0
1969 1968 2060 0
1969 2060 1964 0
1964 2060 2052 0
2061 2057 2058 0
2061 1967 2057 0
2061 2063 1967 0
2063 1970 1967 0
2062 1970 2063 0
1970 2062 1972 0
1968 2064 2059 0
1973 2064 1968 0
2065 2062 2063 0
2065 1972 2062 0
2065 2067 1972 0
2067 1974 1972 0
2066 1974 2067 0
1974 2066 1976 0
1973 2068 2064 0
1977 2068 1973 0
2069 2066 2067 0
2069 2070 1978 0
2069 1978 1976 0
2069 1976 2066 0
2071 1978 2070 0
1980 1978 2071 0
1977 2072 2068 0
1981 2072 1977 0
2073 1982 2071 0
2071 1982 1980 0
2074 1982 2073 0
1984 1982 2074 0
2076 2072 1981 0
2075 2076 1981 0
1985 2075 1981 0
1986 2075 1985 0
1984 2074 2078 0
1984 2078 2077 0
1984 2077 1987 0
1987 2077 1989 0
2075 2080 2076 0
2079 2080 2075 0
2081 2079 2075 0
2081 2075 1986 0
2081 1986 1991 0
1992 2081 1991 0
2082 2077 2078 0
2083 1994 1989 0
2082 2083 1989 0
2077 2082 1989 0
2079 2085 2080 0
2084 2085 2079 0
2086 2079 2081 0
2084 2079 2086 0
1992 1995 2081 0
2081 1995 2086 0
2087 1996 2083 0
2083 1996 1994 0
2088 1996 2087 0
1997 1996 2088 0
2084 2090 2085 0
2089 2090 2084 0
2091 2084 2086 0
2089 2084 2091 0
2092 2091 2086 0
2092 2086 1995 0
2092 1995 1998 0
2093 2092 1999 0
1999 2092 1998 0
2000 2093 1999 0
2002 2088 2094 0
1997 2088 2002 0
2090 2089 2095 0
2089 2091 2096 0
2095 2089 2096 0
2097 2095 2096 0
2098 2091 2092 0
2096 2091 2098 0
2099 2092 2093 0
2098 2092 2099 0
2000 2003 2093 0
2093 2003 2099 0
2002 2094 2101 0
2002 2101 2100 0
2002 2100 2004 0
2004 2100 2005 0
2096 2103 2097 0
2102 2103 2096 0
2104 2096 2098 0
2102 2096 2104 0
2105 2098 2099 0
2104 2098 2105 0
2003 2006 2099 0
2099 2006 2105 0
2101 2107 2100 0
2100 2107 2106 0
2100 2007 2005 0
2106 2007 2100 0
2103 2102 2108 0
2102 2109 2108 0
2104 2109 2102 0
2104 2105 2110 0
2109 2104 2110 0
2111 2109 2110 0
2006 2008 2105 0
2105 2008 2110 0
2112 2106 2107 0
2113 2009 2007 0
2112 2113 2007 0
2106 2112 2007 0
2111 2110 2114 0
2008 2011 2115 0
2008 2115 2114 0
2008 2114 2110 0
2013 2113 2116 0
2009 2113 2013 0
2011 2117 2115 0
2015 2117 2011 0
2017 2116 2118 0
2013 2116 2017 0
2015 2119 2117 0
2019 2119 2015 0
2120 2022 2121 0
2121 2022 2023 0
2017 2121 2023 0
2118 2121 2017 0
2119 2025 2122 0
2019 2025 2119 0
2122 2025 2123 0
2123 2025 2027 0
2125 2124 2126 0
2124 2127 2126 0
2126 2127 2128 0
2028 2022 2120 0
2127 2028 2120 0
2128 2127 2120 0
2027 2129 2123 0
2030 2129 2027 0
2125 2131 2124 0
2124 2131 2130 0
2130 2127 2124 0
2132 2127 2130 0
2127 2031 2028 0
2132 2031 2127 0
2030 2133 2129 0
2033 2133 2030 0
2134 2035 2135 0
2135 2035 2036 0
2135 2038 2136 0
2036 2038 2135 0
2136 2038 2039 0
2131 2136 2039 0
2130 2131 2039 0
2039 2132 2130 0
2040 2132 2039 0
2040 2031 2132 0
2138 2133 2033 0
2137 2138 2033 0
2041 2137 2033 0
2042 2137 2041 0
2044 2134 2139 0
2035 2134 2044 0
2138 2137 2140 0
2046 2141 2140 0
2042 2046 2140 0
2137 2042 2140 0
2141 2047 2142 0
2046 2047 2141 0
2044 2142 2047 0
2139 2142 2044 0
2053 2052 2143 0
2054 2143 2144 0
2053 2143 2054 0
2055 2144 2145 0
2054 2144 2055 0
2056 2145 2146 0
2055 2145 2056 0
2056 2146 2058 0
2060 2059 2147 0
2143 2148 2149 0
2143 2052 2148 0
2052 2147 2148 0
2060 2147 2052 0
2149 2150 2143 0
2143 2150 2144 0
2150 2151 2144 0
2144 2151 2145 0
2152 2146 2145 0
2152 2145 2151 0
2152 2151 2153 0
2146 2152 2154 0
2058 2146 2154 0
2061 2058 2154 0
2061 2154 2063 0
2059 2064 2155 0
2147 2059 2155 0
2156 2147 2155 0
2156 2148 2147 0
2157 2152 2153 0
2157 2158 2152 0
2152 2158 2154 0
2158 2063 2154 0
2158 2160 2063 0
2160 2065 2063 0
2159 2065 2160 0
2065 2159 2067 0
2064 2161 2155 0
2068 2161 2064 0
2162 2159 2160 0
2162 2163 2069 0
2162 2069 2067 0
2162 2067 2159 0
2070 2069 2163 0
2164 2070 2163 0
2165 2164 2163 0
2070 2164 2071 0
2068 2166 2161 0
2072 2166 2068 0
2167 2164 2165 0
2167 2071 2164 0
2167 2169 2071 0
2169 2073 2071 0
2168 2073 2169 0
2073 2168 2074 0
2072 2170 2166 0
2076 2170 2072 0
2169 2172 2168 0
2168 2172 2171 0
2168 2078 2074 0
2171 2078 2168 0
2076 2173 2170 0
2080 2173 2076 0
2174 2171 2172 0
2174 2078 2171 0
2174 2176 2078 0
2176 2082 2078 0
2175 2082 2176 0
2082 2175 2083 0
2080 2177 2173 0
2085 2177 2080 0
2178 2175 2176 0
2178 2083 2175 0
2178 2180 2083 0
2180 2087 2083 0
2179 2087 2180 0
2087 2179 2088 0
2085 2181 2177 0
2090 2181 2085 0
2180 2183 2179 0
2179 2183 2182 0
2179 2094 2088 0
2182 2094 2179 0
2185 2181 2090 0
2184 2185 2090 0
2095 2184 2090 0
2097 2184 2095 0
2186 2182 2183 0
2187 2101 2094 0
2186 2187 2094 0
2182 2186 2094 0
2184 2189 2185 0
2188 2189 2184 0
2097 2103 2184 0
2184 2103 2188 0
2107 2187 2190 0
2101 2187 2107 0
2189 2188 2191 0
2108 2192 2191 0
2103 2108 2191 0
2188 2103 2191 0
2192 2108 2109 0
2192 2109 2193 0
2192 2193 2194 0
2111 2193 2109 0
2107 2190 2196 0
2107 2196 2195 0
2107 2195 2112 0
2112 2195 2113 0
2194 2193 2197 0
2197 2198 2199 0
2197 2193 2198 0
2193 2114 2198 0
2111 2114 2193 0
2115 2198 2114 0
2200 2195 2196 0
2201 2116 2113 0
2200 2201 2113 0
2195 2200 2113 0
2198 2203 2199 0
2202 2203 2198 0
2115 2117 2198 0
2198 2117 2202 0
2118 2201 2204 0
2116 2201 2118 0
2202 2206 2203 0
2205 2206 2202 0
2117 2119 2202 0
2202 2119 2205 0
2207 2120 2208 0
2208 2120 2121 0
2118 2208 2121 0
2204 2208 2118 0
2205 2210 2206 0
2209 2210 2205 0
2211 2209 2205 0
2211 2205 2119 0
2211 2119 2122 0
2123 2211 2122 0
2212 2125 2126 0
2126 2128 2214 0
2126 2214 2213 0
2126 2213 2212 0
2120 2214 2128 0
2207 2214 2120 0
2210 2209 2215 0
2209 2211 2216 0
2215 2209 2216 0
2217 2215 2216 0
2123 2129 2211 0
2211 2129 2216 0
2218 2131 2125 0
2218 2125 2212 0
2218 2212 2219 0
2212 2213 2219 0
2217 2216 2220 0
2129 2133 2221 0
2129 2221 2220 0
2129 2220 2216 0
2222 2134 2223 0
2223 2134 2135 0
2223 2136 2224 0
2135 2136 2223 0
2131 2224 2136 0
2218 2224 2131 0
2133 2225 2221 0
2138 2225 2133 0
2139 2222 2226 0
2134 2222 2139 0
2225 2140 2227 0
2138 2140 2225 0
2227 2141 2228 0
2140 2141 2227 0
2228 2142 2229 0
2141 2142 2228 0
2139 2229 2142 0
2226 2229 2139 0
2149 2148 2230 0
2150 2230 2231 0
2149 2230 2150 0
2151 2231 2232 0
2150 2231 2151 0
2151 2232 2153 0
2156 2155 2233 0
2230 2234 2235 0
2230 2148 2234 0
2148 2233 2234 0
2156 2233 2148 0
2235 2236 2230 0
2230 2236 2231 0
2236 2237 2231 0
2231 2237 2232 0
2237 2238 2157 0
2237 2157 2153 0
2237 2153 2232 0
2158 2157 2238 0
2239 2158 2238 0
2240 2239 2238 0
2158 2239 2160 0
2155 2161 2241 0
2233 2155 2241 0
2242 2233 2241 0
2242 2234 2233 0
2243 2239 2240 0
2243 2160 2239 0
2243 2245 2160 0
2245 2162 2160 0
2244 2162 2245 0
2163 2244 2246 0
2162 2244 2163 0
2163 2246 2165 0
2161 2247 2241 0
2166 2247 2161 0
2248 2244 2245 0
2249 2246 2244 0
2249 2244 2248 0
2249 2248 2250 0
2246 2249 2251 0
2165 2246 2251 0
2167 2165 2251 0
2167 2251 2169 0
2166 2252 2247 0
2170 2252 2166 0
2253 2249 2250 0
2254 2251 2249 0
2254 2249 2253 0
2254 2253 2255 0
2251 2172 2169 0
2254 2172 2251 0
2170 2256 2252 0
2173 2256 2170 0
2255 2258 2254 0
2254 2258 2257 0
2254 2257 2259 0
2172 2254 2259 0
2174 2172 2259 0
2174 2259 2176 0
2173 2260 2256 0
2177 2260 2173 0
2261 2257 2258 0
2262 2259 2257 0
2262 2257 2261 0
2262 2261 2263 0
2259 2262 2264 0
2176 2259 2264 0
2178 2176 2264 0
2178 2264 2180 0
2177 2265 2260 0
2181 2265 2177 0
2266 2262 2263 0
2267 2264 2262 0
2267 2262 2266 0
2267 2266 2268 0
2264 2183 2180 0
2267 2183 2264 0
2181 2269 2265 0
2185 2269 2181 0
2270 2267 2268 0
2270 2183 2267 0
2270 2272 2183 0
2272 2186 2183 0
2271 2186 2272 0
2186 2271 2187 0
2185 2273 2269 0
2189 2273 2185 0
2272 2275 2271 0
2271 2275 2274 0
2271 2190 2187 0
2274 2190 2271 0
2273 2191 2276 0
2189 2191 2273 0
2276 2192 2277 0
2191 2192 2276 0
2277 2192 2278 0
2278 2192 2194 0
2275 2280 2274 0
2274 2280 2279 0
2274 2196 2190 0
2279 2196 2274 0
2282 2278 2194 0
2281 2282 2194 0
2197 2281 2194 0
2199 2281 2197 0
2283 2279 2280 0
2283 2284 2200 0
2283 2200 2196 0
2283 2196 2279 0
2285 2200 2284 0
2201 2200 2285 0
2282 2281 2286 0
2199 2203 2287 0
2199 2287 2286 0
2199 2286 2281 0
2204 2285 2288 0
2201 2285 2204 0
2203 2289 2287 0
2206 2289 2203 0
2291 2290 2292 0
2208 2293 2292 0
2208 2292 2290 0
2208 2290 2207 0
2204 2293 2208 0
2288 2293 2204 0
2206 2294 2289 0
2210 2294 2206 0
2291 2295 2213 0
2291 2213 2214 0
2291 2214 2290 0
2214 2207 2290 0
2297 2294 2210 0
2296 2297 2210 0
2215 2296 2210 0
2217 2296 2215 0
2298 2218 2219 0
2213 2295 2299 0
2219 2213 2299 0
2298 2219 2299 0
2296 2301 2297 0
2300 2301 2296 0
2302 2300 2296 0
2302 2296 2217 0
2302 2217 2220 0
2221 2302 2220 0
2303 2222 2304 0
2304 2222 2223 0
2304 2224 2305 0
2223 2224 2304 0
2306 2305 2224 0
2298 2306 2224 0
2218 2298 2224 0
2298 2299 2306 0
2301 2300 2307 0
2300 2308 2307 0
2302 2308 2300 0
2221 2225 2309 0
2221 2309 2308 0
2221 2308 2302 0
2226 2303 2310 0
2222 2303 2226 0
2309 2227 2311 0
2225 2227 2309 0
2311 2228 2312 0
2227 2228 2311 0
2312 2229 2313 0
2228 2229 2312 0
2226 2313 2229 0
2310 2313 2226 0
2315 2234 2314 0
2235 2234 2315 0
2316 2235 2315 0
2236 2235 2316 0
2317 2236 2316 0
2237 2236 2317 0
2238 2237 2317 0
2318 2238 2317 0
2319 2318 2317 0
2238 2318 2240 0
2242 2241 2320 0
2321 2314 2234 0
2321 2234 2242 0
2321 2242 2320 0
2319 2323 2318 0
2318 2323 2322 0
2318 2322 2324 0
2240 2318 2324 0
2243 2240 2324 0
2243 2324 2245 0
2241 2247 2325 0
2320 2241 2325 0
2326 2320 2325 0
2326 2321 2320 0
2327 2322 2323 0
2328 2324 2322 0
2328 2322 2327 0
2328 2327 2329 0
2324 2328 2330 0
2245 2324 2330 0
2248 2245 2330 0
2248 2330 2250 0
2247 2331 2325 0
2252 2331 2247 0
2332 2328 2329 0
2332 2333 2328 0
2328 2333 2330 0
2333 2250 2330 0
2333 2335 2250 0
2335 2253 2250 0
2334 2253 2335 0
2253 2334 2255 0
2252 2336 2331 0
2256 2336 2252 0
2337 2334 2335 0
2338 2258 2255 0
2337 2338 2255 0
2334 2337 2255 0
2256 2339 2336 0
2260 2339 2256 0
2340 2261 2338 0
2338 2261 2258 0
2341 2261 2340 0
2263 2261 2341 0
2260 2342 2339 0
2265 2342 2260 0
2263 2341 2344 0
2263 2344 2343 0
2263 2343 2266 0
2266 2343 2268 0
2265 2345 2342 0
2269 2345 2265 0
2346 2343 2344 0
2346 2268 2343 0
2346 2348 2268 0
2348 2270 2268 0
2347 2270 2348 0
2270 2347 2272 0
2269 2349 2345 0
2273 2349 2269 0
2348 2351 2347 0
2347 2351 2350 0
2347 2275 2272 0
2350 2275 2347 0
2353 2349 2273 0
2352 2353 2273 0
2276 2352 2273 0
2354 2352 2277 0
2277 2352 2276 0
2278 2354 2277 0
2351 2356 2350 0
2350 2356 2355 0
2350 2280 2275 0
2355 2280 2350 0
2353 2352 2357 0
2352 2354 2358 0
2357 2352 2358 0
2359 2357 2358 0
2278 2282 2354 0
2354 2282 2358 0
2360 2355 2356 0
2360 2361 2283 0
2360 2283 2280 0
2360 2280 2355 0
2284 2283 2361 0
2362 2284 2361 0
2363 2362 2361 0
2284 2362 2285 0
2358 2365 2359 0
2364 2365 2358 0
2366 2364 2358 0
2366 2358 2282 0
2366 2282 2286 0
2287 2366 2286 0
2363 2368 2362 0
2362 2368 2367 0
2362 2288 2285 0
2367 2288 2362 0
2365 2364 2369 0
2364 2366 2370 0
2369 2364 2370 0
2371 2369 2370 0
2287 2289 2366 0
2366 2289 2370 0
2372 2291 2373 0
2373 2291 2292 0
2373 2292 2293 0
2368 2373 2293 0
2367 2368 2293 0
2293 2288 2367 0
2371 2370 2374 0
2289 2294 2375 0
2289 2375 2374 0
2289 2374 2370 0
2295 2291 2372 0
2295 2372 2377 0
2295 2377 2376 0
2378 2376 2377 0
2294 2379 2375 0
2297 2379 2294 0
2380 2299 2295 0
2380 2295 2376 0
2380 2376 2381 0
2376 2378 2381 0
2297 2382 2379 0
2301 2382 2297 0
2383 2303 2304 0
2384 2383 2305 0
2305 2383 2304 0
2385 2384 2306 0
2306 2384 2305 0
2299 2380 2386 0
2306 2299 2386 0
2385 2306 2386 0
2382 2307 2387 0
2301 2307 2382 0
2387 2308 2388 0
2307 2308 2387 0
2388 2308 2389 0
2389 2308 2309 0
2310 2303 2390 0
2390 2303 2383 0
2390 2383 2384 0
2391 2390 2384 0
2392 2391 2384 0
2384 2393 2392 0
2385 2393 2384 0
2385 2386 2393 0
2389 2311 2394 0
2309 2311 2389 0
2394 2312 2395 0
2311 2312 2394 0
2395 2313 2396 0
2312 2313 2395 0
2397 2396 2313 0
2390 2397 2313 0
2310 2390 2313 0
2390 2391 2397 0
2315 2314 2398 0
2316 2398 2399 0
2315 2398 2316 0
2317 2399 2400 0
2316 2399 2317 0
2317 2400 2319 0
2314 2321 2401 0
2398 2314 2401 0
2402 2398 2401 0
2402 2403 2398 0
2398 2403 2399 0
2404 2400 2399 0
2404 2399 2403 0
2404 2403 2405 0
2400 2323 2319 0
2404 2323 2400 0
2326 2325 2406 0
2407 2401 2321 0
2407 2321 2326 0
2407 2326 2406 0
2408 2404 2405 0
2408 2323 2404 0
2408 2410 2323 0
2410 2327 2323 0
2409 2327 2410 0
2327 2409 2329 0
2325 2331 2411 0
2406 2325 2411 0
2412 2406 2411 0
2412 2407 2406 0
2413 2409 2410 0
2413 2414 2332 0
2413 2332 2329 0
2413 2329 2409 0
2333 2332 2414 0
2415 2333 2414 0
2416 2415 2414 0
2333 2415 2335 0
2331 2417 2411 0
2336 2417 2331 0
2418 2415 2416 0
2418 2335 2415 0
2418 2420 2335 0
2420 2337 2335 0
2419 2337 2420 0
2337 2419 2338 0
2336 2421 2417 0
2339 2421 2336 0
2422 2419 2420 0
2422 2338 2419 0
2422 2424 2338 0
2424 2340 2338 0
2423 2340 2424 0
2340 2423 2341 0
2339 2425 2421 0
2342 2425 2339 0
2424 2427 2423 0
2423 2427 2426 0
2423 2344 2341 0
2426 2344 2423 0
2342 2428 2425 0
2345 2428 2342 0
2429 2426 2427 0
2429 2344 2426 0
2429 2431 2344 0
2431 2346 2344 0
2430 2346 2431 0
2346 2430 2348 0
2345 2432 2428 0
2349 2432 2345 0
2431 2434 2430 0
2430 2434 2433 0
2430 2351 2348 0
2433 2351 2430 0
2432 2349 2353 0
2436 2432 2353 0
2435 2436 2353 0
2436 2435 2437 0
2434 2439 2433 0
2433 2439 2438 0
2433 2356 2351 0
2438 2356 2433 0
2435 2353 2357 0
2359 2440 2437 0
2359 2437 2435 0
2359 2435 2357 0
2441 2438 2439 0
2441 2442 2360 0
2441 2360 2356 0
2441 2356 2438 0
2361 2360 2442 0
2443 2361 2442 0
2444 2443 2442 0
2361 2443 2363 0
2359 2445 2440 0
2365 2445 2359 0
2444 2447 2443 0
2443 2447 2446 0
2443 2368 2363 0
2446 2368 2443 0
2449 2445 2365 0
2448 2449 2365 0
2369 2448 2365 0
2371 2448 2369 0
2447 2450 2372 0
2447 2372 2373 0
2447 2373 2446 0
2373 2368 2446 0
2449 2448 2451 0
2451 2452 2453 0
2451 2448 2452 0
2448 2374 2452 0
2371 2374 2448 0
2375 2452 2374 0
2455 2454 2456 0
2454 2457 2456 0
2457 2450 2456 0
2457 2377 2450 0
2377 2372 2450 0
2377 2457 2378 0
2453 2452 2458 0
2375 2379 2459 0
2375 2459 2458 0
2375 2458 2452 0
2455 2461 2454 0
2454 2461 2460 0
2457 2454 2460 0
2381 2457 2460 0
2380 2381 2460 0
2381 2378 2457 0
2379 2462 2459 0
2382 2462 2379 0
2461 2464 2460 0
2460 2464 2463 0
2460 2386 2380 0
2463 2386 2460 0
2462 2387 2465 0
2382 2387 2462 0
2465 2388 2466 0
2387 2388 2465 0
2466 2388 2467 0
2467 2388 2389 0
2468 2391 2469 0
2469 2391 2392 0
2469 2392 2393 0
2464 2469 2393 0
2463 2464 2393 0
2393 2386 2463 0
2467 2394 2470 0
2389 2394 2467 0
2470 2395 2471 0
2394 2395 2470 0
2471 2396 2472 0
2395 2396 2471 0
2472 2397 2473 0
2396 2397 2472 0
2391 2473 2397 0
2468 2473 2391 0
2475 2401 2474 0
2402 2401 2475 0
2476 2402 2475 0
2403 2402 2476 0
2477 2403 2476 0
2405 2403 2477 0
2401 2478 2474 0
2407 2478 2401 0
2405 2477 2480 0
2405 2480 2479 0
2405 2479 2408 0
2408 2479 2410 0
2412 2411 2481 0
2482 2478 2407 0
2482 2407 2412 0
2482 2412 2481 0
2480 2484 2479 0
2479 2484 2483 0
2479 2483 2485 0
2410 2479 2485 0
2413 2410 2485 0
2414 2485 2486 0
2413 2485 2414 0
2414 2486 2416 0
2487 2411 2417 0
2481 2411 2487 0
2481 2487 2482 0
2482 2487 2488 0
2489 2483 2484 0
2489 2490 2483 0
2483 2490 2485 0
2491 2486 2485 0
2491 2485 2490 0
2491 2490 2492 0
2486 2491 2493 0
2416 2486 2493 0
2418 2416 2493 0
2418 2493 2420 0
2417 2421 2494 0
2487 2417 2494 0
2495 2487 2494 0
2495 2488 2487 0
2496 2491 2492 0
2497 2493 2491 0
2497 2491 2496 0
2497 2496 2498 0
2493 2497 2499 0
2420 2493 2499 0
2422 2420 2499 0
2422 2499 2424 0
2421 2500 2494 0
2425 2500 2421 0
2501 2497 2498 0
2502 2499 2497 0
2502 2497 2501 0
2502 2501 2503 0
2499 2427 2424 0
2502 2427 2499 0
2425 2504 2500 0
2428 2504 2425 0
2505 2502 2503 0
2505 2427 2502 0
2505 2507 2427 0
2507 2429 2427 0
2506 2429 2507 0
2429 2506 2431 0
2504 2428 2432 0
2509 2504 2432 0
2508 2509 2432 0
2509 2508 2510 0
2507 2512 2506 0
2506 2512 2511 0
2506 2434 2431 0
2511 2434 2506 0
2508 2432 2436 0
2437 2513 2510 0
2437 2510 2508 0
2437 2508 2436 0
2512 2515 2511 0
2511 2515 2514 0
2511 2439 2434 0
2514 2439 2511 0
2437 2516 2513 0
2440 2516 2437 0
2515 2518 2514 0
2514 2518 2517 0
2514 2517 2519 0
2439 2514 2519 0
2441 2439 2519 0
2442 2519 2520 0
2441 2519 2442 0
2442 2520 2444 0
2440 2521 2516 0
2445 2521 2440 0
2522 2517 2518 0
2523 2519 2517 0
2523 2517 2522 0
2523 2522 2524 0
2523 2520 2519 0
2525 2520 2523 0
2520 2447 2444 0
2525 2447 2520 0
2521 2445 2449 0
2527 2521 2449 0
2526 2527 2449 0
2527 2526 2528 0
2524 2530 2523 0
2523 2530 2529 0
2529 2525 2523 0
2531 2525 2529 0
2525 2450 2447 0
2531 2450 2525 0
2526 2449 2451 0
2453 2532 2528 0
2453 2528 2526 0
2453 2526 2451 0
2530 2534 2529 0
2529 2534 2533 0
2531 2529 2533 0
2456 2531 2533 0
2455 2456 2533 0
2456 2450 2531 0
2532 2458 2535 0
2453 2458 2532 0
2535 2458 2536 0
2536 2458 2459 0
2534 2538 2533 0
2533 2538 2537 0
2533 2461 2455 0
2537 2461 2533 0
2536 2459 2462 0
2540 2536 2462 0
2539 2540 2462 0
2540 2539 2541 0
2538 2543 2537 0
2537 2543 2542 0
2537 2464 2461 0
2542 2464 2537 0
2539 2462 2465 0
2465 2466 2544 0
2539 2465 2544 0
2541 2539 2544 0
2546 2544 2466 0
2546 2466 2467 0
2546 2467 2545 0
2545 2547 2546 0
2546 2547 2548 0
2547 2549 2548 0
2548 2549 2550 0
2549 2551 2550 0
2550 2551 2552 0
2551 2543 2552 0
2551 2468 2543 0
2468 2542 2543 0
2469 2542 2468 0
2469 2464 2542 0
2545 2467 2470 0
2470 2547 2545 0
2471 2547 2470 0
2471 2549 2547 0
2472 2549 2471 0
2472 2551 2549 0
2473 2551 2472 0
2473 2468 2551 0
2475 2474 2553 0
2476 2553 2554 0
2475 2553 2476 0
2476 2554 2477 0
2555 2474 2478 0
2553 2474 2555 0
2555 2554 2553 0
2556 2554 2555 0
2554 2480 2477 0
2556 2480 2554 0
2478 2482 2557 0
2555 2478 2557 0
2558 2555 2557 0
2558 2559 2555 0
2555 2559 2556 0
2560 2484 2480 0
2559 2560 2480 0
2556 2559 2480 0
2482 2561 2557 0
2488 2561 2482 0
2484 2560 2563 0
2484 2563 2562 0
2484 2562 2489 0
2490 2562 2564 0
2489 2562 2490 0
2490 2564 2492 0
2495 2494 2565 0
2566 2561 2488 0
2566 2488 2495 0
2566 2495 2565 0
2567 2562 2563 0
2568 2564 2562 0
2568 2562 2567 0
2568 2567 2569 0
2564 2568 2570 0
2492 2564 2570 0
2496 2492 2570 0
2496 2570 2498 0
2571 2494 2500 0
2565 2494 2571 0
2565 2571 2566 0
2566 2571 2572 0
2569 2574 2568 0
2568 2574 2573 0
2573 2570 2568 0
2575 2570 2573 0
2570 2575 2576 0
2498 2570 2576 0
2501 2498 2576 0
2501 2576 2503 0
2577 2500 2504 0
2571 2500 2577 0
2571 2577 2572 0
2572 2577 2578 0
2579 2573 2574 0
2580 2575 2573 0
2580 2573 2579 0
2580 2579 2581 0
2580 2576 2575 0
2582 2576 2580 0
2576 2582 2583 0
2503 2576 2583 0
2505 2503 2583 0
2505 2583 2507 0
2577 2504 2509 0
2510 2584 2578 0
2510 2578 2577 0
2510 2577 2509 0
2585 2580 2581 0
2586 2582 2580 0
2586 2580 2585 0
2586 2585 2587 0
2586 2583 2582 0
2588 2583 2586 0
2583 2512 2507 0
2588 2512 2583 0
2510 2589 2584 0
2513 2589 2510 0
2587 2591 2586 0
2586 2591 2590 0
2590 2588 2586 0
2592 2588 2590 0
2588 2515 2512 0
2592 2515 2588 0
2513 2593 2589 0
2516 2593 2513 0
2594 2590 2591 0
2595 2592 2590 0
2595 2590 2594 0
2595 2594 2596 0
2592 2518 2515 0
2595 2518 2592 0
2516 2597 2593 0
2521 2597 2516 0
2596 2599 2595 0
2595 2599 2598 0
2598 2518 2595 0
2598 2522 2518 0
2600 2522 2598 0
2601 2522 2600 0
2602 2522 2601 0
2524 2522 2602 0
2597 2527 2603 0
2521 2527 2597 0
2603 2527 2604 0
2604 2527 2528 0
2605 2598 2599 0
2605 2600 2598 0
2530 2602 2606 0
2524 2602 2530 0
2604 2528 2532 0
2608 2604 2532 0
2607 2608 2532 0
2608 2607 2609 0
2534 2606 2610 0
2530 2606 2534 0
2607 2532 2535 0
2607 2612 2609 0
2607 2535 2612 0
2535 2611 2612 0
2536 2611 2535 0
2612 2611 2613 0
2615 2614 2616 0
2538 2534 2610 0
2614 2538 2610 0
2616 2614 2610 0
2611 2536 2540 0
2611 2618 2613 0
2611 2540 2618 0
2540 2617 2618 0
2541 2617 2540 0
2618 2617 2619 0
2615 2621 2614 0
2614 2621 2620 0
2614 2543 2538 0
2620 2543 2614 0
2617 2541 2544 0
2544 2546 2622 0
2617 2544 2622 0
2619 2617 2622 0
2622 2548 2623 0
2546 2548 2622 0
2623 2550 2624 0
2548 2550 2623 0
2624 2550 2552 0
2621 2624 2552 0
2620 2621 2552 0
2552 2543 2620 0
2558 2557 2625 0
2559 2625 2626 0
2558 2625 2559 0
2559 2626 2560 0
2627 2557 2561 0
2625 2557 2627 0
2627 2626 2625 0
2628 2626 2627 0
2626 2563 2560 0
2628 2563 2626 0
2629 2561 2566 0
2627 2561 2629 0
2628 2627 2629 0
2628 2629 2630 0
2628 2630 2631 0
2631 2563 2628 0
2631 2633 2563 0
2633 2567 2563 0
2632 2567 2633 0
2567 2632 2569 0
2634 2566 2572 0
2629 2566 2634 0
2629 2634 2630 0
2630 2634 2635 0
2633 2637 2632 0
2632 2637 2636 0
2632 2574 2569 0
2636 2574 2632 0
2638 2572 2578 0
2634 2572 2638 0
2634 2638 2635 0
2635 2638 2639 0
2640 2636 2637 0
2640 2574 2636 0
2640 2642 2574 0
2642 2579 2574 0
2641 2579 2642 0
2579 2641 2581 0
2643 2578 2584 0
2638 2578 2643 0
2638 2643 2639 0
2639 2643 2644 0
2642 2646 2641 0
2641 2646 2645 0
2641 2645 2647 0
2581 2641 2647 0
2585 2581 2647 0
2585 2647 2587 0
2648 2584 2589 0
2643 2584 2648 0
2643 2648 2644 0
2644 2648 2649 0
2646 2651 2645 0
2645 2651 2650 0
2650 2647 2645 0
2652 2647 2650 0
2647 2591 2587 0
2652 2591 2647 0
2653 2589 2593 0
2648 2589 2653 0
2648 2653 2654 0
2648 2654 2655 0
2648 2655 2649 0
2655 2654 2656 0
2657 2650 2651 0
2658 2652 2650 0
2658 2650 2657 0
2658 2657 2659 0
2652 2658 2660 0
2591 2652 2660 0
2594 2591 2660 0
2594 2660 2596 0
2661 2593 2597 0
2653 2593 2661 0
2661 2654 2653 0
2662 2654 2661 0
2654 2662 2656 0
2656 2662 2663 0
2664 2658 2659 0
2665 2660 2658 0
2665 2658 2664 0
2665 2664 2666 0
2660 2599 2596 0
2665 2599 2660 0
2668 2600 2667 0
2601 2600 2668 0
2669 2601 2668 0
2602 2601 2669 0
2661 2597 2603 0
2670 2662 2661 0
2604 2670 2661 0
2603 2604 2661 0
2662 2670 2671 0
2662 2671 2672 0
2662 2672 2663 0
2671 2673 2672 0
2672 2673 2674 0
2674 2673 2675 0
2676 2665 2666 0
2676 2677 2605 0
2676 2605 2599 0
2676 2599 2665 0
2605 2677 2600 0
2600 2677 2667 0
2606 2669 2678 0
2602 2669 2606 0
2670 2604 2608 0
2679 2671 2670 0
2609 2679 2670 0
2608 2609 2670 0
2679 2673 2671 0
2680 2673 2679 0
2673 2680 2675 0
2675 2680 2681 0
2610 2678 2682 0
2606 2678 2610 0
2679 2609 2612 0
2683 2680 2679 0
2613 2683 2679 0
2612 2613 2679 0
2680 2683 2684 0
2680 2684 2685 0
2680 2685 2681 0
2684 2686 2685 0
2685 2686 2687 0
2686 2688 2687 0
2687 2688 2689 0
2616 2690 2689 0
2616 2689 2688 0
2616 2688 2615 0
2610 2690 2616 0
2682 2690 2610 0
2683 2613 2618 0
2691 2684 2683 0
2619 2691 2683 0
2618 2619 2683 0
2691 2686 2684 0
2692 2686 2691 0
2692 2688 2686 0
2693 2688 2692 0
2688 2621 2615 0
2693 2621 2688 0
2691 2619 2622 0
2622 2692 2691 0
2623 2692 2622 0
2623 2693 2692 0
2624 2693 2623 0
2624 2621 2693 0
2631 2630 2694 0
2631 2694 2633 0
2695 2630 2635 0
2694 2630 2695 0
2694 2637 2633 0
2695 2637 2694 0
2696 2635 2639 0
2695 2635 2696 0
2695 2696 2697 0
2637 2695 2697 0
2640 2637 2697 0
2640 2697 2642 0
2698 2639 2644 0
2696 2639 2698 0
2698 2697 2696 0
2699 2697 2698 0
2697 2646 2642 0
2699 2646 2697 0
2700 2644 2649 0
2698 2644 2700 0
2700 2699 2698 0
2701 2699 2700 0
2699 2651 2646 0
2701 2651 2699 0
