#!ascii version of
3626 7248
1027 946 947 0
1027 947 1028 0
1027 1028 1029 0
949 1028 947 0
1017 1030 951 0
1017 951 952 0
1017 952 1016 0
952 936 1016 0
1032 954 1031 0
955 954 1032 0
955 1032 937 0
937 1032 1018 0
1033 956 939 0
1033 939 1020 0
1033 1020 1034 0
1020 1035 1034 0
1021 1035 1020 0
1021 1022 1035 0
1029 1028 1036 0
957 1037 1036 0
949 957 1036 0
1028 949 1036 0
1037 958 1038 0
957 958 1037 0
951 1038 958 0
1030 1038 951 0
954 1039 1031 0
960 1039 954 0
1040 961 962 0
962 963 1042 0
962 1042 1041 0
962 1041 1040 0
956 1042 963 0
1033 1042 956 0
960 1043 1039 0
965 1043 960 0
1044 966 967 0
967 968 1046 0
967 1046 1045 0
967 1045 1044 0
1046 969 1047 0
968 969 1046 0
1048 1047 969 0
1040 1048 969 0
961 1040 969 0
1040 1041 1048 0
1050 1043 965 0
1049 1050 965 0
970 1049 965 0
1051 1049 971 0
971 1049 970 0
971 972 1053 0
971 1053 1052 0
971 1052 1051 0
1053 973 1054 0
972 973 1053 0
1054 974 1055 0
973 974 1054 0
1055 975 1056 0
974 975 1055 0
1056 976 1057 0
975 976 1056 0
1058 1057 976 0
1044 1058 976 0
966 1044 976 0
1044 1045 1058 0
1050 1049 1059 0
1049 1060 1059 0
1051 1060 1049 0
1051 1052 1060 0
1062 989 1061 0
990 989 1062 0
1063 990 1062 0
991 990 1063 0
1064 991 1063 0
992 991 1064 0
1065 992 1064 0
993 992 1065 0
994 993 1065 0
1066 994 1065 0
1067 1066 1065 0
995 1066 1068 0
994 1066 995 0
996 1068 1069 0
995 1068 996 0
997 1069 1070 0
996 1069 997 0
998 1070 1071 0
997 1070 998 0
999 1071 1072 0
998 1071 999 0
1000 1072 1073 0
999 1072 1000 0
1001 1073 1074 0
1000 1073 1001 0
1002 1074 1075 0
1001 1074 1002 0
1003 1075 1076 0
1002 1075 1003 0
1004 1076 1077 0
1003 1076 1004 0
1005 1077 1078 0
1004 1077 1005 0
1006 1078 1079 0
1005 1078 1006 0
1006 1079 1008 0
989 1080 1061 0
1009 1080 989 0
1081 1066 1067 0
1082 1068 1066 0
1082 1066 1081 0
1082 1081 1083 0
1082 1069 1068 0
1084 1069 1082 0
1070 1069 1084 0
1070 1084 1085 0
1070 1085 1086 0
1086 1087 1070 0
1070 1087 1071 0
1087 1088 1071 0
1071 1088 1072 0
1088 1089 1072 0
1072 1089 1073 0
1089 1090 1073 0
1073 1090 1074 0
1090 1091 1074 0
1074 1091 1075 0
1091 1092 1075 0
1075 1092 1076 0
1092 1093 1076 0
1076 1093 1077 0
1093 1094 1077 0
1077 1094 1078 0
1095 1079 1078 0
1095 1078 1094 0
1095 1094 1096 0
1079 1011 1008 0
1095 1011 1079 0
1098 1012 1097 0
1013 1012 1098 0
1099 1013 1098 0
1014 1013 1099 0
1014 1099 1009 0
1009 1099 1080 0
1100 1082 1083 0
1100 1101 1082 0
1082 1101 1084 0
1101 1085 1084 0
1102 1095 1096 0
1102 1103 1015 0
1102 1015 1011 0
1102 1011 1095 0
1104 1015 1103 0
1017 1015 1104 0
1106 1018 1105 0
1019 1018 1106 0
1019 1106 1012 0
1012 1106 1097 0
1107 1022 1023 0
1023 1024 1109 0
1023 1109 1108 0
1023 1108 1107 0
1109 1025 1110 0
1024 1025 1109 0
1110 1026 1111 0
1025 1026 1110 0
1111 1026 1027 0
1111 1027 1112 0
1111 1112 1113 0
1029 1112 1027 0
1030 1017 1104 0
1030 1104 1115 0
1030 1115 1114 0
1116 1114 1115 0
1118 1031 1117 0
1032 1031 1118 0
1032 1118 1018 0
1018 1118 1105 0
1119 1033 1034 0
1034 1035 1121 0
1034 1121 1120 0
1034 1120 1119 0
1122 1121 1035 0
1107 1122 1035 0
1022 1107 1035 0
1107 1108 1122 0
1113 1112 1123 0
1036 1124 1123 0
1029 1036 1123 0
1112 1029 1123 0
1124 1037 1125 0
1036 1037 1124 0
1125 1038 1126 0
1037 1038 1125 0
1127 1126 1038 0
1114 1127 1038 0
1030 1114 1038 0
1114 1116 1127 0
1031 1128 1117 0
1039 1128 1031 0
1129 1041 1130 0
1130 1041 1042 0
1131 1130 1042 0
1119 1131 1042 0
1033 1119 1042 0
1119 1120 1131 0
1039 1132 1128 0
1043 1132 1039 0
1133 1045 1046 0
1046 1047 1135 0
1046 1135 1134 0
1046 1134 1133 0
1135 1048 1136 0
1047 1048 1135 0
1041 1136 1048 0
1129 1136 1041 0
1043 1137 1132 0
1050 1137 1043 0
1138 1052 1053 0
1139 1138 1054 0
1054 1138 1053 0
1140 1139 1055 0
1055 1139 1054 0
1141 1140 1056 0
1056 1140 1055 0
1056 1057 1143 0
1056 1143 1142 0
1056 1142 1141 0
1143 1058 1144 0
1057 1058 1143 0
1145 1144 1058 0
1133 1145 1058 0
1045 1133 1058 0
1133 1134 1145 0
1137 1059 1146 0
1050 1059 1137 0
1146 1059 1060 0
1146 1060 1147 0
1146 1147 1148 0
1138 1149 1147 0
1138 1147 1060 0
1138 1060 1052 0
1150 1138 1139 0
1149 1138 1150 0
1151 1139 1140 0
1150 1139 1151 0
1152 1140 1141 0
1151 1140 1152 0
1142 1152 1141 0
1153 1152 1142 0
1148 1147 1154 0
1147 1155 1154 0
1149 1155 1147 0
1149 1156 1155 0
1150 1156 1149 0
1150 1157 1156 0
1151 1157 1150 0
1151 1158 1157 0
1152 1158 1151 0
1152 1153 1158 0
1160 1061 1159 0
1062 1061 1160 0
1161 1062 1160 0
1063 1062 1161 0
1162 1063 1161 0
1064 1063 1162 0
1065 1064 1162 0
1163 1065 1162 0
1164 1163 1162 0
1065 1163 1067 0
1061 1165 1159 0
1080 1165 1061 0
1166 1163 1164 0
1166 1167 1081 0
1166 1081 1067 0
1166 1067 1163 0
1168 1081 1167 0
1083 1081 1168 0
1086 1085 1169 0
1087 1169 1170 0
1086 1169 1087 0
1088 1170 1171 0
1087 1170 1088 0
1089 1171 1172 0
1088 1171 1089 0
1090 1172 1173 0
1089 1172 1090 0
1091 1173 1174 0
1090 1173 1091 0
1092 1174 1175 0
1091 1174 1092 0
1093 1175 1176 0
1092 1175 1093 0
1094 1176 1177 0
1093 1176 1094 0
1094 1177 1096 0
1179 1097 1178 0
1098 1097 1179 0
1180 1098 1179 0
1099 1098 1180 0
1099 1180 1080 0
1080 1180 1165 0
1181 1100 1168 0
1168 1100 1083 0
1182 1100 1181 0
1101 1100 1182 0
1101 1182 1183 0
1101 1183 1169 0
1101 1169 1085 0
1183 1184 1169 0
1169 1184 1170 0
1184 1185 1170 0
1170 1185 1171 0
1185 1186 1171 0
1171 1186 1172 0
1186 1187 1172 0
1172 1187 1173 0
1187 1188 1173 0
1173 1188 1174 0
1188 1189 1174 0
1174 1189 1175 0
1189 1190 1175 0
1175 1190 1176 0
1190 1191 1176 0
1176 1191 1177 0
1191 1096 1177 0
1191 1193 1096 0
1193 1102 1096 0
1192 1102 1193 0
1103 1192 1194 0
1102 1192 1103 0
1103 1194 1104 0
1196 1105 1195 0
1106 1105 1196 0
1106 1196 1097 0
1097 1196 1178 0
1197 1108 1109 0
1198 1197 1110 0
1110 1197 1109 0
1199 1198 1111 0
1111 1198 1110 0
1113 1199 1111 0
1193 1201 1192 0
1192 1201 1200 0
1200 1194 1192 0
1202 1194 1200 0
1194 1202 1203 0
1104 1194 1203 0
1115 1104 1203 0
1115 1203 1116 0
1205 1117 1204 0
1118 1117 1205 0
1118 1205 1105 0
1105 1205 1195 0
1206 1120 1121 0
1121 1122 1208 0
1121 1208 1207 0
1121 1207 1206 0
1209 1208 1122 0
1197 1209 1122 0
1108 1197 1122 0
1197 1210 1209 0
1198 1210 1197 0
1198 1211 1210 0
1199 1211 1198 0
1123 1212 1211 0
1113 1123 1211 0
1199 1113 1211 0
1212 1124 1213 0
1123 1124 1212 0
1213 1124 1125 0
1201 1213 1125 0
1200 1201 1125 0
1125 1202 1200 0
1126 1202 1125 0
1126 1203 1202 0
1127 1203 1126 0
1127 1116 1203 0
1117 1214 1204 0
1128 1214 1117 0
1215 1129 1130 0
1130 1131 1217 0
1130 1217 1216 0
1130 1216 1215 0
1218 1217 1131 0
1206 1218 1131 0
1120 1206 1131 0
1206 1207 1218 0
1128 1219 1214 0
1132 1219 1128 0
1220 1134 1221 0
1221 1134 1135 0
1221 1136 1222 0
1135 1136 1221 0
1223 1222 1136 0
1215 1223 1136 0
1129 1215 1136 0
1215 1216 1223 0
1219 1132 1137 0
1225 1219 1137 0
1224 1225 1137 0
1225 1224 1226 0
1227 1142 1143 0
1228 1227 1144 0
1144 1227 1143 0
1144 1145 1230 0
1144 1230 1229 0
1144 1229 1228 0
1134 1230 1145 0
1220 1230 1134 0
1224 1137 1146 0
1148 1231 1226 0
1148 1226 1224 0
1148 1224 1146 0
1153 1142 1232 0
1232 1142 1227 0
1233 1227 1228 0
1232 1227 1233 0
1229 1233 1228 0
1234 1233 1229 0
1231 1154 1235 0
1148 1154 1231 0
1235 1154 1155 0
1235 1155 1236 0
1235 1236 1237 0
1238 1236 1156 0
1156 1236 1155 0
1156 1157 1240 0
1156 1240 1239 0
1156 1239 1238 0
1240 1158 1241 0
1157 1158 1240 0
1242 1241 1158 0
1232 1242 1158 0
1153 1232 1158 0
1232 1243 1242 0
1233 1243 1232 0
1233 1234 1243 0
1237 1236 1244 0
1236 1245 1244 0
1238 1245 1236 0
1238 1239 1245 0
1160 1159 1246 0
1161 1246 1247 0
1160 1246 1161 0
1162 1247 1248 0
1161 1247 1162 0
1162 1248 1164 0
1251 1249 1250 0
1251 1252 1249 0
1253 1252 1251 0
1254 1252 1253 0
1254 1165 1252 0
1246 1165 1254 0
1159 1165 1246 0
1254 1255 1246 0
1246 1255 1247 0
1255 1256 1247 0
1247 1256 1248 0
1256 1257 1166 0
1256 1166 1164 0
1256 1164 1248 0
1258 1166 1257 0
1167 1166 1258 0
1167 1258 1260 0
1168 1167 1260 0
1259 1168 1260 0
1261 1259 1260 0
1178 1262 1250 0
1179 1178 1250 0
1249 1179 1250 0
1249 1252 1179 0
1179 1252 1180 0
1252 1165 1180 0
1181 1168 1259 0
1263 1182 1181 0
1263 1181 1259 0
1263 1259 1261 0
1264 1182 1263 0
1183 1182 1264 0
1265 1183 1264 0
1184 1183 1265 0
1266 1184 1265 0
1185 1184 1266 0
1267 1185 1266 0
1186 1185 1267 0
1268 1186 1267 0
1187 1186 1268 0
1269 1187 1268 0
1188 1187 1269 0
1189 1188 1269 0
1270 1189 1269 0
1271 1270 1269 0
1190 1270 1272 0
1189 1270 1190 0
1191 1272 1273 0
1190 1272 1191 0
1191 1273 1193 0
1275 1195 1274 0
1196 1195 1275 0
1196 1275 1178 0
1178 1275 1262 0
1276 1270 1271 0
1276 1277 1270 0
1270 1277 1272 0
1277 1278 1272 0
1272 1278 1273 0
1279 1201 1193 0
1278 1279 1193 0
1273 1278 1193 0
1281 1204 1280 0
1205 1204 1281 0
1205 1281 1195 0
1195 1281 1274 0
1282 1207 1208 0
1283 1282 1209 0
1209 1282 1208 0
1284 1283 1210 0
1210 1283 1209 0
1285 1284 1211 0
1211 1284 1210 0
1286 1285 1212 0
1212 1285 1211 0
1212 1213 1288 0
1212 1288 1287 0
1212 1287 1286 0
1201 1288 1213 0
1279 1288 1201 0
1204 1289 1280 0
1214 1289 1204 0
1290 1216 1217 0
1217 1218 1292 0
1217 1292 1291 0
1217 1291 1290 0
1293 1292 1218 0
1282 1293 1218 0
1207 1282 1218 0
1282 1294 1293 0
1283 1294 1282 0
1283 1295 1294 0
1284 1295 1283 0
1284 1296 1295 0
1285 1296 1284 0
1285 1297 1296 0
1286 1297 1285 0
1286 1287 1297 0
1300 1298 1299 0
1289 1214 1219 0
1289 1219 1298 0
1289 1298 1300 0
1301 1220 1221 0
1302 1301 1222 0
1222 1301 1221 0
1303 1302 1223 0
1223 1302 1222 0
1290 1304 1303 0
1290 1303 1223 0
1290 1223 1216 0
1291 1304 1290 0
1305 1304 1291 0
1299 1298 1306 0
1306 1307 1308 0
1306 1298 1307 0
1298 1225 1307 0
1219 1225 1298 0
1226 1307 1225 0
1309 1229 1230 0
1301 1310 1309 0
1301 1309 1230 0
1301 1230 1220 0
1310 1301 1302 0
1311 1310 1302 0
1312 1311 1302 0
1302 1313 1312 0
1303 1313 1302 0
1303 1314 1313 0
1304 1314 1303 0
1304 1305 1314 0
1307 1316 1308 0
1315 1316 1307 0
1226 1231 1307 0
1307 1231 1315 0
1317 1234 1229 0
1317 1229 1309 0
1317 1309 1318 0
1309 1319 1318 0
1310 1319 1309 0
1310 1311 1319 0
1316 1315 1320 0
1235 1321 1320 0
1231 1235 1320 0
1315 1231 1320 0
1321 1235 1322 0
1322 1235 1237 0
1323 1239 1324 0
1324 1239 1240 0
1324 1241 1325 0
1240 1241 1324 0
1325 1242 1326 0
1241 1242 1325 0
1326 1243 1327 0
1242 1243 1326 0
1234 1327 1243 0
1317 1327 1234 0
1322 1244 1328 0
1237 1244 1322 0
1328 1245 1329 0
1244 1245 1328 0
1239 1329 1245 0
1323 1329 1239 0
1251 1250 1330 0
1253 1330 1331 0
1251 1330 1253 0
1254 1331 1332 0
1253 1331 1254 0
1255 1332 1333 0
1254 1332 1255 0
1335 1256 1255 0
1334 1335 1255 0
1333 1334 1255 0
1336 1256 1335 0
1257 1256 1336 0
1337 1257 1336 0
1258 1257 1337 0
1338 1258 1337 0
1260 1258 1338 0
1260 1338 1340 0
1261 1260 1340 0
1339 1261 1340 0
1340 1341 1339 0
1342 1341 1340 0
1343 1341 1342 0
1250 1262 1344 0
1330 1250 1344 0
1345 1330 1344 0
1345 1346 1330 0
1330 1346 1331 0
1346 1347 1331 0
1331 1347 1332 0
1347 1348 1332 0
1332 1348 1333 0
1348 1334 1333 0
1263 1261 1339 0
1339 1341 1263 0
1263 1341 1264 0
1349 1265 1264 0
1349 1264 1341 0
1349 1341 1343 0
1350 1265 1349 0
1266 1265 1350 0
1351 1266 1350 0
1267 1266 1351 0
1268 1267 1351 0
1352 1268 1351 0
1353 1352 1351 0
1269 1352 1354 0
1268 1352 1269 0
1269 1354 1271 0
1356 1274 1355 0
1275 1274 1356 0
1275 1356 1262 0
1262 1356 1344 0
1357 1352 1353 0
1357 1358 1352 0
1352 1358 1354 0
1358 1359 1276 0
1358 1276 1271 0
1358 1271 1354 0
1360 1276 1359 0
1277 1276 1360 0
1278 1277 1360 0
1361 1278 1360 0
1362 1361 1360 0
1278 1361 1279 0
1364 1280 1363 0
1281 1280 1364 0
1281 1364 1274 0
1274 1364 1355 0
1362 1366 1365 0
1362 1365 1287 0
1361 1362 1287 0
1288 1361 1287 0
1367 1365 1366 0
1279 1361 1288 0
1280 1368 1363 0
1289 1368 1280 0
1369 1291 1370 0
1370 1291 1292 0
1370 1293 1371 0
1292 1293 1370 0
1371 1294 1372 0
1293 1294 1371 0
1372 1295 1373 0
1294 1295 1372 0
1373 1295 1296 0
1373 1296 1374 0
1373 1374 1375 0
1376 1374 1297 0
1297 1374 1296 0
1365 1377 1376 0
1365 1376 1297 0
1365 1297 1287 0
1367 1377 1365 0
1378 1377 1367 0
1380 1299 1379 0
1300 1299 1380 0
1300 1380 1289 0
1289 1380 1368 0
1305 1369 1381 0
1291 1369 1305 0
1375 1374 1382 0
1374 1383 1382 0
1376 1383 1374 0
1376 1384 1383 0
1377 1384 1376 0
1377 1378 1384 0
1379 1306 1385 0
1299 1306 1379 0
1385 1306 1386 0
1386 1306 1308 0
1387 1311 1388 0
1388 1311 1312 0
1388 1313 1389 0
1312 1313 1388 0
1389 1314 1390 0
1313 1314 1389 0
1305 1390 1314 0
1381 1390 1305 0
1386 1308 1316 0
1392 1386 1316 0
1391 1392 1316 0
1392 1391 1393 0
1394 1317 1395 0
1395 1317 1318 0
1395 1319 1396 0
1318 1319 1395 0
1311 1396 1319 0
1387 1396 1311 0
1391 1316 1320 0
1320 1321 1397 0
1391 1320 1397 0
1393 1391 1397 0
1397 1321 1398 0
1398 1321 1322 0
1399 1323 1324 0
1324 1325 1401 0
1324 1401 1400 0
1324 1400 1399 0
1401 1326 1402 0
1325 1326 1401 0
1402 1327 1403 0
1326 1327 1402 0
1317 1403 1327 0
1394 1403 1317 0
1398 1328 1404 0
1322 1328 1398 0
1404 1329 1405 0
1328 1329 1404 0
1406 1405 1329 0
1399 1406 1329 0
1323 1399 1329 0
1399 1400 1406 0
1335 1334 1407 0
1336 1407 1408 0
1335 1407 1336 0
1337 1408 1409 0
1336 1408 1337 0
1338 1409 1410 0
1337 1409 1338 0
1412 1340 1338 0
1411 1412 1338 0
1410 1411 1338 0
1413 1340 1412 0
1342 1340 1413 0
1342 1413 1415 0
1343 1342 1415 0
1414 1343 1415 0
1415 1416 1414 0
1417 1416 1415 0
1417 1418 1416 0
1419 1418 1417 0
1420 1418 1419 0
1422 1344 1421 0
1345 1344 1422 0
1423 1345 1422 0
1346 1345 1423 0
1424 1346 1423 0
1347 1346 1424 0
1425 1347 1424 0
1348 1347 1425 0
1348 1425 1426 0
1348 1426 1407 0
1348 1407 1334 0
1426 1427 1407 0
1407 1427 1408 0
1427 1428 1408 0
1408 1428 1409 0
1428 1429 1409 0
1409 1429 1410 0
1429 1411 1410 0
1349 1343 1414 0
1414 1416 1349 0
1349 1416 1350 0
1416 1418 1350 0
1350 1418 1351 0
1420 1430 1353 0
1418 1420 1353 0
1351 1418 1353 0
1432 1355 1431 0
1356 1355 1432 0
1356 1432 1344 0
1344 1432 1421 0
1353 1430 1434 0
1353 1434 1433 0
1353 1433 1357 0
1358 1433 1435 0
1357 1433 1358 0
1359 1435 1436 0
1358 1435 1359 0
1360 1436 1437 0
1359 1436 1360 0
1360 1437 1362 0
1364 1363 1438 0
1439 1431 1355 0
1439 1355 1364 0
1439 1364 1438 0
1440 1433 1434 0
1440 1441 1433 0
1433 1441 1435 0
1441 1442 1435 0
1435 1442 1436 0
1442 1443 1436 0
1436 1443 1437 0
1443 1444 1366 0
1443 1366 1362 0
1443 1362 1437 0
1445 1366 1444 0
1367 1366 1445 0
1363 1368 1446 0
1438 1363 1446 0
1447 1438 1446 0
1447 1439 1438 0
1448 1369 1370 0
1449 1448 1371 0
1371 1448 1370 0
1450 1449 1372 0
1372 1449 1371 0
1451 1450 1373 0
1373 1450 1372 0
1375 1451 1373 0
1378 1445 1452 0
1367 1445 1378 0
1380 1379 1453 0
1454 1446 1368 0
1454 1368 1380 0
1454 1380 1453 0
1381 1369 1455 0
1455 1369 1448 0
1455 1448 1449 0
1456 1455 1449 0
1457 1456 1449 0
1449 1458 1457 0
1450 1458 1449 0
1450 1459 1458 0
1451 1459 1450 0
1382 1460 1459 0
1375 1382 1459 0
1451 1375 1459 0
1460 1383 1461 0
1382 1383 1460 0
1461 1384 1462 0
1383 1384 1461 0
1378 1462 1384 0
1452 1462 1378 0
1453 1379 1385 0
1386 1463 1454 0
1386 1454 1453 0
1386 1453 1385 0
1464 1387 1465 0
1465 1387 1388 0
1465 1389 1466 0
1388 1389 1465 0
1466 1390 1467 0
1389 1390 1466 0
1468 1467 1390 0
1455 1468 1390 0
1381 1455 1390 0
1455 1456 1468 0
1463 1392 1469 0
1386 1392 1463 0
1469 1392 1470 0
1470 1392 1393 0
1471 1394 1472 0
1472 1394 1395 0
1472 1396 1473 0
1395 1396 1472 0
1387 1473 1396 0
1464 1473 1387 0
1470 1397 1474 0
1393 1397 1470 0
1474 1397 1475 0
1475 1397 1398 0
1476 1400 1477 0
1477 1400 1401 0
1477 1402 1478 0
1401 1402 1477 0
1478 1403 1479 0
1402 1403 1478 0
1394 1479 1403 0
1471 1479 1394 0
1475 1404 1480 0
1398 1404 1475 0
1480 1405 1481 0
1404 1405 1480 0
1481 1406 1482 0
1405 1406 1481 0
1400 1482 1406 0
1476 1482 1400 0
1412 1411 1483 0
1413 1483 1484 0
1412 1483 1413 0
1415 1484 1485 0
1413 1484 1415 0
1417 1485 1486 0
1415 1485 1417 0
1419 1486 1487 0
1417 1486 1419 0
1419 1487 1420 0
1489 1421 1488 0
1422 1421 1489 0
1490 1422 1489 0
1423 1422 1490 0
1491 1423 1490 0
1424 1423 1491 0
1492 1424 1491 0
1425 1424 1492 0
1493 1425 1492 0
1426 1425 1493 0
1494 1426 1493 0
1427 1426 1494 0
1495 1427 1494 0
1428 1427 1495 0
1496 1428 1495 0
1429 1428 1496 0
1429 1496 1411 0
1496 1483 1411 0
1496 1498 1483 0
1498 1497 1483 0
1497 1484 1483 0
1499 1484 1497 0
1499 1485 1484 0
1500 1485 1499 0
1500 1486 1485 0
1501 1486 1500 0
1501 1487 1486 0
1502 1487 1501 0
1487 1430 1420 0
1502 1430 1487 0
1432 1431 1503 0
1504 1488 1421 0
1504 1421 1432 0
1504 1432 1503 0
1505 1497 1498 0
1505 1506 1497 0
1497 1506 1499 0
1506 1507 1499 0
1499 1507 1500 0
1507 1508 1500 0
1500 1508 1501 0
1508 1509 1501 0
1501 1509 1502 0
1510 1434 1430 0
1509 1510 1430 0
1502 1509 1430 0
1431 1439 1511 0
1503 1431 1511 0
1512 1503 1511 0
1512 1504 1503 0
1434 1510 1514 0
1434 1514 1513 0
1434 1513 1440 0
1441 1513 1515 0
1440 1513 1441 0
1442 1515 1516 0
1441 1515 1442 0
1443 1516 1517 0
1442 1516 1443 0
1444 1517 1518 0
1443 1517 1444 0
1444 1518 1445 0
1520 1446 1519 0
1447 1446 1520 0
1447 1520 1439 0
1439 1520 1511 0
1521 1513 1514 0
1522 1515 1513 0
1522 1513 1521 0
1522 1521 1523 0
1522 1516 1515 0
1524 1516 1522 0
1524 1517 1516 0
1525 1517 1524 0
1525 1518 1517 0
1526 1518 1525 0
1518 1452 1445 0
1526 1452 1518 0
1446 1527 1519 0
1454 1527 1446 0
1528 1456 1457 0
1529 1528 1458 0
1458 1528 1457 0
1458 1523 1529 0
1458 1459 1523 0
1459 1522 1523 0
1529 1523 1530 0
1530 1523 1531 0
1524 1459 1460 0
1522 1459 1524 0
1532 1530 1531 0
1460 1525 1524 0
1461 1525 1460 0
1461 1526 1525 0
1462 1526 1461 0
1462 1452 1526 0
1454 1533 1527 0
1463 1533 1454 0
1534 1464 1465 0
1465 1466 1536 0
1465 1536 1535 0
1465 1535 1534 0
1536 1467 1537 0
1466 1467 1536 0
1537 1468 1538 0
1467 1468 1537 0
1539 1538 1468 0
1528 1539 1468 0
1456 1528 1468 0
1528 1540 1539 0
1529 1540 1528 0
1529 1541 1540 0
1530 1541 1529 0
1530 1532 1541 0
1533 1469 1542 0
1463 1469 1533 0
1542 1469 1543 0
1543 1469 1470 0
1544 1471 1545 0
1545 1471 1472 0
1545 1473 1546 0
1472 1473 1545 0
1547 1546 1473 0
1534 1547 1473 0
1464 1534 1473 0
1534 1535 1547 0
1549 1543 1470 0
1548 1549 1470 0
1474 1548 1470 0
1475 1548 1474 0
1550 1476 1477 0
1477 1478 1552 0
1477 1552 1551 0
1477 1551 1550 0
1552 1479 1553 0
1478 1479 1552 0
1471 1553 1479 0
1544 1553 1471 0
1549 1548 1554 0
1480 1555 1554 0
1475 1480 1554 0
1548 1475 1554 0
1555 1480 1481 0
1555 1481 1556 0
1555 1556 1557 0
1558 1556 1482 0
1482 1556 1481 0
1550 1559 1558 0
1550 1558 1482 0
1550 1482 1476 0
1551 1559 1550 0
1560 1559 1551 0
1557 1556 1561 0
1556 1562 1561 0
1558 1562 1556 0
1558 1563 1562 0
1559 1563 1558 0
1559 1560 1563 0
1489 1488 1564 0
1566 1490 1489 0
1565 1566 1489 0
1564 1565 1489 0
1567 1490 1566 0
1491 1490 1567 0
1568 1491 1567 0
1492 1491 1568 0
1569 1492 1568 0
1493 1492 1569 0
1570 1493 1569 0
1494 1493 1570 0
1571 1494 1570 0
1495 1494 1571 0
1572 1495 1571 0
1496 1495 1572 0
1573 1496 1572 0
1498 1496 1573 0
1488 1504 1574 0
1564 1488 1574 0
1575 1564 1574 0
1575 1565 1564 0
1576 1505 1573 0
1573 1505 1498 0
1577 1505 1576 0
1506 1505 1577 0
1578 1506 1577 0
1507 1506 1578 0
1579 1507 1578 0
1508 1507 1579 0
1509 1508 1579 0
1580 1509 1579 0
1581 1580 1579 0
1509 1580 1510 0
1583 1511 1582 0
1512 1511 1583 0
1512 1583 1504 0
1504 1583 1574 0
1581 1585 1580 0
1580 1585 1584 0
1580 1514 1510 0
1584 1514 1580 0
1520 1519 1586 0
1587 1582 1511 0
1587 1511 1520 0
1587 1520 1586 0
1588 1584 1585 0
1588 1514 1584 0
1588 1590 1514 0
1590 1521 1514 0
1589 1521 1590 0
1521 1589 1523 0
1519 1527 1591 0
1586 1519 1591 0
1592 1586 1591 0
1592 1587 1586 0
1593 1589 1590 0
1593 1594 1531 0
1593 1531 1523 0
1593 1523 1589 0
1595 1531 1594 0
1532 1531 1595 0
1527 1596 1591 0
1533 1596 1527 0
1597 1535 1536 0
1598 1597 1537 0
1537 1597 1536 0
1599 1598 1538 0
1538 1598 1537 0
1600 1599 1539 0
1539 1599 1538 0
1601 1600 1540 0
1540 1600 1539 0
1602 1601 1541 0
1541 1601 1540 0
1532 1595 1603 0
1541 1532 1603 0
1602 1541 1603 0
1605 1596 1533 0
1604 1605 1533 0
1542 1604 1533 0
1543 1604 1542 0
1606 1544 1545 0
1607 1606 1546 0
1546 1606 1545 0
1546 1547 1609 0
1546 1609 1608 0
1546 1608 1607 0
1610 1609 1547 0
1597 1610 1547 0
1535 1597 1547 0
1597 1611 1610 0
1598 1611 1597 0
1598 1612 1611 0
1599 1612 1598 0
1599 1613 1612 0
1600 1613 1599 0
1600 1614 1613 0
1601 1614 1600 0
1601 1615 1614 0
1602 1615 1601 0
1602 1603 1615 0
1618 1616 1617 0
1604 1619 1616 0
1605 1604 1616 0
1618 1605 1616 0
1543 1549 1604 0
1604 1549 1619 0
1620 1551 1552 0
1621 1620 1553 0
1553 1620 1552 0
1606 1622 1621 0
1606 1621 1553 0
1606 1553 1544 0
1622 1606 1607 0
1623 1622 1607 0
1624 1623 1607 0
1607 1608 1624 0
1617 1616 1625 0
1616 1626 1625 0
1619 1626 1616 0
1626 1627 1628 0
1626 1619 1627 0
1619 1554 1627 0
1549 1554 1619 0
1629 1627 1555 0
1555 1627 1554 0
1557 1629 1555 0
1630 1560 1551 0
1630 1551 1620 0
1630 1620 1631 0
1620 1632 1631 0
1621 1632 1620 0
1621 1633 1632 0
1622 1633 1621 0
1622 1623 1633 0
1628 1627 1634 0
1627 1635 1634 0
1629 1635 1627 0
1561 1636 1635 0
1557 1561 1635 0
1629 1557 1635 0
1636 1562 1637 0
1561 1562 1636 0
1637 1563 1638 0
1562 1563 1637 0
1560 1638 1563 0
1630 1638 1560 0
1566 1565 1639 0
1567 1639 1640 0
1566 1639 1567 0
1568 1640 1641 0
1567 1640 1568 0
1569 1641 1642 0
1568 1641 1569 0
1570 1642 1643 0
1569 1642 1570 0
1571 1643 1644 0
1570 1643 1571 0
1572 1644 1645 0
1571 1644 1572 0
1572 1645 1573 0
1647 1574 1646 0
1575 1574 1647 0
1575 1647 1648 0
1575 1648 1639 0
1575 1639 1565 0
1648 1649 1639 0
1639 1649 1640 0
1649 1650 1640 0
1640 1650 1641 0
1650 1651 1641 0
1641 1651 1642 0
1651 1652 1642 0
1642 1652 1643 0
1652 1653 1643 0
1643 1653 1644 0
1653 1654 1644 0
1644 1654 1645 0
1654 1655 1576 0
1654 1576 1573 0
1654 1573 1645 0
1656 1576 1655 0
1577 1576 1656 0
1657 1577 1656 0
1578 1577 1657 0
1658 1578 1657 0
1579 1578 1658 0
1659 1579 1658 0
1581 1579 1659 0
1661 1582 1660 0
1583 1582 1661 0
1583 1661 1574 0
1574 1661 1646 0
1663 1662 1664 0
1585 1581 1659 0
1662 1585 1659 0
1664 1662 1659 0
1582 1665 1660 0
1587 1665 1582 0
1666 1662 1663 0
1666 1667 1588 0
1666 1588 1585 0
1666 1585 1662 0
1668 1588 1667 0
1590 1588 1668 0
1670 1591 1669 0
1592 1591 1670 0
1592 1670 1587 0
1587 1670 1665 0
1671 1593 1668 0
1668 1593 1590 0
1594 1593 1671 0
1672 1594 1671 0
1673 1672 1671 0
1594 1672 1595 0
1591 1674 1669 0
1596 1674 1591 0
1673 1676 1672 0
1672 1676 1675 0
1672 1603 1595 0
1675 1603 1672 0
1679 1677 1678 0
1674 1596 1605 0
1674 1605 1677 0
1674 1677 1679 0
1680 1608 1609 0
1681 1680 1610 0
1610 1680 1609 0
1610 1611 1683 0
1610 1683 1682 0
1610 1682 1681 0
1683 1612 1684 0
1611 1612 1683 0
1684 1612 1613 0
1684 1613 1685 0
1684 1685 1686 0
1687 1685 1614 0
1614 1685 1613 0
1676 1688 1675 0
1688 1615 1675 0
1688 1687 1615 0
1687 1614 1615 0
1615 1603 1675 0
1617 1689 1678 0
1618 1617 1678 0
1677 1618 1678 0
1677 1605 1618 0
1690 1623 1624 0
1691 1680 1692 0
1691 1690 1680 0
1690 1608 1680 0
1624 1608 1690 0
1680 1693 1692 0
1681 1693 1680 0
1681 1682 1693 0
1686 1685 1694 0
1685 1695 1694 0
1687 1695 1685 0
1687 1688 1695 0
1689 1625 1696 0
1617 1625 1689 0
1696 1626 1697 0
1625 1626 1696 0
1697 1626 1698 0
1698 1626 1628 0
1699 1630 1700 0
1700 1630 1631 0
1700 1632 1701 0
1631 1632 1700 0
1701 1633 1702 0
1632 1633 1701 0
1703 1702 1633 0
1690 1703 1633 0
1623 1690 1633 0
1690 1691 1703 0
1698 1634 1704 0
1628 1634 1698 0
1704 1635 1705 0
1634 1635 1704 0
1705 1636 1706 0
1635 1636 1705 0
1706 1637 1707 0
1636 1637 1706 0
1707 1638 1708 0
1637 1638 1707 0
1630 1708 1638 0
1699 1708 1630 0
1710 1646 1709 0
1647 1646 1710 0
1711 1647 1710 0
1648 1647 1711 0
1712 1648 1711 0
1649 1648 1712 0
1713 1649 1712 0
1650 1649 1713 0
1714 1650 1713 0
1651 1650 1714 0
1715 1651 1714 0
1652 1651 1715 0
1716 1652 1715 0
1653 1652 1716 0
1717 1653 1716 0
1654 1653 1717 0
1718 1654 1717 0
1655 1654 1718 0
1719 1655 1718 0
1656 1655 1719 0
1720 1656 1719 0
1657 1656 1720 0
1658 1657 1720 0
1721 1658 1720 0
1722 1721 1720 0
1658 1721 1659 0
1661 1660 1723 0
1724 1709 1646 0
1724 1646 1661 0
1724 1661 1723 0
1722 1725 1663 0
1722 1663 1664 0
1722 1664 1721 0
1664 1659 1721 0
1660 1665 1726 0
1723 1660 1726 0
1727 1723 1726 0
1727 1724 1723 0
1663 1725 1729 0
1663 1729 1728 0
1663 1728 1666 0
1667 1728 1730 0
1666 1728 1667 0
1667 1730 1668 0
1732 1669 1731 0
1670 1669 1732 0
1670 1732 1665 0
1665 1732 1726 0
1733 1728 1729 0
1733 1734 1728 0
1728 1734 1730 0
1734 1668 1730 0
1734 1736 1668 0
1736 1671 1668 0
1735 1671 1736 0
1671 1735 1673 0
1669 1737 1731 0
1674 1737 1669 0
1736 1739 1735 0
1735 1739 1738 0
1735 1676 1673 0
1738 1676 1735 0
1741 1678 1740 0
1679 1678 1741 0
1679 1741 1674 0
1674 1741 1737 0
1742 1682 1683 0
1743 1742 1684 0
1684 1742 1683 0
1686 1743 1684 0
1744 1738 1739 0
1745 1688 1676 0
1744 1745 1676 0
1738 1744 1676 0
1678 1746 1740 0
1689 1746 1678 0
1747 1691 1748 0
1748 1691 1692 0
1748 1693 1749 0
1692 1693 1748 0
1750 1749 1693 0
1742 1750 1693 0
1682 1742 1693 0
1742 1751 1750 0
1743 1751 1742 0
1694 1752 1751 0
1686 1694 1751 0
1743 1686 1751 0
1752 1695 1753 0
1694 1695 1752 0
1688 1753 1695 0
1745 1753 1688 0
1746 1696 1754 0
1689 1696 1746 0
1754 1697 1755 0
1696 1697 1754 0
1755 1697 1756 0
1756 1697 1698 0
1757 1699 1700 0
1758 1757 1701 0
1701 1757 1700 0
1701 1702 1760 0
1701 1760 1759 0
1701 1759 1758 0
1760 1703 1761 0
1702 1703 1760 0
1691 1761 1703 0
1747 1761 1691 0
1756 1704 1762 0
1698 1704 1756 0
1762 1705 1763 0
1704 1705 1762 0
1763 1706 1764 0
1705 1706 1763 0
1764 1707 1765 0
1706 1707 1764 0
1765 1708 1766 0
1707 1708 1765 0
1767 1766 1708 0
1757 1767 1708 0
1699 1757 1708 0
1757 1768 1767 0
1758 1768 1757 0
1758 1759 1768 0
1770 1709 1769 0
1710 1709 1770 0
1771 1710 1770 0
1711 1710 1771 0
1772 1711 1771 0
1712 1711 1772 0
1773 1712 1772 0
1713 1712 1773 0
1774 1713 1773 0
1714 1713 1774 0
1775 1714 1774 0
1715 1714 1775 0
1776 1715 1775 0
1716 1715 1776 0
1777 1716 1776 0
1717 1716 1777 0
1718 1717 1777 0
1778 1718 1777 0
1779 1778 1777 0
1719 1778 1780 0
1718 1778 1719 0
1720 1780 1781 0
1719 1780 1720 0
1720 1781 1722 0
1709 1782 1769 0
1724 1782 1709 0
1783 1778 1779 0
1784 1780 1778 0
1784 1778 1783 0
1784 1783 1785 0
1784 1781 1780 0
1786 1781 1784 0
1781 1725 1722 0
1786 1725 1781 0
1788 1726 1787 0
1727 1726 1788 0
1727 1788 1724 0
1724 1788 1782 0
1789 1784 1785 0
1789 1790 1784 0
1784 1790 1786 0
1791 1729 1725 0
1790 1791 1725 0
1786 1790 1725 0
1793 1731 1792 0
1732 1731 1793 0
1732 1793 1726 0
1726 1793 1787 0
1729 1791 1795 0
1729 1795 1794 0
1729 1794 1733 0
1734 1794 1796 0
1733 1794 1734 0
1734 1796 1736 0
1731 1797 1792 0
1737 1797 1731 0
1798 1794 1795 0
1798 1799 1794 0
1794 1799 1796 0
1800 1739 1736 0
1799 1800 1736 0
1796 1799 1736 0
1802 1740 1801 0
1741 1740 1802 0
1741 1802 1737 0
1737 1802 1797 0
1803 1744 1800 0
1800 1744 1739 0
1804 1744 1803 0
1745 1744 1804 0
1740 1805 1801 0
1746 1805 1740 0
1806 1747 1748 0
1807 1806 1749 0
1749 1806 1748 0
1808 1807 1750 0
1750 1807 1749 0
1809 1808 1751 0
1751 1808 1750 0
1810 1809 1752 0
1752 1809 1751 0
1811 1810 1753 0
1753 1810 1752 0
1804 1753 1745 0
1804 1811 1753 0
1813 1811 1804 0
1812 1811 1813 0
1814 1812 1813 0
1805 1754 1815 0
1746 1754 1805 0
1815 1755 1816 0
1754 1755 1815 0
1816 1755 1817 0
1817 1755 1756 0
1818 1759 1760 0
1819 1818 1761 0
1761 1818 1760 0
1820 1806 1821 0
1820 1819 1806 0
1819 1747 1806 0
1761 1747 1819 0
1806 1822 1821 0
1807 1822 1806 0
1807 1823 1822 0
1808 1823 1807 0
1808 1824 1823 0
1809 1824 1808 0
1809 1810 1825 0
1824 1809 1825 0
1826 1824 1825 0
1827 1810 1811 0
1825 1810 1827 0
1828 1811 1812 0
1827 1811 1828 0
1814 1828 1812 0
1829 1828 1814 0
1817 1762 1830 0
1756 1762 1817 0
1830 1763 1831 0
1762 1763 1830 0
1831 1764 1832 0
1763 1764 1831 0
1832 1765 1833 0
1764 1765 1832 0
1833 1766 1834 0
1765 1766 1833 0
1834 1767 1835 0
1766 1767 1834 0
1835 1768 1836 0
1767 1768 1835 0
1837 1836 1768 0
1818 1837 1768 0
1759 1818 1768 0
1818 1838 1837 0
1819 1838 1818 0
1819 1820 1838 0
1826 1825 1839 0
1825 1840 1839 0
1827 1840 1825 0
1827 1841 1840 0
1828 1841 1827 0
1828 1829 1841 0
1770 1769 1842 0
1771 1842 1843 0
1770 1842 1771 0
1772 1843 1844 0
1771 1843 1772 0
1846 1773 1772 0
1845 1846 1772 0
1844 1845 1772 0
1847 1773 1846 0
1774 1773 1847 0
1848 1774 1847 0
1775 1774 1848 0
1849 1775 1848 0
1776 1775 1849 0
1850 1776 1849 0
1777 1776 1850 0
1851 1777 1850 0
1779 1777 1851 0
1769 1782 1852 0
1842 1769 1852 0
1853 1842 1852 0
1853 1854 1842 0
1842 1854 1843 0
1854 1855 1843 0
1843 1855 1844 0
1855 1845 1844 0
1856 1783 1851 0
1851 1783 1779 0
1857 1783 1856 0
1785 1783 1857 0
1860 1858 1859 0
1861 1858 1860 0
1863 1787 1862 0
1788 1787 1863 0
1788 1863 1782 0
1782 1863 1852 0
1864 1789 1857 0
1857 1789 1785 0
1790 1789 1864 0
1790 1864 1859 0
1790 1859 1858 0
1861 1865 1791 0
1858 1861 1791 0
1790 1858 1791 0
1867 1792 1866 0
1793 1792 1867 0
1793 1867 1787 0
1787 1867 1862 0
1795 1865 1868 0
1791 1865 1795 0
1792 1869 1866 0
1797 1869 1792 0
1870 1798 1868 0
1868 1798 1795 0
1871 1798 1870 0
1799 1798 1871 0
1872 1799 1871 0
1800 1799 1872 0
1874 1801 1873 0
1802 1801 1874 0
1802 1874 1797 0
1797 1874 1869 0
1875 1803 1872 0
1872 1803 1800 0
1803 1875 1877 0
1804 1803 1877 0
1876 1804 1877 0
1878 1876 1877 0
1801 1879 1873 0
1805 1879 1801 0
1813 1804 1876 0
1878 1880 1814 0
1876 1878 1814 0
1813 1876 1814 0
1882 1879 1805 0
1881 1882 1805 0
1815 1881 1805 0
1883 1881 1816 0
1816 1881 1815 0
1817 1883 1816 0
1884 1820 1821 0
1885 1884 1822 0
1822 1884 1821 0
1886 1885 1823 0
1823 1885 1822 0
1887 1886 1824 0
1824 1886 1823 0
1826 1887 1824 0
1829 1880 1888 0
1814 1880 1829 0
1882 1881 1889 0
1881 1890 1889 0
1883 1890 1881 0
1830 1891 1890 0
1817 1830 1890 0
1883 1817 1890 0
1891 1831 1892 0
1830 1831 1891 0
1892 1831 1832 0
1892 1832 1893 0
1892 1893 1894 0
1895 1893 1833 0
1833 1893 1832 0
1896 1895 1834 0
1834 1895 1833 0
1897 1896 1835 0
1835 1896 1834 0
1898 1897 1836 0
1836 1897 1835 0
1899 1898 1837 0
1837 1898 1836 0
1900 1899 1838 0
1838 1899 1837 0
1901 1884 1902 0
1901 1900 1884 0
1900 1820 1884 0
1838 1820 1900 0
1884 1903 1902 0
1885 1903 1884 0
1885 1904 1903 0
1886 1904 1885 0
1886 1905 1904 0
1887 1905 1886 0
1905 1906 1907 0
1905 1887 1906 0
1887 1839 1906 0
1826 1839 1887 0
1908 1906 1840 0
1840 1906 1839 0
1909 1908 1841 0
1841 1908 1840 0
1829 1888 1910 0
1841 1829 1910 0
1909 1841 1910 0
1894 1893 1911 0
1893 1895 1912 0
1911 1893 1912 0
1913 1911 1912 0
1914 1895 1896 0
1912 1895 1914 0
1915 1896 1897 0
1914 1896 1915 0
1916 1897 1898 0
1915 1897 1916 0
1916 1898 1899 0
1917 1916 1899 0
1918 1917 1899 0
1899 1919 1918 0
1900 1919 1899 0
1900 1901 1919 0
1907 1906 1920 0
1906 1921 1920 0
1908 1921 1906 0
1908 1922 1921 0
1909 1922 1908 0
1909 1910 1922 0
1913 1912 1923 0
1912 1924 1923 0
1914 1924 1912 0
1914 1925 1924 0
1915 1925 1914 0
1915 1926 1925 0
1916 1926 1915 0
1916 1917 1926 0
1846 1845 1927 0
1929 1847 1846 0
1928 1929 1846 0
1927 1928 1846 0
1930 1847 1929 0
1848 1847 1930 0
1931 1848 1930 0
1849 1848 1931 0
1932 1849 1931 0
1850 1849 1932 0
1850 1932 1934 0
1851 1850 1934 0
1933 1851 1934 0
1935 1933 1934 0
1853 1852 1936 0
1854 1936 1937 0
1853 1936 1854 0
1855 1937 1938 0
1854 1937 1855 0
1927 1939 1940 0
1927 1845 1939 0
1845 1938 1939 0
1855 1938 1845 0
1940 1928 1927 0
1856 1851 1933 0
1942 1933 1935 0
1942 1941 1933 0
1941 1856 1933 0
1857 1856 1941 0
1860 1859 1943 0
1942 1944 1941 0
1860 1943 1861 0
1946 1862 1945 0
1863 1862 1946 0
1863 1946 1947 0
1863 1947 1936 0
1863 1936 1852 0
1947 1948 1936 0
1936 1948 1937 0
1948 1949 1937 0
1937 1949 1938 0
1949 1939 1938 0
1864 1857 1941 0
1864 1941 1944 0
1864 1944 1950 0
1859 1864 1950 0
1943 1859 1950 0
1865 1861 1951 0
1861 1952 1951 0
1861 1943 1952 0
1943 1950 1952 0
1953 1951 1952 0
1955 1866 1954 0
1867 1866 1955 0
1867 1955 1862 0
1862 1955 1945 0
1868 1865 1956 0
1956 1865 1951 0
1957 1956 1951 0
1958 1957 1951 0
1953 1958 1951 0
1958 1959 1957 0
1960 1959 1958 0
1960 1961 1959 0
1962 1961 1960 0
1962 1963 1961 0
1964 1963 1962 0
1965 1963 1964 0
1968 1966 1967 0
1954 1866 1869 0
1954 1869 1966 0
1954 1966 1968 0
1870 1868 1956 0
1956 1957 1870 0
1870 1957 1871 0
1957 1959 1969 0
1957 1969 1872 0
1957 1872 1871 0
1970 1959 1961 0
1969 1959 1970 0
1971 1961 1963 0
1970 1961 1971 0
1972 1971 1963 0
1973 1972 1963 0
1965 1973 1963 0
1973 1974 1972 0
1975 1974 1973 0
1976 1974 1975 0
1873 1977 1967 0
1874 1873 1967 0
1966 1874 1967 0
1966 1869 1874 0
1875 1872 1969 0
1969 1970 1875 0
1875 1970 1877 0
1970 1971 1978 0
1970 1978 1878 0
1970 1878 1877 0
1979 1971 1972 0
1978 1971 1979 0
1980 1972 1974 0
1979 1972 1980 0
1976 1980 1974 0
1981 1980 1976 0
1873 1982 1977 0
1879 1982 1873 0
1880 1878 1983 0
1983 1878 1978 0
1984 1978 1979 0
1983 1978 1984 0
1984 1979 1980 0
1985 1984 1980 0
1986 1985 1980 0
1980 1981 1986 0
1879 1987 1982 0
1882 1987 1879 0
1988 1888 1880 0
1988 1880 1983 0
1988 1983 1989 0
1983 1990 1989 0
1984 1990 1983 0
1984 1985 1990 0
1987 1889 1991 0
1882 1889 1987 0
1991 1890 1992 0
1889 1890 1991 0
1992 1890 1891 0
1992 1891 1993 0
1992 1993 1994 0
1995 1993 1892 0
1892 1993 1891 0
1894 1995 1892 0
1996 1901 1902 0
1997 1996 1903 0
1903 1996 1902 0
1998 1997 1904 0
1904 1997 1903 0
1999 1998 1905 0
1905 1998 1904 0
1907 1999 1905 0
1910 1988 2000 0
1888 1988 1910 0
1994 1993 2001 0
1993 2002 2001 0
1995 2002 1993 0
2002 2003 2004 0
2002 1995 2003 0
1995 1911 2003 0
1894 1911 1995 0
1913 2003 1911 0
2005 1917 1918 0
2006 2005 1919 0
1919 2005 1918 0
1996 2007 2006 0
1996 2006 1919 0
1996 1919 1901 0
2008 1996 1997 0
2007 1996 2008 0
2009 1997 1998 0
2008 1997 2009 0
2010 1998 1999 0
2009 1998 2010 0
1999 2011 2010 0
1999 2012 2011 0
1907 2012 1999 0
1920 2012 1907 0
2012 1921 2013 0
1920 1921 2012 0
2013 1922 2014 0
1921 1922 2013 0
1910 2014 1922 0
2000 2014 1910 0
2004 2003 2015 0
1923 2016 2015 0
1913 1923 2015 0
2003 1913 2015 0
2016 1924 2017 0
1923 1924 2016 0
2017 1925 2018 0
1924 1925 2017 0
2018 1926 2019 0
1925 1926 2018 0
2020 2019 1926 0
2005 2020 1926 0
1917 2005 1926 0
2005 2021 2020 0
2006 2021 2005 0
2006 2022 2021 0
2007 2022 2006 0
2007 2023 2022 0
2008 2023 2007 0
2008 2024 2023 0
2009 2024 2008 0
2009 2025 2024 0
2010 2025 2009 0
2010 2011 2025 0
1929 1928 2026 0
2028 1930 1929 0
2027 2028 1929 0
2026 2027 1929 0
2029 1930 2028 0
1931 1930 2029 0
2030 1931 2029 0
1932 1931 2030 0
2031 1932 2030 0
1934 1932 2031 0
2032 1934 2031 0
1935 1934 2032 0
1940 1939 2033 0
2026 2034 2035 0
2026 1928 2034 0
1928 2033 2034 0
1940 2033 1928 0
2035 2027 2026 0
2036 1942 2032 0
2032 1942 1935 0
1942 2036 2038 0
1944 1942 2038 0
2037 1944 2038 0
2039 2037 2038 0
2041 1945 2040 0
1946 1945 2041 0
2042 1946 2041 0
1947 1946 2042 0
2043 1947 2042 0
1948 1947 2043 0
2044 1948 2043 0
1949 1948 2044 0
1949 2044 2045 0
1949 2045 2033 0
1949 2033 1939 0
2045 2034 2033 0
1950 1944 2037 0
2046 1952 1950 0
2046 1950 2037 0
2046 2037 2039 0
2047 1952 2046 0
1953 1952 2047 0
2049 1954 2048 0
1955 1954 2049 0
1955 2049 1945 0
1945 2049 2040 0
2050 1958 2047 0
2047 1958 1953 0
2051 1958 2050 0
1960 1958 2051 0
2052 1960 2051 0
1962 1960 2052 0
2053 1962 2052 0
1964 1962 2053 0
1964 2053 2055 0
1965 1964 2055 0
2054 1965 2055 0
2056 2054 2055 0
1968 1967 2057 0
2058 2048 1954 0
2058 1954 1968 0
2058 1968 2057 0
1973 1965 2054 0
2059 1975 1973 0
2059 1973 2054 0
2059 2054 2056 0
2060 1975 2059 0
1976 1975 2060 0
1967 1977 2061 0
2057 1967 2061 0
2062 2057 2061 0
2062 2058 2057 0
1981 2060 2063 0
1976 2060 1981 0
1977 2064 2061 0
1982 2064 1977 0
2065 1985 1986 0
1981 2063 2066 0
1986 1981 2066 0
2065 1986 2066 0
1982 2067 2064 0
1987 2067 1982 0
2068 1988 1989 0
2069 2068 1990 0
1990 2068 1989 0
2070 2065 2071 0
2070 2069 2065 0
2069 1985 2065 0
1990 1985 2069 0
2065 2066 2071 0
2067 1991 2072 0
1987 1991 2067 0
2072 1991 1992 0
2072 1992 2073 0
2072 2073 2074 0
1994 2073 1992 0
2000 1988 2075 0
2075 1988 2068 0
2075 2068 2069 0
2076 2075 2069 0
2077 2076 2069 0
2069 2070 2077 0
2074 2073 2078 0
2001 2079 2078 0
1994 2001 2078 0
2073 1994 2078 0
2079 2001 2002 0
2079 2002 2080 0
2079 2080 2081 0
2004 2080 2002 0
2082 2011 2083 0
2083 2011 2012 0
2083 2013 2084 0
2012 2013 2083 0
2084 2014 2085 0
2013 2014 2084 0
2086 2085 2014 0
2075 2086 2014 0
2000 2075 2014 0
2075 2076 2086 0
2080 2088 2081 0
2087 2088 2080 0
2089 2087 2080 0
2089 2080 2004 0
2089 2004 2015 0
2090 2089 2016 0
2016 2089 2015 0
2091 2090 2017 0
2017 2090 2016 0
2092 2091 2018 0
2018 2091 2017 0
2093 2092 2019 0
2019 2092 2018 0
2019 2020 2095 0
2019 2095 2094 0
2019 2094 2093 0
2095 2021 2096 0
2020 2021 2095 0
2096 2022 2097 0
2021 2022 2096 0
2097 2023 2098 0
2022 2023 2097 0
2098 2024 2099 0
2023 2024 2098 0
2099 2025 2100 0
2024 2025 2099 0
2011 2100 2025 0
2082 2100 2011 0
2088 2087 2101 0
2087 2102 2101 0
2089 2102 2087 0
2089 2103 2102 0
2090 2103 2089 0
2090 2104 2103 0
2091 2104 2090 0
2091 2105 2104 0
2092 2105 2091 0
2092 2106 2105 0
2093 2106 2092 0
2093 2094 2106 0
2028 2027 2107 0
2029 2107 2108 0
2028 2107 2029 0
2030 2108 2109 0
2029 2108 2030 0
2031 2109 2110 0
2030 2109 2031 0
2031 2110 2032 0
2112 2034 2111 0
2035 2034 2112 0
2035 2112 2113 0
2035 2113 2107 0
2035 2107 2027 0
2113 2114 2107 0
2107 2114 2108 0
2114 2115 2108 0
2108 2115 2109 0
2115 2116 2109 0
2109 2116 2110 0
2116 2117 2036 0
2116 2036 2032 0
2116 2032 2110 0
2118 2036 2117 0
2038 2036 2118 0
2119 2038 2118 0
2039 2038 2119 0
2041 2040 2120 0
2042 2120 2121 0
2041 2120 2042 0
2123 2043 2042 0
2122 2123 2042 0
2121 2122 2042 0
2124 2043 2123 0
2044 2043 2124 0
2125 2044 2124 0
2045 2044 2125 0
2045 2125 2034 0
2034 2125 2111 0
2126 2046 2119 0
2119 2046 2039 0
2127 2046 2126 0
2047 2046 2127 0
2049 2048 2128 0
2128 2129 2120 0
2049 2128 2120 0
2040 2049 2120 0
2121 2120 2129 0
2121 2129 2130 0
2121 2130 2131 0
2131 2122 2121 0
2132 2050 2127 0
2127 2050 2047 0
2133 2050 2132 0
2051 2050 2133 0
2134 2051 2133 0
2052 2051 2134 0
2135 2052 2134 0
2053 2052 2135 0
2136 2053 2135 0
2055 2053 2136 0
2137 2055 2136 0
2056 2055 2137 0
2048 2058 2138 0
2128 2048 2138 0
2139 2128 2138 0
2139 2140 2128 0
2128 2140 2129 0
2140 2130 2129 0
2141 2059 2137 0
2137 2059 2056 0
2142 2059 2141 0
2060 2059 2142 0
2144 2061 2143 0
2062 2061 2144 0
2062 2144 2058 0
2058 2144 2138 0
2063 2142 2145 0
2060 2142 2063 0
2061 2146 2143 0
2064 2146 2061 0
2066 2145 2147 0
2063 2145 2066 0
2064 2148 2146 0
2067 2148 2064 0
2149 2070 2071 0
2066 2147 2150 0
2071 2066 2150 0
2149 2071 2150 0
2148 2072 2151 0
2067 2072 2148 0
2153 2151 2072 0
2153 2072 2074 0
2153 2074 2152 0
2153 2152 2154 0
2155 2076 2077 0
2156 2149 2157 0
2156 2155 2149 0
2155 2070 2149 0
2077 2070 2155 0
2149 2150 2157 0
2152 2074 2078 0
2154 2158 2159 0
2154 2079 2158 0
2152 2079 2154 0
2078 2079 2152 0
2081 2158 2079 0
2160 2082 2083 0
2161 2160 2084 0
2084 2160 2083 0
2162 2161 2085 0
2085 2161 2084 0
2163 2162 2086 0
2086 2162 2085 0
2155 2164 2163 0
2155 2163 2086 0
2155 2086 2076 0
2156 2164 2155 0
2165 2164 2156 0
2159 2158 2166 0
2081 2088 2167 0
2081 2167 2166 0
2081 2166 2158 0
2168 2094 2095 0
2169 2168 2096 0
2096 2168 2095 0
2170 2169 2097 0
2097 2169 2096 0
2171 2170 2098 0
2098 2170 2097 0
2172 2171 2099 0
2099 2171 2098 0
2099 2100 2174 0
2099 2174 2173 0
2099 2173 2172 0
2175 2174 2100 0
2160 2175 2100 0
2082 2160 2100 0
2160 2176 2175 0
2161 2176 2160 0
2161 2177 2176 0
2162 2177 2161 0
2162 2178 2177 0
2163 2178 2162 0
2163 2179 2178 0
2164 2179 2163 0
2164 2165 2179 0
2167 2101 2180 0
2088 2101 2167 0
2180 2102 2181 0
2101 2102 2180 0
2181 2103 2182 0
2102 2103 2181 0
2182 2104 2183 0
2103 2104 2182 0
2183 2105 2184 0
2104 2105 2183 0
2184 2106 2185 0
2105 2106 2184 0
2186 2185 2106 0
2168 2186 2106 0
2094 2168 2106 0
2168 2187 2186 0
2169 2187 2168 0
2169 2188 2187 0
2170 2188 2169 0
2170 2189 2188 0
2171 2189 2170 0
2171 2190 2189 0
2172 2190 2171 0
2172 2173 2190 0
2192 2111 2191 0
2112 2111 2192 0
2193 2112 2192 0
2113 2112 2193 0
2194 2113 2193 0
2114 2113 2194 0
2195 2114 2194 0
2115 2114 2195 0
2196 2115 2195 0
2116 2115 2196 0
2197 2116 2196 0
2117 2116 2197 0
2198 2117 2197 0
2118 2117 2198 0
2118 2198 2200 0
2119 2118 2200 0
2199 2119 2200 0
2201 2199 2200 0
2123 2122 2202 0
2204 2124 2123 0
2203 2204 2123 0
2202 2203 2123 0
2205 2124 2204 0
2125 2124 2205 0
2125 2205 2111 0
2111 2205 2191 0
2126 2119 2199 0
2201 2206 2127 0
2199 2201 2127 0
2126 2199 2127 0
2209 2207 2208 0
2209 2210 2207 0
2211 2210 2209 0
2211 2212 2210 0
2213 2212 2211 0
2214 2212 2213 0
2216 2130 2215 0
2131 2130 2216 0
2131 2216 2217 0
2131 2217 2202 0
2131 2202 2122 0
2217 2203 2202 0
2218 2132 2206 0
2206 2132 2127 0
2219 2132 2218 0
2133 2132 2219 0
2134 2133 2219 0
2134 2219 2208 0
2134 2208 2207 0
2207 2210 2134 0
2134 2210 2135 0
2210 2212 2135 0
2135 2212 2136 0
2214 2220 2137 0
2212 2214 2137 0
2136 2212 2137 0
2222 2138 2221 0
2139 2138 2222 0
2223 2139 2222 0
2140 2139 2223 0
2140 2223 2130 0
2130 2223 2215 0
2224 2141 2220 0
2220 2141 2137 0
2225 2141 2224 0
2142 2141 2225 0
2227 2143 2226 0
2144 2143 2227 0
2144 2227 2138 0
2138 2227 2221 0
2145 2225 2228 0
2142 2225 2145 0
2231 2229 2230 0
2226 2143 2146 0
2226 2146 2229 0
2226 2229 2231 0
2147 2228 2232 0
2145 2228 2147 0
2229 2234 2230 0
2233 2234 2229 0
2146 2148 2229 0
2229 2148 2233 0
2150 2232 2235 0
2147 2232 2150 0
2234 2233 2236 0
2151 2237 2236 0
2148 2151 2236 0
2233 2148 2236 0
2237 2153 2238 0
2151 2153 2237 0
2238 2153 2239 0
2239 2153 2154 0
2240 2156 2241 0
2241 2156 2157 0
2150 2241 2157 0
2235 2241 2150 0
2154 2242 2239 0
2159 2242 2154 0
2165 2240 2243 0
2156 2240 2165 0
2242 2166 2244 0
2159 2166 2242 0
2244 2166 2245 0
2245 2166 2167 0
2246 2173 2174 0
2247 2246 2175 0
2175 2246 2174 0
2248 2247 2176 0
2176 2247 2175 0
2249 2248 2177 0
2177 2248 2176 0
2250 2249 2178 0
2178 2249 2177 0
2251 2250 2179 0
2179 2250 2178 0
2165 2243 2252 0
2179 2165 2252 0
2251 2179 2252 0
2245 2180 2253 0
2167 2180 2245 0
2253 2180 2181 0
2253 2181 2254 0
2253 2254 2255 0
2256 2254 2182 0
2182 2254 2181 0
2257 2256 2183 0
2183 2256 2182 0
2258 2257 2184 0
2184 2257 2183 0
2259 2258 2185 0
2185 2258 2184 0
2260 2259 2186 0
2186 2259 2185 0
2261 2260 2187 0
2187 2260 2186 0
2187 2188 2263 0
2187 2263 2262 0
2187 2262 2261 0
2263 2189 2264 0
2188 2189 2263 0
2264 2190 2265 0
2189 2190 2264 0
2266 2265 2190 0
2246 2266 2190 0
2173 2246 2190 0
2246 2267 2266 0
2247 2267 2246 0
2247 2268 2267 0
2248 2268 2247 0
2248 2269 2268 0
2249 2269 2248 0
2249 2270 2269 0
2250 2270 2249 0
2250 2271 2270 0
2251 2271 2250 0
2251 2252 2271 0
2255 2254 2272 0
2254 2273 2272 0
2256 2273 2254 0
2256 2274 2273 0
2257 2274 2256 0
2257 2258 2275 0
2274 2257 2275 0
2276 2274 2275 0
2277 2258 2259 0
2275 2258 2277 0
2278 2259 2260 0
2277 2259 2278 0
2278 2260 2261 0
2279 2278 2261 0
2280 2279 2261 0
2261 2262 2280 0
2276 2275 2281 0
2275 2282 2281 0
2277 2282 2275 0
2277 2283 2282 0
2278 2283 2277 0
2278 2279 2283 0
2192 2191 2284 0
2286 2193 2192 0
2285 2286 2192 0
2284 2285 2192 0
2287 2193 2286 0
2194 2193 2287 0
2288 2194 2287 0
2195 2194 2288 0
2196 2195 2288 0
2289 2196 2288 0
2290 2289 2288 0
2197 2289 2291 0
2196 2289 2197 0
2198 2291 2292 0
2197 2291 2198 0
2200 2292 2293 0
2198 2292 2200 0
2200 2293 2201 0
2204 2203 2294 0
2205 2294 2295 0
2204 2294 2205 0
2284 2296 2297 0
2284 2191 2296 0
2191 2295 2296 0
2205 2295 2191 0
2297 2285 2284 0
2290 2299 2289 0
2289 2299 2298 0
2298 2291 2289 0
2300 2291 2298 0
2300 2292 2291 0
2301 2292 2300 0
2301 2293 2292 0
2302 2293 2301 0
2293 2206 2201 0
2302 2206 2293 0
2304 2208 2303 0
2209 2208 2304 0
2305 2209 2304 0
2211 2209 2305 0
2306 2211 2305 0
2213 2211 2306 0
2307 2213 2306 0
2214 2213 2307 0
2216 2215 2308 0
2217 2308 2309 0
2216 2308 2217 0
2294 2310 2311 0
2294 2203 2310 0
2203 2309 2310 0
2217 2309 2203 0
2311 2312 2294 0
2294 2312 2295 0
2312 2296 2295 0
2313 2298 2299 0
2313 2314 2298 0
2298 2314 2300 0
2314 2315 2300 0
2300 2315 2301 0
2315 2316 2301 0
2301 2316 2302 0
2316 2317 2218 0
2316 2218 2206 0
2316 2206 2302 0
2318 2218 2317 0
2219 2218 2318 0
2219 2318 2208 0
2208 2318 2303 0
2220 2214 2307 0
2220 2307 2320 0
2220 2320 2319 0
2321 2319 2320 0
2222 2221 2322 0
2324 2223 2222 0
2323 2324 2222 0
2322 2323 2222 0
2223 2324 2325 0
2223 2325 2308 0
2223 2308 2215 0
2325 2326 2308 0
2308 2326 2309 0
2326 2310 2309 0
2224 2220 2319 0
2321 2327 2225 0
2319 2321 2225 0
2224 2319 2225 0
2329 2226 2328 0
2227 2226 2329 0
2227 2329 2330 0
2227 2330 2322 0
2227 2322 2221 0
2330 2323 2322 0
2228 2225 2327 0
2228 2327 2332 0
2228 2332 2331 0
2333 2331 2332 0
2335 2230 2334 0
2231 2230 2335 0
2231 2335 2226 0
2226 2335 2328 0
2232 2228 2336 0
2336 2228 2331 0
2333 2336 2331 0
2337 2336 2333 0
2230 2338 2334 0
2234 2338 2230 0
2235 2232 2339 0
2339 2232 2336 0
2337 2339 2336 0
2340 2339 2337 0
2338 2236 2341 0
2234 2236 2338 0
2341 2237 2342 0
2236 2237 2341 0
2342 2237 2238 0
2342 2238 2343 0
2342 2343 2344 0
2239 2343 2238 0
2345 2240 2346 0
2346 2240 2241 0
2347 2346 2241 0
2339 2347 2241 0
2235 2339 2241 0
2339 2340 2347 0
2344 2343 2348 0
2239 2242 2349 0
2239 2349 2348 0
2239 2348 2343 0
2243 2345 2350 0
2240 2345 2243 0
2352 2349 2242 0
2351 2352 2242 0
2244 2351 2242 0
2245 2351 2244 0
2252 2350 2353 0
2243 2350 2252 0
2352 2351 2354 0
2253 2355 2354 0
2245 2253 2354 0
2351 2245 2354 0
2355 2253 2356 0
2356 2253 2255 0
2357 2262 2263 0
2358 2357 2264 0
2264 2357 2263 0
2359 2358 2265 0
2265 2358 2264 0
2360 2359 2266 0
2266 2359 2265 0
2266 2267 2362 0
2266 2362 2361 0
2266 2361 2360 0
2362 2268 2363 0
2267 2268 2362 0
2363 2269 2364 0
2268 2269 2363 0
2364 2270 2365 0
2269 2270 2364 0
2365 2271 2366 0
2270 2271 2365 0
2252 2366 2271 0
2353 2366 2252 0
2368 2356 2255 0
2367 2368 2255 0
2272 2367 2255 0
2369 2367 2273 0
2273 2367 2272 0
2370 2369 2274 0
2274 2369 2273 0
2276 2370 2274 0
2371 2279 2280 0
2372 2357 2373 0
2372 2371 2357 0
2371 2262 2357 0
2280 2262 2371 0
2357 2374 2373 0
2358 2374 2357 0
2358 2375 2374 0
2359 2375 2358 0
2359 2376 2375 0
2360 2376 2359 0
2360 2361 2376 0
2368 2367 2377 0
2367 2378 2377 0
2369 2378 2367 0
2369 2379 2378 0
2370 2379 2369 0
2281 2380 2379 0
2276 2281 2379 0
2370 2276 2379 0
2380 2282 2381 0
2281 2282 2380 0
2381 2283 2382 0
2282 2283 2381 0
2383 2382 2283 0
2371 2383 2283 0
2279 2371 2283 0
2371 2372 2383 0
2385 2285 2384 0
2286 2285 2385 0
2287 2286 2385 0
2386 2287 2385 0
2387 2386 2385 0
2288 2386 2388 0
2287 2386 2288 0
2288 2388 2290 0
2390 2296 2389 0
2297 2296 2390 0
2297 2390 2285 0
2285 2390 2384 0
2387 2392 2386 0
2386 2392 2391 0
2391 2388 2386 0
2393 2388 2391 0
2388 2299 2290 0
2393 2299 2388 0
2395 2303 2394 0
2304 2303 2395 0
2396 2304 2395 0
2305 2304 2396 0
2397 2305 2396 0
2306 2305 2397 0
2306 2397 2399 0
2307 2306 2399 0
2398 2307 2399 0
2400 2398 2399 0
2311 2310 2401 0
2403 2312 2311 0
2402 2403 2311 0
2401 2402 2311 0
2312 2403 2296 0
2296 2403 2389 0
2404 2391 2392 0
2404 2405 2391 0
2391 2405 2393 0
2405 2406 2313 0
2405 2313 2299 0
2405 2299 2393 0
2407 2313 2406 0
2314 2313 2407 0
2408 2314 2407 0
2315 2314 2408 0
2409 2315 2408 0
2316 2315 2409 0
2410 2316 2409 0
2317 2316 2410 0
2411 2317 2410 0
2318 2317 2411 0
2318 2411 2303 0
2303 2411 2394 0
2320 2307 2398 0
2400 2412 2321 0
2398 2400 2321 0
2320 2398 2321 0
2324 2323 2413 0
2415 2325 2324 0
2414 2415 2324 0
2413 2414 2324 0
2416 2325 2415 0
2326 2325 2416 0
2326 2416 2417 0
2326 2417 2401 0
2326 2401 2310 0
2417 2402 2401 0
2327 2321 2412 0
2327 2412 2419 0
2327 2419 2418 0
2419 2420 2418 0
2421 2420 2419 0
2422 2420 2421 0
2329 2328 2423 0
2425 2330 2329 0
2424 2425 2329 0
2423 2424 2329 0
2330 2425 2426 0
2330 2426 2413 0
2330 2413 2323 0
2426 2414 2413 0
2332 2327 2418 0
2418 2420 2427 0
2418 2427 2333 0
2418 2333 2332 0
2422 2427 2420 0
2428 2427 2422 0
2430 2334 2429 0
2335 2334 2430 0
2335 2430 2431 0
2335 2431 2423 0
2335 2423 2328 0
2431 2424 2423 0
2337 2333 2432 0
2432 2333 2427 0
2428 2432 2427 0
2433 2432 2428 0
2334 2434 2429 0
2338 2434 2334 0
2340 2337 2435 0
2435 2337 2432 0
2433 2435 2432 0
2436 2435 2433 0
2434 2341 2437 0
2338 2341 2434 0
2437 2341 2342 0
2437 2342 2438 0
2437 2438 2439 0
2344 2438 2342 0
2440 2345 2346 0
2346 2347 2442 0
2346 2442 2441 0
2346 2441 2440 0
2443 2442 2347 0
2435 2443 2347 0
2340 2435 2347 0
2435 2436 2443 0
2438 2445 2439 0
2444 2445 2438 0
2446 2444 2438 0
2446 2438 2344 0
2446 2344 2348 0
2349 2446 2348 0
