#!ascii version of
1532 3060
22.500000  -10.000000  38.000000  0
26.500000  -10.000000  37.000000  0
26.000000  -10.000000  37.500000  0
22.000000  -10.500000  37.000000  0
22.000000  -10.000000  37.500000  0
21.000000  -10.500000  37.000000  0
21.000000  -10.000000  37.500000  0
20.500000  -10.000000  37.000000  0
27.500000  -10.000000  36.000000  0
27.000000  -10.000000  36.500000  0
22.000000  -10.500000  36.000000  0
21.000000  -10.500000  36.000000  0
20.500000  -10.000000  36.000000  0
27.500000  -10.000000  35.000000  0
21.000000  -10.500000  35.000000  0
20.500000  -10.000000  35.000000  0
27.500000  -10.000000  34.000000  0
20.500000  -10.000000  34.000000  0
28.500000  -10.000000  33.000000  0
28.000000  -10.000000  33.500000  0
20.500000  -10.000000  33.000000  0
29.500000  -10.000000  32.000000  0
29.000000  -10.000000  32.500000  0
20.500000  -10.000000  32.000000  0
29.500000  -10.000000  31.000000  0
20.500000  -10.000000  31.000000  0
29.500000  -10.000000  30.000000  0
20.500000  -10.000000  30.000000  0
29.500000  -10.000000  29.000000  0
20.500000  -10.000000  29.000000  0
29.500000  -10.000000  28.000000  0
20.500000  -10.000000  28.000000  0
29.500000  -10.000000  27.000000  0
20.500000  -10.000000  27.000000  0
29.000000  -10.000000  26.500000  0
28.000000  -10.000000  26.500000  0
27.000000  -10.000000  26.500000  0
26.000000  -10.000000  26.500000  0
25.000000  -10.000000  26.500000  0
24.000000  -10.000000  26.500000  0
23.000000  -10.000000  26.500000  0
22.000000  -10.000000  26.500000  0
21.000000  -10.000000  26.500000  0
25.500000  -9.000000  40.000000  0
25.000000  -9.000000  40.500000  0
24.000000  -9.000000  40.500000  0
23.000000  -9.000000  40.500000  0
22.500000  -9.000000  40.000000  0
25.500000  -9.000000  39.000000  0
22.500000  -9.000000  39.000000  0
25.500000  -9.000000  38.000000  0
22.500000  -9.000000  38.000000  0
26.500000  -9.000000  37.000000  0
26.000000  -9.000000  37.500000  0
22.000000  -9.000000  37.500000  0
21.000000  -9.000000  37.500000  0
20.500000  -9.000000  37.000000  0
27.500000  -9.000000  36.000000  0
27.000000  -9.000000  36.500000  0
20.500000  -9.000000  36.000000  0
27.500000  -9.000000  35.000000  0
20.500000  -9.000000  35.000000  0
27.500000  -9.000000  34.000000  0
20.500000  -9.000000  34.000000  0
29.000000  -9.500000  33.000000  0
29.500000  -9.000000  33.000000  0
29.000000  -9.000000  33.500000  0
28.000000  -9.000000  33.500000  0
20.500000  -9.000000  33.000000  0
29.500000  -9.000000  32.000000  0
20.500000  -9.000000  32.000000  0
29.500000  -9.000000  31.000000  0
20.500000  -9.000000  31.000000  0
29.500000  -9.000000  30.000000  0
20.500000  -9.000000  30.000000  0
29.500000  -9.000000  29.000000  0
20.500000  -9.000000  29.000000  0
29.500000  -9.000000  28.000000  0
20.500000  -9.000000  28.000000  0
29.000000  -9.500000  27.000000  0
29.000000  -9.000000  27.500000  0
28.500000  -9.000000  27.000000  0
20.500000  -9.000000  27.000000  0
28.000000  -9.000000  26.500000  0
27.000000  -9.000000  26.500000  0
26.000000  -9.000000  26.500000  0
25.000000  -9.000000  26.500000  0
24.000000  -9.000000  26.500000  0
23.000000  -9.500000  26.000000  0
23.500000  -9.000000  26.000000  0
22.000000  -9.500000  26.000000  0
21.000000  -9.500000  26.000000  0
20.500000  -9.000000  26.000000  0
23.000000  -9.000000  25.500000  0
22.000000  -9.000000  25.500000  0
21.000000  -9.000000  25.500000  0
24.000000  -8.500000  41.000000  0
24.500000  -8.000000  41.000000  0
24.000000  -8.000000  41.500000  0
23.000000  -8.500000  41.000000  0
23.000000  -8.000000  41.500000  0
22.000000  -8.500000  41.000000  0
22.000000  -8.000000  41.500000  0
21.500000  -8.000000  41.000000  0
25.000000  -8.500000  40.000000  0
24.500000  -8.000000  40.000000  0
22.000000  -8.500000  40.000000  0
21.500000  -8.000000  40.000000  0
25.500000  -8.000000  39.000000  0
25.000000  -8.000000  39.500000  0
22.000000  -8.500000  39.000000  0
21.000000  -8.500000  39.000000  0
21.000000  -8.000000  39.500000  0
20.500000  -8.000000  39.000000  0
25.500000  -8.000000  38.000000  0
22.000000  -8.500000  38.000000  0
21.000000  -8.500000  38.000000  0
20.500000  -8.000000  38.000000  0
26.000000  -8.500000  37.000000  0
25.500000  -8.000000  37.000000  0
20.500000  -8.000000  37.000000  0
27.500000  -8.000000  36.000000  0
27.000000  -8.000000  36.500000  0
26.000000  -8.000000  36.500000  0
20.500000  -8.000000  36.000000  0
27.500000  -8.000000  35.000000  0
20.500000  -8.000000  35.000000  0
27.500000  -8.000000  34.000000  0
20.500000  -8.000000  34.000000  0
29.500000  -8.000000  33.000000  0
29.000000  -8.000000  33.500000  0
28.000000  -8.000000  33.500000  0
20.500000  -8.000000  33.000000  0
29.500000  -8.000000  32.000000  0
20.500000  -8.000000  32.000000  0
29.500000  -8.000000  31.000000  0
20.500000  -8.000000  31.000000  0
29.500000  -8.000000  30.000000  0
20.500000  -8.000000  30.000000  0
29.500000  -8.000000  29.000000  0
20.500000  -8.000000  29.000000  0
29.500000  -8.000000  28.000000  0
20.500000  -8.000000  28.000000  0
29.000000  -8.000000  27.500000  0
28.500000  -8.000000  27.000000  0
20.500000  -8.000000  27.000000  0
28.000000  -8.000000  26.500000  0
27.000000  -8.000000  26.500000  0
26.000000  -8.000000  26.500000  0
25.000000  -8.000000  26.500000  0
24.000000  -8.000000  26.500000  0
23.500000  -8.000000  26.000000  0
20.500000  -8.000000  26.000000  0
23.000000  -8.000000  25.500000  0
22.000000  -8.000000  25.500000  0
21.000000  -8.000000  25.500000  0
24.500000  -7.000000  41.000000  0
24.000000  -7.000000  41.500000  0
23.000000  -7.000000  41.500000  0
22.000000  -7.000000  41.500000  0
21.500000  -7.000000  41.000000  0
24.500000  -7.000000  40.000000  0
21.500000  -7.000000  40.000000  0
25.500000  -7.000000  39.000000  0
25.000000  -7.000000  39.500000  0
21.000000  -7.000000  39.500000  0
20.500000  -7.000000  39.000000  0
25.500000  -7.000000  38.000000  0
20.500000  -7.000000  38.000000  0
25.500000  -7.000000  37.000000  0
20.500000  -7.000000  37.000000  0
27.000000  -7.500000  36.000000  0
26.000000  -7.500000  36.000000  0
25.500000  -7.000000  36.000000  0
20.500000  -7.000000  36.000000  0
27.500000  -7.000000  35.000000  0
27.000000  -7.000000  35.500000  0
26.000000  -7.000000  35.500000  0
20.500000  -7.000000  35.000000  0
27.500000  -7.000000  34.000000  0
20.000000  -7.500000  34.000000  0
20.000000  -7.000000  34.500000  0
19.000000  -7.500000  34.000000  0
19.000000  -7.000000  34.500000  0
18.500000  -7.000000  34.000000  0
29.000000  -7.500000  33.000000  0
28.000000  -7.500000  33.000000  0
27.500000  -7.000000  33.000000  0
20.000000  -7.500000  33.000000  0
19.000000  -7.500000  33.000000  0
18.500000  -7.000000  33.000000  0
29.000000  -7.500000  32.000000  0
28.500000  -7.000000  32.000000  0
28.000000  -7.000000  32.500000  0
20.000000  -7.500000  32.000000  0
19.000000  -7.500000  32.000000  0
18.500000  -7.000000  32.000000  0
29.500000  -7.000000  31.000000  0
29.000000  -7.000000  31.500000  0
20.000000  -7.500000  31.000000  0
19.000000  -7.500000  31.000000  0
18.500000  -7.000000  31.000000  0
29.500000  -7.000000  30.000000  0
20.000000  -7.500000  30.000000  0
19.000000  -7.500000  30.000000  0
18.500000  -7.000000  30.000000  0
29.500000  -7.000000  29.000000  0
20.000000  -7.500000  29.000000  0
19.000000  -7.500000  29.000000  0
18.500000  -7.000000  29.000000  0
29.000000  -7.500000  28.000000  0
29.000000  -7.000000  28.500000  0
28.500000  -7.000000  28.000000  0
20.000000  -7.500000  28.000000  0
19.000000  -7.500000  28.000000  0
18.500000  -7.000000  28.000000  0
28.000000  -7.500000  27.000000  0
28.000000  -7.000000  27.500000  0
27.500000  -7.000000  27.000000  0
20.500000  -7.000000  27.000000  0
20.000000  -7.000000  27.500000  0
19.000000  -7.000000  27.500000  0
27.000000  -7.000000  26.500000  0
26.000000  -7.000000  26.500000  0
25.000000  -7.000000  26.500000  0
24.000000  -7.000000  26.500000  0
23.500000  -7.000000  26.000000  0
20.500000  -7.000000  26.000000  0
23.000000  -7.000000  25.500000  0
22.000000  -7.000000  25.500000  0
21.000000  -7.000000  25.500000  0
24.000000  -6.500000  41.000000  0
23.500000  -6.000000  41.000000  0
23.000000  -6.000000  41.500000  0
22.000000  -6.000000  41.500000  0
21.500000  -6.000000  41.000000  0
24.000000  -6.500000  40.000000  0
23.500000  -6.000000  40.000000  0
21.500000  -6.000000  40.000000  0
25.000000  -6.500000  39.000000  0
24.000000  -6.500000  39.000000  0
23.500000  -6.000000  39.000000  0
21.000000  -6.000000  39.500000  0
20.500000  -6.000000  39.000000  0
25.000000  -6.500000  38.000000  0
24.000000  -6.500000  38.000000  0
23.500000  -6.000000  38.000000  0
20.500000  -6.000000  38.000000  0
25.500000  -6.000000  37.000000  0
25.000000  -6.000000  37.500000  0
24.000000  -6.000000  37.500000  0
20.500000  -6.000000  37.000000  0
25.500000  -6.000000  36.000000  0
20.000000  -6.500000  36.000000  0
20.000000  -6.000000  36.500000  0
19.000000  -6.500000  36.000000  0
19.000000  -6.000000  36.500000  0
18.500000  -6.000000  36.000000  0
27.500000  -6.000000  35.000000  0
27.000000  -6.000000  35.500000  0
26.000000  -6.000000  35.500000  0
20.000000  -6.500000  35.000000  0
19.000000  -6.500000  35.000000  0
18.500000  -6.000000  35.000000  0
27.500000  -6.000000  34.000000  0
18.500000  -6.000000  34.000000  0
27.500000  -6.000000  33.000000  0
18.500000  -6.000000  33.000000  0
28.500000  -6.000000  32.000000  0
28.000000  -6.000000  32.500000  0
18.500000  -6.000000  32.000000  0
29.500000  -6.000000  31.000000  0
29.000000  -6.000000  31.500000  0
18.500000  -6.000000  31.000000  0
29.500000  -6.000000  30.000000  0
18.500000  -6.000000  30.000000  0
29.500000  -6.000000  29.000000  0
18.500000  -6.000000  29.000000  0
29.000000  -6.000000  28.500000  0
28.500000  -6.000000  28.000000  0
18.500000  -6.000000  28.000000  0
28.000000  -6.000000  27.500000  0
27.500000  -6.000000  27.000000  0
20.000000  -6.500000  27.000000  0
19.000000  -6.500000  27.000000  0
18.500000  -6.000000  27.000000  0
27.000000  -6.000000  26.500000  0
26.000000  -6.000000  26.500000  0
25.000000  -6.000000  26.500000  0
24.000000  -6.000000  26.500000  0
23.000000  -6.500000  26.000000  0
23.000000  -6.000000  26.500000  0
22.000000  -6.500000  26.000000  0
22.000000  -6.000000  26.500000  0
21.000000  -6.500000  26.000000  0
21.000000  -6.000000  26.500000  0
20.000000  -6.000000  26.500000  0
19.000000  -6.000000  26.500000  0
23.500000  -5.000000  41.000000  0
23.000000  -5.000000  41.500000  0
22.000000  -5.000000  41.500000  0
21.500000  -5.000000  41.000000  0
23.500000  -5.000000  40.000000  0
21.500000  -5.000000  40.000000  0
23.500000  -5.000000  39.000000  0
21.000000  -5.000000  39.500000  0
20.500000  -5.000000  39.000000  0
23.500000  -5.000000  38.000000  0
20.500000  -5.000000  38.000000  0
25.500000  -5.000000  37.000000  0
25.000000  -5.000000  37.500000  0
24.000000  -5.000000  37.500000  0
20.500000  -5.000000  37.000000  0
25.500000  -5.000000  36.000000  0
20.000000  -5.000000  36.500000  0
19.000000  -5.000000  36.500000  0
18.500000  -5.000000  36.000000  0
27.500000  -5.000000  35.000000  0
27.000000  -5.000000  35.500000  0
26.000000  -5.000000  35.500000  0
18.500000  -5.000000  35.000000  0
27.500000  -5.000000  34.000000  0
18.000000  -5.500000  34.000000  0
18.000000  -5.000000  34.500000  0
17.000000  -5.500000  34.000000  0
17.000000  -5.000000  34.500000  0
16.500000  -5.000000  34.000000  0
27.500000  -5.000000  33.000000  0
18.000000  -5.500000  33.000000  0
17.000000  -5.500000  33.000000  0
16.500000  -5.000000  33.000000  0
28.000000  -5.500000  32.000000  0
27.500000  -5.000000  32.000000  0
18.000000  -5.500000  32.000000  0
17.000000  -5.500000  32.000000  0
16.500000  -5.000000  32.000000  0
29.000000  -5.500000  31.000000  0
28.500000  -5.000000  31.000000  0
28.000000  -5.000000  31.500000  0
18.000000  -5.500000  31.000000  0
17.000000  -5.500000  31.000000  0
16.500000  -5.000000  31.000000  0
29.500000  -5.000000  30.000000  0
29.000000  -5.000000  30.500000  0
18.000000  -5.500000  30.000000  0
17.000000  -5.500000  30.000000  0
16.500000  -5.000000  30.000000  0
29.500000  -5.000000  29.000000  0
18.000000  -5.500000  29.000000  0
17.000000  -5.500000  29.000000  0
16.500000  -5.000000  29.000000  0
29.000000  -5.000000  28.500000  0
28.500000  -5.000000  28.000000  0
18.000000  -5.500000  28.000000  0
17.000000  -5.500000  28.000000  0
16.500000  -5.000000  28.000000  0
28.000000  -5.000000  27.500000  0
27.500000  -5.000000  27.000000  0
18.000000  -5.500000  27.000000  0
17.000000  -5.500000  27.000000  0
16.500000  -5.000000  27.000000  0
27.000000  -5.000000  26.500000  0
26.000000  -5.000000  26.500000  0
25.000000  -5.000000  26.500000  0
24.000000  -5.000000  26.500000  0
23.000000  -5.000000  26.500000  0
22.000000  -5.000000  26.500000  0
21.000000  -5.000000  26.500000  0
20.000000  -5.000000  26.500000  0
19.000000  -5.000000  26.500000  0
18.000000  -5.000000  26.500000  0
17.000000  -5.000000  26.500000  0
23.500000  -4.000000  41.000000  0
23.000000  -4.000000  41.500000  0
22.000000  -4.000000  41.500000  0
21.500000  -4.000000  41.000000  0
23.500000  -4.000000  40.000000  0
21.500000  -4.000000  40.000000  0
23.500000  -4.000000  39.000000  0
21.000000  -4.000000  39.500000  0
20.500000  -4.000000  39.000000  0
23.500000  -4.000000  38.000000  0
20.000000  -4.500000  38.000000  0
20.000000  -4.000000  38.500000  0
19.000000  -4.500000  38.000000  0
19.000000  -4.000000  38.500000  0
18.000000  -4.500000  38.000000  0
18.000000  -4.000000  38.500000  0
17.000000  -4.500000  38.000000  0
17.000000  -4.000000  38.500000  0
16.500000  -4.000000  38.000000  0
25.000000  -4.500000  37.000000  0
24.000000  -4.500000  37.000000  0
23.500000  -4.000000  37.000000  0
20.000000  -4.500000  37.000000  0
19.000000  -4.500000  37.000000  0
18.000000  -4.500000  37.000000  0
17.000000  -4.500000  37.000000  0
16.500000  -4.000000  37.000000  0
25.500000  -4.000000  36.000000  0
25.000000  -4.000000  36.500000  0
24.000000  -4.000000  36.500000  0
18.000000  -4.500000  36.000000  0
17.000000  -4.500000  36.000000  0
16.500000  -4.000000  36.000000  0
27.000000  -4.500000  35.000000  0
26.000000  -4.500000  35.000000  0
25.500000  -4.000000  35.000000  0
18.000000  -4.500000  35.000000  0
17.000000  -4.500000  35.000000  0
16.500000  -4.000000  35.000000  0
27.500000  -4.000000  34.000000  0
27.000000  -4.000000  34.500000  0
26.000000  -4.000000  34.500000  0
16.500000  -4.000000  34.000000  0
27.500000  -4.000000  33.000000  0
16.500000  -4.000000  33.000000  0
27.500000  -4.000000  32.000000  0
16.500000  -4.000000  32.000000  0
28.000000  -4.500000  31.000000  0
27.500000  -4.000000  31.000000  0
16.500000  -4.000000  31.000000  0
29.000000  -4.500000  30.000000  0
28.000000  -4.500000  30.000000  0
27.500000  -4.000000  30.000000  0
16.500000  -4.000000  30.000000  0
29.000000  -4.500000  29.000000  0
28.500000  -4.000000  29.000000  0
28.000000  -4.000000  29.500000  0
16.500000  -4.000000  29.000000  0
28.500000  -4.000000  28.000000  0
16.500000  -4.000000  28.000000  0
28.000000  -4.500000  27.000000  0
28.500000  -4.000000  27.000000  0
16.500000  -4.000000  27.000000  0
28.000000  -4.000000  26.500000  0
27.000000  -4.000000  26.500000  0
26.000000  -4.000000  26.500000  0
25.000000  -4.000000  26.500000  0
24.000000  -4.000000  26.500000  0
23.000000  -4.000000  26.500000  0
22.000000  -4.000000  26.500000  0
21.000000  -4.000000  26.500000  0
20.000000  -4.000000  26.500000  0
19.000000  -4.000000  26.500000  0
18.000000  -4.000000  26.500000  0
17.000000  -4.000000  26.500000  0
23.000000  -3.500000  41.000000  0
22.000000  -3.500000  41.000000  0
23.500000  -3.000000  40.000000  0
23.000000  -3.000000  40.500000  0
22.000000  -3.000000  40.500000  0
21.500000  -3.000000  40.000000  0
23.500000  -3.000000  39.000000  0
21.000000  -3.000000  39.500000  0
20.500000  -3.000000  39.000000  0
23.500000  -3.000000  38.000000  0
20.000000  -3.000000  38.500000  0
19.000000  -3.000000  38.500000  0
18.000000  -3.000000  38.500000  0
17.000000  -3.000000  38.500000  0
16.500000  -3.000000  38.000000  0
23.500000  -3.000000  37.000000  0
16.500000  -3.000000  37.000000  0
25.500000  -3.000000  36.000000  0
25.000000  -3.000000  36.500000  0
24.000000  -3.000000  36.500000  0
16.500000  -3.000000  36.000000  0
25.500000  -3.000000  35.000000  0
16.500000  -3.000000  35.000000  0
27.000000  -3.500000  34.000000  0
26.500000  -3.000000  34.000000  0
26.000000  -3.000000  34.500000  0
16.000000  -3.500000  34.000000  0
16.000000  -3.000000  34.500000  0
15.000000  -3.500000  34.000000  0
15.000000  -3.000000  34.500000  0
14.500000  -3.000000  34.000000  0
27.000000  -3.500000  33.000000  0
26.500000  -3.000000  33.000000  0
16.000000  -3.500000  33.000000  0
15.000000  -3.500000  33.000000  0
14.500000  -3.000000  33.000000  0
27.500000  -3.000000  32.000000  0
27.000000  -3.000000  32.500000  0
16.000000  -3.500000  32.000000  0
15.000000  -3.500000  32.000000  0
14.500000  -3.000000  32.000000  0
27.500000  -3.000000  31.000000  0
16.000000  -3.500000  31.000000  0
15.000000  -3.500000  31.000000  0
14.500000  -3.000000  31.000000  0
27.500000  -3.000000  30.000000  0
16.000000  -3.500000  30.000000  0
15.000000  -3.500000  30.000000  0
14.500000  -3.000000  30.000000  0
28.000000  -3.500000  29.000000  0
27.500000  -3.000000  29.000000  0
16.000000  -3.500000  29.000000  0
15.000000  -3.500000  29.000000  0
14.500000  -3.000000  29.000000  0
28.000000  -3.500000  28.000000  0
27.500000  -3.000000  28.000000  0
16.000000  -3.500000  28.000000  0
15.000000  -3.500000  28.000000  0
14.500000  -3.000000  28.000000  0
28.500000  -3.000000  27.000000  0
28.000000  -3.000000  27.500000  0
16.500000  -3.000000  27.000000  0
16.000000  -3.000000  27.500000  0
15.000000  -3.000000  27.500000  0
28.000000  -3.000000  26.500000  0
27.000000  -3.000000  26.500000  0
26.000000  -3.000000  26.500000  0
25.000000  -3.000000  26.500000  0
24.000000  -3.000000  26.500000  0
23.000000  -3.000000  26.500000  0
22.000000  -3.000000  26.500000  0
21.000000  -3.000000  26.500000  0
20.000000  -3.000000  26.500000  0
19.000000  -3.000000  26.500000  0
18.000000  -3.000000  26.500000  0
17.000000  -3.000000  26.500000  0
23.000000  -2.500000  40.000000  0
22.500000  -2.000000  40.000000  0
22.000000  -2.000000  40.500000  0
21.500000  -2.000000  40.000000  0
23.500000  -2.000000  39.000000  0
23.000000  -2.000000  39.500000  0
21.000000  -2.000000  39.500000  0
20.500000  -2.000000  39.000000  0
23.500000  -2.000000  38.000000  0
20.000000  -2.000000  38.500000  0
19.000000  -2.000000  38.500000  0
18.000000  -2.000000  38.500000  0
17.000000  -2.000000  38.500000  0
16.500000  -2.000000  38.000000  0
23.500000  -2.000000  37.000000  0
16.500000  -2.000000  37.000000  0
25.500000  -2.000000  36.000000  0
25.000000  -2.000000  36.500000  0
24.000000  -2.000000  36.500000  0
16.500000  -2.000000  36.000000  0
25.500000  -2.000000  35.000000  0
16.500000  -2.000000  35.000000  0
26.500000  -2.000000  34.000000  0
26.000000  -2.000000  34.500000  0
16.000000  -2.000000  34.500000  0
15.000000  -2.000000  34.500000  0
14.500000  -2.000000  34.000000  0
26.500000  -2.000000  33.000000  0
14.500000  -2.000000  33.000000  0
27.500000  -2.000000  32.000000  0
27.000000  -2.000000  32.500000  0
14.500000  -2.000000  32.000000  0
27.500000  -2.000000  31.000000  0
14.500000  -2.000000  31.000000  0
27.500000  -2.000000  30.000000  0
14.500000  -2.000000  30.000000  0
27.500000  -2.000000  29.000000  0
14.500000  -2.000000  29.000000  0
27.500000  -2.000000  28.000000  0
14.500000  -2.000000  28.000000  0
28.000000  -2.500000  27.000000  0
27.500000  -2.000000  27.000000  0
16.500000  -2.000000  27.000000  0
16.000000  -2.000000  27.500000  0
15.000000  -2.000000  27.500000  0
27.000000  -2.000000  26.500000  0
26.000000  -2.000000  26.500000  0
25.000000  -2.000000  26.500000  0
24.000000  -2.000000  26.500000  0
23.000000  -2.000000  26.500000  0
22.000000  -2.000000  26.500000  0
21.000000  -2.000000  26.500000  0
20.000000  -2.000000  26.500000  0
19.000000  -2.000000  26.500000  0
18.000000  -2.000000  26.500000  0
17.000000  -2.000000  26.500000  0
22.000000  -1.500000  40.000000  0
23.500000  -1.000000  39.000000  0
23.000000  -1.000000  39.500000  0
22.000000  -1.000000  39.500000  0
21.000000  -1.000000  39.500000  0
20.500000  -1.000000  39.000000  0
23.500000  -1.000000  38.000000  0
20.000000  -1.000000  38.500000  0
19.000000  -1.000000  38.500000  0
18.000000  -1.000000  38.500000  0
17.000000  -1.000000  38.500000  0
16.500000  -1.000000  38.000000  0
23.500000  -1.000000  37.000000  0
16.500000  -1.000000  37.000000  0
25.000000  -1.500000  36.000000  0
24.000000  -1.500000  36.000000  0
23.500000  -1.000000  36.000000  0
16.500000  -1.000000  36.000000  0
25.000000  -1.500000  35.000000  0
24.000000  -1.500000  35.000000  0
23.500000  -1.000000  35.000000  0
16.500000  -1.000000  35.000000  0
26.000000  -1.500000  34.000000  0
25.500000  -1.000000  34.000000  0
25.000000  -1.000000  34.500000  0
24.000000  -1.000000  34.500000  0
16.000000  -1.000000  34.500000  0
15.000000  -1.000000  34.500000  0
14.500000  -1.000000  34.000000  0
26.000000  -1.500000  33.000000  0
25.500000  -1.000000  33.000000  0
14.500000  -1.000000  33.000000  0
27.000000  -1.500000  32.000000  0
26.000000  -1.500000  32.000000  0
25.500000  -1.000000  32.000000  0
14.500000  -1.000000  32.000000  0
27.500000  -1.000000  31.000000  0
27.000000  -1.000000  31.500000  0
26.000000  -1.000000  31.500000  0
14.000000  -1.500000  31.000000  0
14.000000  -1.000000  31.500000  0
13.000000  -1.500000  31.000000  0
13.000000  -1.000000  31.500000  0
12.500000  -1.000000  31.000000  0
27.500000  -1.000000  30.000000  0
14.000000  -1.500000  30.000000  0
13.000000  -1.500000  30.000000  0
12.500000  -1.000000  30.000000  0
27.500000  -1.000000  29.000000  0
14.000000  -1.500000  29.000000  0
13.000000  -1.500000  29.000000  0
12.500000  -1.000000  29.000000  0
27.500000  -1.000000  28.000000  0
14.000000  -1.500000  28.000000  0
13.000000  -1.500000  28.000000  0
12.500000  -1.000000  28.000000  0
27.500000  -1.000000  27.000000  0
16.000000  -1.500000  27.000000  0
15.000000  -1.500000  27.000000  0
14.000000  -1.500000  27.000000  0
13.000000  -1.500000  27.000000  0
12.500000  -1.000000  27.000000  0
27.000000  -1.000000  26.500000  0
26.000000  -1.000000  26.500000  0
25.000000  -1.000000  26.500000  0
24.000000  -1.000000  26.500000  0
23.000000  -1.000000  26.500000  0
22.000000  -1.000000  26.500000  0
21.000000  -1.000000  26.500000  0
20.000000  -1.000000  26.500000  0
19.000000  -1.000000  26.500000  0
18.000000  -1.000000  26.500000  0
17.000000  -1.000000  26.500000  0
16.000000  -1.000000  26.500000  0
15.000000  -1.000000  26.500000  0
14.000000  -1.000000  26.500000  0
13.000000  -1.000000  26.500000  0
22.000000  -0.500000  40.000000  0
22.500000  0.000000  40.000000  0
22.000000  0.000000  40.500000  0
21.500000  0.000000  40.000000  0
23.000000  -0.500000  39.000000  0
22.500000  0.000000  39.000000  0
21.000000  0.000000  39.500000  0
20.500000  0.000000  39.000000  0
23.000000  -0.500000  38.000000  0
22.500000  0.000000  38.000000  0
20.000000  0.000000  38.500000  0
19.000000  0.000000  38.500000  0
18.000000  0.000000  38.500000  0
17.000000  0.000000  38.500000  0
16.500000  0.000000  38.000000  0
23.000000  -0.500000  37.000000  0
22.500000  0.000000  37.000000  0
16.000000  -0.500000  37.000000  0
16.000000  0.000000  37.500000  0
15.500000  0.000000  37.000000  0
23.500000  0.000000  36.000000  0
23.000000  0.000000  36.500000  0
16.000000  -0.500000  36.000000  0
15.500000  0.000000  36.000000  0
24.000000  -0.500000  35.000000  0
24.500000  0.000000  35.000000  0
24.000000  0.000000  35.500000  0
16.000000  -0.500000  35.000000  0
15.500000  0.000000  35.000000  0
25.500000  0.000000  34.000000  0
25.000000  0.000000  34.500000  0
15.000000  0.000000  34.500000  0
14.500000  0.000000  34.000000  0
25.500000  0.000000  33.000000  0
14.000000  -0.500000  33.000000  0
14.000000  0.000000  33.500000  0
13.000000  -0.500000  33.000000  0
13.000000  0.000000  33.500000  0
12.500000  0.000000  33.000000  0
25.500000  0.000000  32.000000  0
14.000000  -0.500000  32.000000  0
13.000000  -0.500000  32.000000  0
12.500000  0.000000  32.000000  0
27.000000  -0.500000  31.000000  0
26.500000  0.000000  31.000000  0
26.000000  0.000000  31.500000  0
12.500000  0.000000  31.000000  0
27.000000  -0.500000  30.000000  0
26.500000  0.000000  30.000000  0
12.500000  0.000000  30.000000  0
27.000000  -0.500000  29.000000  0
26.500000  0.000000  29.000000  0
12.500000  0.000000  29.000000  0
27.000000  -0.500000  28.000000  0
26.500000  0.000000  28.000000  0
12.500000  0.000000  28.000000  0
27.000000  -0.500000  27.000000  0
26.000000  -0.500000  27.000000  0
26.000000  0.000000  27.500000  0
25.500000  0.000000  27.000000  0
12.500000  0.000000  27.000000  0
25.000000  0.000000  26.500000  0
24.000000  0.000000  26.500000  0
23.000000  0.000000  26.500000  0
22.000000  0.000000  26.500000  0
21.000000  0.000000  26.500000  0
20.000000  0.000000  26.500000  0
19.000000  0.000000  26.500000  0
18.000000  0.000000  26.500000  0
17.000000  0.000000  26.500000  0
16.000000  0.000000  26.500000  0
15.000000  0.000000  26.500000  0
14.000000  0.000000  26.500000  0
13.000000  0.000000  26.500000  0
22.500000  1.000000  40.000000  0
22.000000  1.000000  40.500000  0
21.500000  1.000000  40.000000  0
22.500000  1.000000  39.000000  0
21.000000  1.000000  39.500000  0
20.500000  1.000000  39.000000  0
22.500000  1.000000  38.000000  0
20.000000  1.000000  38.500000  0
19.000000  1.000000  38.500000  0
18.000000  1.000000  38.500000  0
17.000000  1.000000  38.500000  0
16.500000  1.000000  38.000000  0
22.500000  1.000000  37.000000  0
16.000000  1.000000  37.500000  0
15.500000  1.000000  37.000000  0
23.500000  1.000000  36.000000  0
23.000000  1.000000  36.500000  0
15.500000  1.000000  36.000000  0
24.000000  0.500000  35.000000  0
23.500000  1.000000  35.000000  0
15.000000  0.500000  35.000000  0
15.000000  1.000000  35.500000  0
14.500000  1.000000  35.000000  0
25.000000  0.500000  34.000000  0
24.000000  0.500000  34.000000  0
23.500000  1.000000  34.000000  0
14.500000  1.000000  34.000000  0
25.000000  0.500000  33.000000  0
24.000000  0.500000  33.000000  0
23.500000  1.000000  33.000000  0
14.000000  1.000000  33.500000  0
13.000000  1.000000  33.500000  0
12.500000  1.000000  33.000000  0
25.000000  0.500000  32.000000  0
24.000000  0.500000  32.000000  0
23.500000  1.000000  32.000000  0
12.500000  1.000000  32.000000  0
26.000000  0.500000  31.000000  0
25.000000  0.500000  31.000000  0
24.000000  0.500000  31.000000  0
23.500000  1.000000  31.000000  0
12.500000  1.000000  31.000000  0
26.500000  1.000000  30.000000  0
26.000000  1.000000  30.500000  0
25.000000  1.000000  30.500000  0
24.000000  1.000000  30.500000  0
12.500000  1.000000  30.000000  0
26.500000  1.000000  29.000000  0
12.500000  1.000000  29.000000  0
26.500000  1.000000  28.000000  0
12.500000  1.000000  28.000000  0
26.000000  1.000000  27.500000  0
25.000000  0.500000  27.000000  0
25.000000  1.000000  27.500000  0
24.000000  0.500000  27.000000  0
24.000000  1.000000  27.500000  0
23.000000  0.500000  27.000000  0
23.000000  1.000000  27.500000  0
22.000000  0.500000  27.000000  0
22.000000  1.000000  27.500000  0
21.000000  0.500000  27.000000  0
21.000000  1.000000  27.500000  0
20.000000  0.500000  27.000000  0
20.000000  1.000000  27.500000  0
19.000000  0.500000  27.000000  0
19.000000  1.000000  27.500000  0
18.000000  0.500000  27.000000  0
18.000000  1.000000  27.500000  0
17.000000  0.500000  27.000000  0
17.000000  1.000000  27.500000  0
16.000000  0.500000  27.000000  0
16.000000  1.000000  27.500000  0
15.000000  0.500000  27.000000  0
15.000000  1.000000  27.500000  0
14.000000  0.500000  27.000000  0
14.000000  1.000000  27.500000  0
13.000000  0.500000  27.000000  0
13.000000  1.000000  27.500000  0
22.000000  1.500000  40.000000  0
22.000000  1.500000  39.000000  0
21.500000  2.000000  39.000000  0
21.000000  2.000000  39.500000  0
20.000000  1.500000  39.000000  0
20.000000  2.000000  39.500000  0
19.000000  1.500000  39.000000  0
19.000000  2.000000  39.500000  0
18.000000  1.500000  39.000000  0
18.000000  2.000000  39.500000  0
17.500000  2.000000  39.000000  0
22.000000  1.500000  38.000000  0
21.500000  2.000000  38.000000  0
17.000000  2.000000  38.500000  0
16.500000  2.000000  38.000000  0
22.500000  2.000000  37.000000  0
22.000000  2.000000  37.500000  0
16.000000  1.500000  37.000000  0
16.500000  2.000000  37.000000  0
23.000000  1.500000  36.000000  0
22.500000  2.000000  36.000000  0
16.000000  1.500000  36.000000  0
16.500000  2.000000  36.000000  0
23.500000  2.000000  35.000000  0
23.000000  2.000000  35.500000  0
16.000000  2.000000  35.500000  0
15.000000  2.000000  35.500000  0
14.500000  2.000000  35.000000  0
23.500000  2.000000  34.000000  0
14.500000  2.000000  34.000000  0
23.500000  2.000000  33.000000  0
14.000000  2.000000  33.500000  0
13.000000  2.000000  33.500000  0
12.500000  2.000000  33.000000  0
23.500000  2.000000  32.000000  0
12.500000  2.000000  32.000000  0
23.500000  2.000000  31.000000  0
12.500000  2.000000  31.000000  0
26.000000  1.500000  30.000000  0
25.000000  1.500000  30.000000  0
24.000000  1.500000  30.000000  0
23.500000  2.000000  30.000000  0
12.500000  2.000000  30.000000  0
26.000000  1.500000  29.000000  0
25.000000  1.500000  29.000000  0
24.000000  1.500000  29.000000  0
23.500000  2.000000  29.000000  0
12.500000  2.000000  29.000000  0
26.000000  1.500000  28.000000  0
25.000000  1.500000  28.000000  0
24.000000  1.500000  28.000000  0
23.500000  2.000000  28.000000  0
18.000000  1.500000  28.000000  0
18.500000  2.000000  28.000000  0
18.000000  2.000000  28.500000  0
17.000000  1.500000  28.000000  0
17.000000  2.000000  28.500000  0
16.000000  1.500000  28.000000  0
16.000000  2.000000  28.500000  0
15.000000  1.500000  28.000000  0
15.000000  2.000000  28.500000  0
14.000000  1.500000  28.000000  0
14.000000  2.000000  28.500000  0
13.000000  1.500000  28.000000  0
13.000000  2.000000  28.500000  0
23.000000  2.000000  27.500000  0
22.000000  2.000000  27.500000  0
21.000000  2.000000  27.500000  0
20.000000  2.000000  27.500000  0
19.000000  2.000000  27.500000  0
21.500000  3.000000  39.000000  0
21.000000  3.000000  39.500000  0
20.000000  3.000000  39.500000  0
19.000000  3.000000  39.500000  0
18.000000  3.000000  39.500000  0
17.500000  3.000000  39.000000  0
21.500000  3.000000  38.000000  0
17.000000  3.000000  38.500000  0
16.500000  3.000000  38.000000  0
22.500000  3.000000  37.000000  0
22.000000  3.000000  37.500000  0
16.500000  3.000000  37.000000  0
22.500000  3.000000  36.000000  0
16.500000  3.000000  36.000000  0
23.000000  2.500000  35.000000  0
22.500000  3.000000  35.000000  0
16.000000  3.000000  35.500000  0
15.000000  3.000000  35.500000  0
14.500000  3.000000  35.000000  0
23.000000  2.500000  34.000000  0
22.500000  3.000000  34.000000  0
14.500000  3.000000  34.000000  0
23.000000  2.500000  33.000000  0
22.500000  3.000000  33.000000  0
14.000000  3.000000  33.500000  0
13.000000  3.000000  33.500000  0
12.500000  3.000000  33.000000  0
23.000000  2.500000  32.000000  0
22.500000  3.000000  32.000000  0
12.500000  3.000000  32.000000  0
23.000000  2.500000  31.000000  0
22.500000  3.000000  31.000000  0
12.500000  3.000000  31.000000  0
23.000000  2.500000  30.000000  0
22.500000  3.000000  30.000000  0
12.500000  3.000000  30.000000  0
23.000000  2.500000  29.000000  0
22.000000  2.500000  29.000000  0
22.000000  3.000000  29.500000  0
21.500000  3.000000  29.000000  0
12.500000  3.000000  29.000000  0
23.000000  2.500000  28.000000  0
22.000000  2.500000  28.000000  0
21.500000  3.000000  28.000000  0
18.500000  3.000000  28.000000  0
18.000000  3.000000  28.500000  0
17.000000  3.000000  28.500000  0
16.000000  3.000000  28.500000  0
15.000000  3.000000  28.500000  0
14.000000  3.000000  28.500000  0
13.000000  3.000000  28.500000  0
21.000000  3.000000  27.500000  0
20.000000  3.000000  27.500000  0
19.000000  3.000000  27.500000  0
21.000000  3.500000  39.000000  0
20.000000  3.500000  39.000000  0
19.000000  3.500000  39.000000  0
18.000000  3.500000  39.000000  0
21.000000  3.500000  38.000000  0
20.000000  3.500000  38.000000  0
19.000000  3.500000  38.000000  0
18.000000  3.500000  38.000000  0
17.000000  3.500000  38.000000  0
22.000000  3.500000  37.000000  0
21.000000  3.500000  37.000000  0
20.500000  4.000000  37.000000  0
20.000000  4.000000  37.500000  0
19.000000  4.000000  37.500000  0
18.000000  3.500000  37.000000  0
18.500000  4.000000  37.000000  0
17.000000  3.500000  37.000000  0
22.000000  3.500000  36.000000  0
21.000000  3.500000  36.000000  0
20.500000  4.000000  36.000000  0
18.000000  3.500000  36.000000  0
18.500000  4.000000  36.000000  0
17.000000  3.500000  36.000000  0
22.000000  3.500000  35.000000  0
21.000000  3.500000  35.000000  0
20.500000  4.000000  35.000000  0
18.000000  4.000000  35.500000  0
17.000000  4.000000  35.500000  0
16.000000  3.500000  35.000000  0
16.500000  4.000000  35.000000  0
15.000000  3.500000  35.000000  0
22.500000  4.000000  34.000000  0
22.000000  4.000000  34.500000  0
21.000000  4.000000  34.500000  0
16.000000  4.000000  34.500000  0
15.000000  3.500000  34.000000  0
15.500000  4.000000  34.000000  0
22.500000  4.000000  33.000000  0
15.000000  4.000000  33.500000  0
14.000000  4.000000  33.500000  0
13.000000  4.000000  33.500000  0
12.500000  4.000000  33.000000  0
22.500000  4.000000  32.000000  0
12.500000  4.000000  32.000000  0
22.500000  4.000000  31.000000  0
12.500000  4.000000  31.000000  0
22.000000  3.500000  30.000000  0
22.000000  4.000000  30.500000  0
21.500000  4.000000  30.000000  0
12.500000  4.000000  30.000000  0
21.000000  3.500000  29.000000  0
21.000000  4.000000  29.500000  0
20.500000  4.000000  29.000000  0
12.500000  4.000000  29.000000  0
21.000000  3.500000  28.000000  0
20.500000  4.000000  28.000000  0
18.500000  4.000000  28.000000  0
18.000000  4.000000  28.500000  0
17.000000  4.000000  28.500000  0
16.000000  4.000000  28.500000  0
15.000000  4.000000  28.500000  0
14.000000  4.000000  28.500000  0
13.000000  4.000000  28.500000  0
20.000000  4.000000  27.500000  0
19.000000  4.000000  27.500000  0
20.500000  5.000000  37.000000  0
20.000000  5.000000  37.500000  0
19.000000  5.000000  37.500000  0
18.500000  5.000000  37.000000  0
20.500000  5.000000  36.000000  0
18.500000  5.000000  36.000000  0
20.500000  5.000000  35.000000  0
18.000000  5.000000  35.500000  0
17.000000  5.000000  35.500000  0
16.500000  5.000000  35.000000  0
22.000000  4.500000  34.000000  0
21.000000  4.500000  34.000000  0
20.500000  5.000000  34.000000  0
16.000000  5.000000  34.500000  0
15.500000  5.000000  34.000000  0
22.000000  4.500000  33.000000  0
21.000000  4.500000  33.000000  0
20.500000  5.000000  33.000000  0
15.000000  5.000000  33.500000  0
14.000000  5.000000  33.500000  0
13.000000  5.000000  33.500000  0
12.500000  5.000000  33.000000  0
22.000000  4.500000  32.000000  0
21.000000  4.500000  32.000000  0
20.500000  5.000000  32.000000  0
12.500000  5.000000  32.000000  0
22.000000  4.500000  31.000000  0
21.000000  4.500000  31.000000  0
20.000000  4.500000  31.000000  0
20.000000  5.000000  31.500000  0
19.500000  5.000000  31.000000  0
12.500000  5.000000  31.000000  0
21.000000  4.500000  30.000000  0
20.000000  4.500000  30.000000  0
19.500000  5.000000  30.000000  0
12.500000  5.000000  30.000000  0
20.000000  4.500000  29.000000  0
19.500000  5.000000  29.000000  0
15.000000  4.500000  29.000000  0
15.500000  5.000000  29.000000  0
15.000000  5.000000  29.500000  0
14.000000  4.500000  29.000000  0
14.000000  5.000000  29.500000  0
13.000000  4.500000  29.000000  0
13.000000  5.000000  29.500000  0
20.000000  4.500000  28.000000  0
19.000000  4.500000  28.000000  0
19.000000  5.000000  28.500000  0
18.000000  5.000000  28.500000  0
17.000000  5.000000  28.500000  0
16.000000  5.000000  28.500000  0
20.000000  5.500000  37.000000  0
19.000000  5.500000  37.000000  0
20.500000  6.000000  36.000000  0
20.000000  6.000000  36.500000  0
19.000000  5.500000  36.000000  0
19.500000  6.000000  36.000000  0
20.500000  6.000000  35.000000  0
19.000000  6.000000  35.500000  0
18.000000  5.500000  35.000000  0
18.500000  6.000000  35.000000  0
17.000000  5.500000  35.000000  0
20.500000  6.000000  34.000000  0
18.000000  6.000000  34.500000  0
17.000000  6.000000  34.500000  0
16.000000  6.000000  34.500000  0
15.500000  6.000000  34.000000  0
20.500000  6.000000  33.000000  0
15.000000  6.000000  33.500000  0
14.000000  5.500000  33.000000  0
14.500000  6.000000  33.000000  0
13.000000  5.500000  33.000000  0
20.500000  6.000000  32.000000  0
14.000000  6.000000  32.500000  0
13.000000  5.500000  32.000000  0
13.500000  6.000000  32.000000  0
20.000000  6.000000  31.500000  0
19.000000  5.500000  31.000000  0
19.000000  6.000000  31.500000  0
18.500000  6.000000  31.000000  0
13.000000  6.000000  31.500000  0
12.500000  6.000000  31.000000  0
19.000000  5.500000  30.000000  0
18.000000  5.500000  30.000000  0
18.000000  6.000000  30.500000  0
17.000000  5.500000  30.000000  0
17.000000  6.000000  30.500000  0
16.500000  6.000000  30.000000  0
12.500000  6.000000  30.000000  0
19.000000  5.500000  29.000000  0
18.000000  5.500000  29.000000  0
17.000000  5.500000  29.000000  0
16.000000  5.500000  29.000000  0
16.000000  6.000000  29.500000  0
15.000000  6.000000  29.500000  0
14.000000  6.000000  29.500000  0
13.000000  6.000000  29.500000  0
20.000000  6.500000  36.000000  0
20.000000  6.500000  35.000000  0
19.000000  6.500000  35.000000  0
20.000000  6.500000  34.000000  0
19.000000  6.500000  34.000000  0
18.500000  7.000000  34.000000  0
18.000000  7.000000  34.500000  0
17.000000  7.000000  34.500000  0
16.000000  6.500000  34.000000  0
16.500000  7.000000  34.000000  0
20.000000  6.500000  33.000000  0
19.000000  6.500000  33.000000  0
18.000000  6.500000  33.000000  0
18.000000  7.000000  33.500000  0
17.000000  6.500000  33.000000  0
17.000000  7.000000  33.500000  0
16.000000  6.500000  33.000000  0
15.000000  6.500000  33.000000  0
20.000000  6.500000  32.000000  0
19.000000  6.500000  32.000000  0
18.000000  6.500000  32.000000  0
17.000000  6.500000  32.000000  0
16.000000  6.500000  32.000000  0
15.000000  6.500000  32.000000  0
14.000000  6.500000  32.000000  0
18.000000  6.500000  31.000000  0
17.000000  6.500000  31.000000  0
16.000000  6.500000  31.000000  0
15.000000  6.500000  31.000000  0
14.000000  6.500000  31.000000  0
13.000000  6.500000  31.000000  0
16.000000  6.500000  30.000000  0
15.000000  6.500000  30.000000  0
14.000000  6.500000  30.000000  0
13.000000  6.500000  30.000000  0
18.500000  8.000000  34.000000  0
18.000000  8.000000  34.500000  0
17.000000  8.000000  34.500000  0
16.500000  8.000000  34.000000  0
18.000000  8.000000  33.500000  0
17.000000  8.000000  33.500000  0
18.000000  8.500000  34.000000  0
17.000000  8.500000  34.000000  0
2 0 1 0
3 0 2 0
1 0 4 0
0 3 4 0
6 1 5 0
2 1 6 0
7 2 6 0
3 2 7 0
9 5 1 0
8 9 1 0
4 8 1 0
3 7 10 0
4 3 10 0
8 4 10 0
8 12 9 0
11 12 8 0
10 11 8 0
13 11 10 0
11 15 12 0
14 15 11 0
13 14 11 0
16 14 13 0
15 14 17 0
14 16 17 0
20 18 19 0
20 21 18 0
22 21 20 0
22 23 21 0
24 23 22 0
24 25 23 0
26 25 24 0
27 25 26 0
18 29 19 0
28 29 18 0
30 18 21 0
28 18 30 0
31 21 23 0
30 21 31 0
32 23 25 0
31 23 32 0
27 32 25 0
33 32 27 0
28 35 29 0
34 35 28 0
36 28 30 0
34 28 36 0
37 30 31 0
36 30 37 0
38 31 32 0
37 31 38 0
33 38 32 0
39 38 33 0
34 41 35 0
40 41 34 0
42 34 36 0
40 34 42 0
43 36 37 0
42 36 43 0
44 37 38 0
43 37 44 0
39 44 38 0
45 44 39 0
40 47 41 0
46 47 40 0
48 40 42 0
46 40 48 0
49 42 43 0
48 42 49 0
50 43 44 0
49 43 50 0
45 50 44 0
51 50 45 0
53 5 52 0
6 5 53 0
54 47 46 0
54 53 47 0
7 53 54 0
6 53 7 0
55 46 48 0
54 46 55 0
56 48 49 0
55 48 56 0
57 49 50 0
56 49 57 0
51 57 50 0
58 57 51 0
5 59 52 0
9 59 5 0
10 7 60 0
60 7 54 0
60 54 55 0
61 60 55 0
62 61 55 0
55 63 62 0
56 63 55 0
56 64 63 0
57 64 56 0
57 58 64 0
9 65 59 0
12 65 9 0
13 10 66 0
66 10 60 0
61 66 60 0
67 66 61 0
12 68 65 0
15 68 12 0
69 16 13 0
69 13 66 0
69 66 70 0
66 67 70 0
73 71 72 0
17 68 15 0
75 68 17 0
71 73 74 0
16 75 17 0
69 75 16 0
72 71 76 0
71 74 76 0
78 19 77 0
20 19 78 0
79 20 78 0
22 20 79 0
80 22 79 0
24 22 80 0
81 24 80 0
26 24 81 0
82 26 81 0
27 26 82 0
19 83 77 0
29 83 19 0
33 82 84 0
27 82 33 0
29 85 83 0
35 85 29 0
39 84 86 0
33 84 39 0
35 87 85 0
41 87 35 0
45 86 88 0
39 86 45 0
41 89 87 0
47 89 41 0
51 45 88 0
51 88 91 0
51 91 90 0
92 90 91 0
94 52 93 0
53 52 94 0
53 94 47 0
47 94 89 0
58 51 95 0
95 51 90 0
92 95 90 0
96 95 92 0
52 97 93 0
59 97 52 0
98 61 62 0
99 98 63 0
63 98 62 0
100 99 64 0
64 99 63 0
95 101 100 0
95 100 64 0
95 64 58 0
96 101 95 0
102 101 96 0
59 103 97 0
65 103 59 0
67 61 104 0
104 61 98 0
105 98 99 0
104 98 105 0
106 99 100 0
105 99 106 0
107 100 101 0
106 100 107 0
102 107 101 0
108 107 102 0
65 109 103 0
68 109 65 0
110 69 70 0
104 111 110 0
104 110 70 0
104 70 67 0
112 104 105 0
111 104 112 0
113 105 106 0
112 105 113 0
114 106 107 0
113 106 114 0
108 114 107 0
115 114 108 0
117 72 116 0
73 72 117 0
109 118 117 0
109 68 118 0
68 75 118 0
117 118 73 0
73 118 74 0
110 119 118 0
110 118 75 0
110 75 69 0
120 110 111 0
119 110 120 0
121 111 112 0
120 111 121 0
122 112 113 0
121 112 122 0
123 113 114 0
122 113 123 0
115 123 114 0
124 123 115 0
126 116 72 0
125 126 72 0
76 125 72 0
118 127 125 0
118 125 76 0
118 76 74 0
128 118 119 0
127 118 128 0
129 119 120 0
128 119 129 0
130 120 121 0
129 120 130 0
131 121 122 0
130 121 131 0
132 122 123 0
131 122 132 0
124 132 123 0
133 132 124 0
125 135 126 0
134 135 125 0
136 125 127 0
134 125 136 0
137 127 128 0
136 127 137 0
137 128 129 0
138 137 129 0
139 138 129 0
129 140 139 0
130 140 129 0
130 141 140 0
131 141 130 0
131 142 141 0
132 142 131 0
132 133 142 0
135 134 143 0
134 144 143 0
136 144 134 0
136 145 144 0
137 145 136 0
137 138 145 0
148 146 147 0
148 149 146 0
150 149 148 0
150 151 149 0
152 151 150 0
153 151 152 0
146 155 147 0
154 155 146 0
156 146 149 0
154 146 156 0
157 149 151 0
156 149 157 0
153 157 151 0
158 157 153 0
77 159 155 0
78 77 155 0
154 78 155 0
154 156 78 0
78 156 79 0
156 157 79 0
79 157 80 0
160 81 80 0
160 80 157 0
160 157 158 0
161 81 160 0
82 81 161 0
77 162 159 0
83 162 77 0
84 161 163 0
82 161 84 0
83 164 162 0
85 164 83 0
86 163 165 0
84 163 86 0
85 166 164 0
87 166 85 0
88 165 167 0
86 165 88 0
87 168 166 0
89 168 87 0
169 91 167 0
167 91 88 0
91 169 171 0
92 91 171 0
170 92 171 0
172 170 171 0
174 93 173 0
94 93 174 0
94 174 89 0
89 174 168 0
96 92 175 0
175 92 170 0
172 175 170 0
176 175 172 0
93 177 173 0
97 177 93 0
102 96 178 0
178 96 175 0
176 178 175 0
179 178 176 0
97 180 177 0
103 180 97 0
108 102 181 0
181 102 178 0
179 181 178 0
182 181 179 0
103 183 180 0
109 183 103 0
115 108 184 0
184 108 181 0
182 184 181 0
185 184 182 0
187 116 186 0
117 116 187 0
117 187 109 0
109 187 183 0
124 115 188 0
188 115 184 0
185 188 184 0
189 188 185 0
116 190 186 0
126 190 116 0
133 124 191 0
191 124 188 0
189 191 188 0
192 191 189 0
126 193 190 0
135 193 126 0
194 138 195 0
195 138 139 0
195 140 196 0
139 140 195 0
196 141 197 0
140 141 196 0
197 142 198 0
141 142 197 0
199 198 142 0
191 199 142 0
133 191 142 0
191 192 199 0
193 143 200 0
135 143 193 0
200 144 201 0
143 144 200 0
201 145 202 0
144 145 201 0
138 202 145 0
194 202 138 0
148 147 203 0
205 150 148 0
204 205 148 0
203 204 148 0
206 150 205 0
152 150 206 0
152 206 208 0
153 152 208 0
207 153 208 0
209 207 208 0
210 147 155 0
203 147 210 0
203 210 204 0
204 210 211 0
158 153 212 0
212 153 207 0
209 212 207 0
213 212 209 0
214 155 159 0
210 155 214 0
210 214 211 0
211 214 215 0
160 158 212 0
213 216 161 0
212 213 161 0
160 212 161 0
217 159 162 0
214 159 217 0
214 217 215 0
215 217 218 0
163 216 219 0
161 216 163 0
220 162 164 0
217 162 220 0
217 220 218 0
218 220 221 0
165 219 222 0
163 219 165 0
164 166 223 0
220 164 223 0
224 220 223 0
224 221 220 0
167 222 225 0
165 222 167 0
166 226 223 0
168 226 166 0
227 169 225 0
225 169 167 0
228 169 227 0
171 169 228 0
229 171 228 0
172 171 229 0
231 173 230 0
174 173 231 0
174 231 168 0
168 231 226 0
176 229 232 0
172 229 176 0
173 233 230 0
177 233 173 0
179 232 234 0
176 232 179 0
177 235 233 0
180 235 177 0
182 234 236 0
179 234 182 0
180 237 235 0
183 237 180 0
185 236 238 0
182 236 185 0
187 186 239 0
240 237 183 0
240 183 187 0
240 187 239 0
189 238 241 0
185 238 189 0
242 186 190 0
239 186 242 0
239 242 240 0
240 242 243 0
192 241 244 0
189 241 192 0
245 190 193 0
242 190 245 0
242 245 243 0
243 245 246 0
248 247 249 0
195 250 249 0
195 249 247 0
195 247 194 0
250 196 251 0
195 196 250 0
251 197 252 0
196 197 251 0
252 198 253 0
197 198 252 0
253 199 254 0
198 199 253 0
192 254 199 0
244 254 192 0
245 193 200 0
200 201 255 0
245 200 255 0
246 245 255 0
255 201 202 0
248 255 202 0
247 248 202 0
202 194 247 0
258 256 257 0
258 259 256 0
260 259 258 0
261 259 260 0
205 204 262 0
263 257 262 0
257 205 262 0
257 256 205 0
256 206 205 0
256 259 206 0
206 259 208 0
261 264 209 0
259 261 209 0
208 259 209 0
204 211 265 0
262 204 265 0
266 262 265 0
266 263 262 0
213 264 267 0
209 264 213 0
211 268 265 0
215 268 211 0
216 267 269 0
213 267 216 0
215 270 268 0
218 270 215 0
219 216 269 0
219 269 272 0
219 272 271 0
272 273 271 0
274 273 272 0
275 273 274 0
218 276 270 0
221 276 218 0
222 219 277 0
277 219 271 0
278 271 273 0
277 271 278 0
275 278 273 0
279 278 275 0
224 223 280 0
281 276 221 0
281 221 224 0
281 224 280 0
225 222 282 0
282 222 277 0
283 277 278 0
282 277 283 0
279 283 278 0
284 283 279 0
223 226 285 0
280 223 285 0
286 280 285 0
286 281 280 0
227 225 282 0
282 283 227 0
227 283 228 0
284 287 229 0
283 284 229 0
228 283 229 0
289 230 288 0
231 230 289 0
231 289 226 0
226 289 285 0
232 287 290 0
229 287 232 0
230 291 288 0
233 291 230 0
234 290 292 0
232 290 234 0
233 293 291 0
235 293 233 0
236 292 294 0
234 292 236 0
235 295 293 0
237 295 235 0
238 294 296 0
236 294 238 0
237 297 295 0
240 297 237 0
241 296 298 0
238 296 241 0
240 299 297 0
243 299 240 0
244 298 300 0
241 298 244 0
243 301 299 0
246 301 243 0
302 248 303 0
303 248 249 0
303 250 304 0
249 250 303 0
304 251 305 0
250 251 304 0
305 252 306 0
251 252 305 0
306 253 307 0
252 253 306 0
307 254 308 0
253 254 307 0
244 308 254 0
300 308 244 0
301 255 309 0
246 255 301 0
248 309 255 0
302 309 248 0
311 257 310 0
258 257 311 0
312 258 311 0
260 258 312 0
313 260 312 0
261 260 313 0
257 314 310 0
263 314 257 0
264 313 315 0
261 313 264 0
266 265 316 0
317 314 263 0
317 263 266 0
317 266 316 0
267 315 318 0
264 315 267 0
319 265 268 0
316 265 319 0
316 319 317 0
317 319 320 0
269 267 318 0
269 318 322 0
269 322 321 0
322 323 321 0
324 323 322 0
325 323 324 0
268 270 326 0
319 268 326 0
327 319 326 0
327 320 319 0
272 269 321 0
321 323 272 0
272 323 274 0
325 328 275 0
323 325 275 0
274 323 275 0
270 329 326 0
276 329 270 0
279 275 328 0
279 328 331 0
279 331 330 0
332 330 331 0
276 333 329 0
281 333 276 0
284 279 334 0
334 279 330 0
335 334 330 0
336 335 330 0
332 336 330 0
337 335 336 0
339 285 338 0
286 285 339 0
286 339 281 0
281 339 333 0
287 284 340 0
340 284 334 0
341 334 335 0
340 334 341 0
337 341 335 0
342 341 337 0
344 288 343 0
289 288 344 0
289 344 285 0
285 344 338 0
290 287 345 0
345 287 340 0
346 340 341 0
345 340 346 0
342 346 341 0
347 346 342 0
288 348 343 0
291 348 288 0
292 290 349 0
349 290 345 0
350 345 346 0
349 345 350 0
347 350 346 0
351 350 347 0
291 352 348 0
293 352 291 0
294 292 353 0
353 292 349 0
354 349 350 0
353 349 354 0
351 354 350 0
355 354 351 0
