#!ascii version of
3044 6084
347 345 406 0
406 345 402 0
404 406 402 0
407 406 404 0
409 348 408 0
349 348 409 0
349 409 346 0
346 409 405 0
350 347 410 0
410 347 406 0
407 410 406 0
411 410 407 0
414 412 413 0
408 348 351 0
408 351 412 0
408 412 414 0
352 350 415 0
415 350 410 0
411 415 410 0
416 415 411 0
353 417 413 0
354 353 413 0
412 354 413 0
412 351 354 0
355 352 418 0
418 352 415 0
416 418 415 0
419 418 416 0
353 420 417 0
356 420 353 0
421 357 355 0
421 355 418 0
421 418 422 0
418 419 422 0
356 423 420 0
358 423 356 0
359 421 424 0
357 421 359 0
358 425 423 0
360 425 358 0
426 361 427 0
427 361 362 0
359 427 362 0
424 427 359 0
360 428 425 0
363 428 360 0
364 426 429 0
361 426 364 0
363 430 428 0
365 430 363 0
366 429 431 0
364 429 366 0
365 432 430 0
367 432 365 0
368 431 433 0
366 431 368 0
367 434 432 0
369 434 367 0
435 370 371 0
368 433 436 0
371 368 436 0
435 371 436 0
369 437 434 0
372 437 369 0
373 370 438 0
438 370 435 0
436 438 435 0
439 438 436 0
372 440 437 0
374 440 372 0
375 373 441 0
441 373 438 0
439 441 438 0
442 441 439 0
374 443 440 0
376 443 374 0
444 377 445 0
445 377 378 0
445 379 446 0
378 379 445 0
447 446 379 0
441 447 379 0
375 441 379 0
441 442 447 0
376 448 443 0
381 448 376 0
383 444 449 0
377 444 383 0
381 450 448 0
385 450 381 0
451 386 452 0
452 386 387 0
383 452 387 0
449 452 383 0
450 388 453 0
385 388 450 0
386 453 388 0
451 453 386 0
455 389 454 0
390 389 455 0
456 390 455 0
391 390 456 0
457 391 456 0
392 391 457 0
392 457 459 0
393 392 459 0
458 393 459 0
460 458 459 0
389 461 454 0
394 461 389 0
395 393 462 0
462 393 458 0
460 462 458 0
463 462 460 0
394 464 461 0
396 464 394 0
397 395 465 0
465 395 462 0
463 465 462 0
466 465 463 0
396 467 464 0
398 467 396 0
399 397 468 0
468 397 465 0
469 468 465 0
470 469 465 0
466 470 465 0
471 469 470 0
474 472 473 0
474 475 401 0
472 474 401 0
400 472 401 0
401 475 398 0
398 475 467 0
403 399 468 0
468 469 476 0
468 476 404 0
468 404 403 0
471 476 469 0
477 476 471 0
472 479 473 0
478 479 472 0
400 405 472 0
472 405 478 0
480 407 404 0
480 404 476 0
480 476 481 0
476 477 481 0
408 482 479 0
409 408 479 0
478 409 479 0
478 405 409 0
411 480 483 0
407 480 411 0
485 413 484 0
414 413 485 0
414 485 408 0
408 485 482 0
416 483 486 0
411 483 416 0
413 487 484 0
417 487 413 0
419 486 488 0
416 486 419 0
417 489 487 0
420 489 417 0
490 421 422 0
419 488 491 0
422 419 491 0
490 422 491 0
420 492 489 0
423 492 420 0
493 424 421 0
493 421 490 0
493 490 494 0
490 491 494 0
423 495 492 0
425 495 423 0
496 426 497 0
497 426 427 0
424 497 427 0
493 497 424 0
425 498 495 0
428 498 425 0
429 496 499 0
426 496 429 0
428 500 498 0
430 500 428 0
431 499 501 0
429 499 431 0
430 502 500 0
432 502 430 0
433 501 503 0
431 501 433 0
432 504 502 0
434 504 432 0
436 503 505 0
433 503 436 0
434 506 504 0
437 506 434 0
439 505 507 0
436 505 439 0
437 508 506 0
440 508 437 0
442 507 509 0
439 507 442 0
440 510 508 0
443 510 440 0
511 444 512 0
512 444 445 0
512 446 513 0
445 446 512 0
513 447 514 0
446 447 513 0
442 514 447 0
509 514 442 0
443 515 510 0
448 515 443 0
449 511 516 0
444 511 449 0
448 517 515 0
450 517 448 0
518 451 452 0
449 516 519 0
452 449 519 0
518 452 519 0
521 517 450 0
520 521 450 0
453 520 450 0
518 522 520 0
518 520 453 0
518 453 451 0
519 522 518 0
523 522 519 0
521 520 524 0
520 525 524 0
522 525 520 0
522 523 525 0
528 526 527 0
528 529 526 0
530 529 528 0
530 531 529 0
532 531 530 0
533 531 532 0
535 454 534 0
455 454 535 0
456 455 535 0
456 535 527 0
456 527 526 0
526 529 456 0
456 529 457 0
529 531 457 0
457 531 459 0
537 531 533 0
537 536 531 0
536 459 531 0
460 459 536 0
538 536 537 0
454 539 534 0
461 539 454 0
463 460 540 0
540 460 536 0
538 540 536 0
541 540 538 0
461 542 539 0
464 542 461 0
466 463 543 0
543 463 540 0
541 543 540 0
544 543 541 0
464 545 542 0
467 545 464 0
470 466 543 0
544 546 471 0
543 544 471 0
470 543 471 0
548 473 547 0
474 473 548 0
549 474 548 0
475 474 549 0
475 549 467 0
467 549 545 0
477 546 550 0
471 546 477 0
473 551 547 0
479 551 473 0
552 480 481 0
477 550 553 0
481 477 553 0
552 481 553 0
556 554 555 0
551 479 482 0
551 482 554 0
551 554 556 0
483 480 557 0
557 480 552 0
553 557 552 0
558 557 553 0
484 559 555 0
485 484 555 0
554 485 555 0
554 482 485 0
560 486 483 0
560 483 557 0
560 557 561 0
557 558 561 0
484 562 559 0
487 562 484 0
488 560 563 0
486 560 488 0
487 564 562 0
489 564 487 0
491 563 565 0
488 563 491 0
489 566 564 0
492 566 489 0
567 493 568 0
568 493 494 0
491 568 494 0
565 568 491 0
492 569 566 0
495 569 492 0
570 496 571 0
571 496 497 0
493 571 497 0
567 571 493 0
574 572 573 0
574 575 572 0
576 575 574 0
569 495 498 0
569 498 575 0
569 575 576 0
499 570 577 0
496 570 499 0
572 579 573 0
578 579 572 0
580 572 575 0
578 572 580 0
498 500 575 0
575 500 580 0
501 577 581 0
499 577 501 0
578 583 579 0
582 583 578 0
584 578 580 0
582 578 584 0
500 502 580 0
580 502 584 0
503 581 585 0
501 581 503 0
583 582 586 0
582 587 586 0
584 587 582 0
502 504 588 0
502 588 587 0
502 587 584 0
505 585 589 0
503 585 505 0
504 590 588 0
506 590 504 0
507 589 591 0
505 589 507 0
506 592 590 0
508 592 506 0
509 591 593 0
507 591 509 0
508 594 592 0
510 594 508 0
595 511 512 0
512 513 597 0
512 597 596 0
512 596 595 0
597 514 598 0
513 514 597 0
509 598 514 0
593 598 509 0
594 510 515 0
600 594 515 0
599 600 515 0
600 599 601 0
516 511 602 0
602 511 595 0
596 602 595 0
603 602 596 0
515 517 604 0
599 515 604 0
605 599 604 0
605 601 599 0
606 519 516 0
606 516 602 0
606 602 607 0
602 603 607 0
517 608 604 0
521 608 517 0
523 606 609 0
519 606 523 0
608 524 610 0
521 524 608 0
610 525 611 0
524 525 610 0
523 611 525 0
609 611 523 0
613 527 612 0
528 527 613 0
614 528 613 0
530 528 614 0
615 530 614 0
532 530 615 0
616 532 615 0
533 532 616 0
618 534 617 0
535 534 618 0
535 618 527 0
527 618 612 0
619 537 616 0
616 537 533 0
620 537 619 0
538 537 620 0
534 621 617 0
539 621 534 0
541 620 622 0
538 620 541 0
539 623 621 0
542 623 539 0
544 622 624 0
541 622 544 0
542 625 623 0
545 625 542 0
546 544 624 0
546 624 627 0
546 627 626 0
628 626 627 0
630 547 629 0
548 547 630 0
631 548 630 0
549 548 631 0
549 631 545 0
545 631 625 0
550 546 632 0
632 546 626 0
628 632 626 0
633 632 628 0
547 634 629 0
551 634 547 0
553 550 635 0
635 550 632 0
633 635 632 0
636 635 633 0
638 555 637 0
556 555 638 0
556 638 551 0
551 638 634 0
639 558 553 0
639 553 635 0
639 635 640 0
635 636 640 0
555 641 637 0
559 641 555 0
642 560 643 0
643 560 561 0
558 643 561 0
639 643 558 0
559 644 641 0
562 644 559 0
563 642 645 0
560 642 563 0
562 646 644 0
564 646 562 0
565 645 647 0
563 645 565 0
564 648 646 0
566 648 564 0
649 567 650 0
650 567 568 0
565 650 568 0
647 650 565 0
653 651 652 0
653 654 651 0
655 654 653 0
648 566 569 0
648 569 654 0
648 654 655 0
656 570 657 0
657 570 571 0
567 657 571 0
649 657 567 0
573 658 652 0
574 573 652 0
651 574 652 0
651 654 574 0
574 654 576 0
654 569 576 0
577 656 659 0
570 656 577 0
573 660 658 0
579 660 573 0
581 659 661 0
577 659 581 0
579 662 660 0
583 662 579 0
585 661 663 0
581 661 585 0
665 662 583 0
664 665 583 0
586 664 583 0
666 664 587 0
587 664 586 0
588 666 587 0
589 663 667 0
585 663 589 0
665 664 668 0
664 669 668 0
666 669 664 0
588 590 670 0
588 670 669 0
588 669 666 0
591 667 671 0
589 667 591 0
590 672 670 0
592 672 590 0
674 673 675 0
593 591 671 0
673 593 671 0
675 673 671 0
672 592 594 0
677 672 594 0
676 677 594 0
677 676 678 0
679 596 597 0
674 680 673 0
680 598 673 0
680 679 598 0
679 597 598 0
598 593 673 0
676 594 600 0
601 681 678 0
601 678 676 0
601 676 600 0
603 596 682 0
682 596 679 0
680 682 679 0
683 682 680 0
685 604 684 0
605 604 685 0
605 685 601 0
601 685 681 0
686 606 607 0
682 687 686 0
682 686 607 0
682 607 603 0
683 687 682 0
688 687 683 0
604 689 684 0
608 689 604 0
690 609 606 0
690 606 686 0
690 686 691 0
686 692 691 0
687 692 686 0
687 688 692 0
689 610 693 0
608 610 689 0
693 611 694 0
610 611 693 0
609 694 611 0
690 694 609 0
697 695 696 0
697 698 695 0
699 698 697 0
699 700 698 0
701 700 699 0
702 700 701 0
705 703 704 0
696 703 705 0
696 695 703 0
695 612 703 0
613 612 695 0
695 698 613 0
613 698 614 0
698 700 614 0
614 700 615 0
707 700 702 0
707 706 700 0
706 615 700 0
616 615 706 0
707 708 706 0
709 708 707 0
710 708 709 0
617 711 704 0
618 617 704 0
703 618 704 0
703 612 618 0
619 616 706 0
706 708 712 0
706 712 620 0
706 620 619 0
710 712 708 0
713 712 710 0
617 714 711 0
621 714 617 0
622 620 715 0
715 620 712 0
713 715 712 0
716 715 713 0
621 717 714 0
623 717 621 0
624 622 718 0
718 622 715 0
716 718 715 0
719 718 716 0
722 720 721 0
717 623 625 0
717 625 720 0
717 720 722 0
627 624 718 0
719 723 628 0
718 719 628 0
627 718 628 0
725 629 724 0
630 629 725 0
631 630 725 0
631 725 721 0
631 721 720 0
720 625 631 0
633 723 726 0
628 723 633 0
629 727 724 0
634 727 629 0
636 726 728 0
633 726 636 0
730 637 729 0
638 637 730 0
638 730 634 0
634 730 727 0
731 639 732 0
732 639 640 0
636 732 640 0
728 732 636 0
637 733 729 0
641 733 637 0
734 642 735 0
735 642 643 0
639 735 643 0
731 735 639 0
641 736 733 0
644 736 641 0
645 734 737 0
642 734 645 0
644 738 736 0
646 738 644 0
647 737 739 0
645 737 647 0
646 740 738 0
648 740 646 0
742 741 743 0
650 744 743 0
650 743 741 0
650 741 649 0
647 744 650 0
739 744 647 0
746 652 745 0
653 652 746 0
747 653 746 0
655 653 747 0
655 747 648 0
648 747 740 0
742 748 656 0
742 656 657 0
742 657 741 0
657 649 741 0
652 749 745 0
658 749 652 0
659 748 750 0
656 748 659 0
658 751 749 0
660 751 658 0
661 750 752 0
659 750 661 0
660 753 751 0
662 753 660 0
663 752 754 0
661 752 663 0
662 755 753 0
665 755 662 0
667 754 756 0
663 754 667 0
755 668 757 0
665 668 755 0
757 669 758 0
668 669 757 0
758 669 759 0
759 669 670 0
671 667 756 0
671 756 761 0
671 761 760 0
762 760 761 0
670 763 759 0
672 763 670 0
764 674 675 0
760 765 764 0
760 764 675 0
760 675 671 0
762 765 760 0
766 765 762 0
763 677 767 0
672 677 763 0
767 677 768 0
768 677 678 0
680 674 769 0
769 674 764 0
770 764 765 0
769 764 770 0
766 770 765 0
771 770 766 0
678 772 768 0
681 772 678 0
773 683 680 0
773 680 769 0
773 769 774 0
769 775 774 0
770 775 769 0
770 771 775 0
777 684 776 0
685 684 777 0
685 777 681 0
681 777 772 0
688 773 778 0
683 773 688 0
684 779 776 0
689 779 684 0
781 780 782 0
691 783 782 0
691 782 780 0
691 780 690 0
783 692 784 0
691 692 783 0
688 784 692 0
778 784 688 0
779 693 785 0
689 693 779 0
785 693 694 0
781 785 694 0
780 781 694 0
694 690 780 0
788 786 787 0
788 789 786 0
790 789 788 0
790 791 789 0
792 791 790 0
793 791 792 0
795 696 794 0
697 696 795 0
699 697 795 0
699 795 787 0
699 787 786 0
786 789 699 0
699 789 701 0
789 791 796 0
789 796 702 0
789 702 701 0
797 796 791 0
798 797 791 0
793 798 791 0
799 797 798 0
801 704 800 0
705 704 801 0
705 801 696 0
696 801 794 0
707 702 796 0
796 797 707 0
707 797 709 0
799 802 710 0
797 799 710 0
709 797 710 0
704 803 800 0
711 803 704 0
713 802 804 0
710 802 713 0
711 805 803 0
714 805 711 0
716 713 804 0
716 804 807 0
716 807 806 0
808 806 807 0
714 809 805 0
717 809 714 0
719 716 810 0
810 716 806 0
808 810 806 0
811 810 808 0
814 812 813 0
814 815 722 0
812 814 722 0
721 812 722 0
722 815 717 0
717 815 809 0
723 719 816 0
816 719 810 0
811 816 810 0
817 816 811 0
724 818 813 0
725 724 813 0
812 725 813 0
812 721 725 0
819 726 723 0
819 723 816 0
819 816 820 0
816 817 820 0
823 821 822 0
818 724 727 0
818 727 821 0
818 821 823 0
728 819 824 0
726 819 728 0
729 825 822 0
730 729 822 0
821 730 822 0
821 727 730 0
826 731 732 0
728 824 827 0
732 728 827 0
826 732 827 0
729 828 825 0
733 828 729 0
829 734 830 0
830 734 735 0
831 830 735 0
826 831 735 0
731 826 735 0
826 827 831 0
733 832 828 0
736 832 733 0
737 829 833 0
734 829 737 0
736 834 832 0
738 834 736 0
739 833 835 0
737 833 739 0
738 836 834 0
740 836 738 0
837 742 838 0
838 742 743 0
838 744 839 0
743 744 838 0
739 839 744 0
835 839 739 0
841 745 840 0
746 745 841 0
842 746 841 0
747 746 842 0
747 842 740 0
740 842 836 0
748 837 843 0
742 837 748 0
745 844 840 0
749 844 745 0
750 843 845 0
748 843 750 0
749 846 844 0
751 846 749 0
752 845 847 0
750 845 752 0
751 848 846 0
753 848 751 0
754 847 849 0
752 847 754 0
753 850 848 0
755 850 753 0
756 849 851 0
754 849 756 0
850 757 852 0
755 757 850 0
852 758 853 0
757 758 852 0
853 758 854 0
854 758 759 0
855 761 851 0
851 761 756 0
856 761 855 0
762 761 856 0
759 857 854 0
763 857 759 0
766 856 858 0
762 856 766 0
857 767 859 0
763 767 857 0
861 859 767 0
861 767 768 0
861 768 860 0
861 860 862 0
864 863 865 0
863 866 865 0
865 866 867 0
771 766 858 0
866 771 858 0
867 866 858 0
868 768 772 0
860 768 868 0
860 868 862 0
862 868 869 0
864 870 773 0
864 773 774 0
864 774 863 0
774 866 863 0
775 866 774 0
775 771 866 0
777 776 871 0
871 872 868 0
777 871 868 0
772 777 868 0
868 872 869 0
869 872 873 0
778 870 874 0
773 870 778 0
875 776 779 0
871 776 875 0
872 871 875 0
782 872 875 0
781 782 875 0
782 783 876 0
872 782 876 0
873 872 876 0
876 784 877 0
783 784 876 0
778 877 784 0
874 877 778 0
875 779 785 0
785 781 875 0
879 787 878 0
788 787 879 0
880 788 879 0
790 788 880 0
881 790 880 0
792 790 881 0
882 792 881 0
793 792 882 0
884 794 883 0
795 794 884 0
795 884 787 0
787 884 878 0
885 798 882 0
882 798 793 0
886 798 885 0
799 798 886 0
888 800 887 0
801 800 888 0
801 888 794 0
794 888 883 0
802 886 889 0
799 886 802 0
800 890 887 0
803 890 800 0
804 802 889 0
804 889 892 0
804 892 891 0
893 891 892 0
803 894 890 0
805 894 803 0
807 804 891 0
893 895 808 0
891 893 808 0
807 891 808 0
805 896 894 0
809 896 805 0
811 895 897 0
808 895 811 0
899 813 898 0
814 813 899 0
900 814 899 0
815 814 900 0
815 900 809 0
809 900 896 0
817 897 901 0
811 897 817 0
813 902 898 0
818 902 813 0
903 819 904 0
904 819 820 0
817 904 820 0
901 904 817 0
906 822 905 0
823 822 906 0
823 906 818 0
818 906 902 0
824 903 907 0
819 903 824 0
822 908 905 0
825 908 822 0
827 907 909 0
824 907 827 0
825 910 908 0
828 910 825 0
911 829 830 0
912 911 831 0
831 911 830 0
827 909 913 0
831 827 913 0
912 831 913 0
828 914 910 0
832 914 828 0
915 833 829 0
915 829 911 0
915 911 916 0
911 917 916 0
912 917 911 0
912 913 917 0
832 918 914 0
834 918 832 0
835 915 919 0
833 915 835 0
834 920 918 0
836 920 834 0
921 837 838 0
922 921 839 0
839 921 838 0
835 919 923 0
839 835 923 0
922 839 923 0
925 840 924 0
841 840 925 0
926 841 925 0
842 841 926 0
842 926 836 0
836 926 920 0
843 837 927 0
927 837 921 0
927 921 922 0
928 927 922 0
929 928 922 0
922 923 929 0
840 930 924 0
844 930 840 0
931 845 843 0
931 843 927 0
931 927 932 0
927 928 932 0
844 933 930 0
846 933 844 0
847 931 934 0
845 931 847 0
846 935 933 0
848 935 846 0
849 934 936 0
847 934 849 0
848 937 935 0
850 937 848 0
851 849 936 0
851 936 939 0
851 939 938 0
940 938 939 0
937 852 941 0
850 852 937 0
941 852 853 0
941 853 942 0
941 942 943 0
854 942 853 0
855 851 938 0
945 938 940 0
945 944 938 0
944 855 938 0
856 855 944 0
946 944 945 0
943 942 947 0
854 857 948 0
854 948 947 0
854 947 942 0
949 858 856 0
949 856 944 0
949 944 950 0
944 946 950 0
948 859 951 0
857 859 948 0
951 861 952 0
859 861 951 0
954 952 861 0
954 861 862 0
954 862 953 0
954 953 955 0
956 864 957 0
957 864 865 0
957 867 958 0
865 867 957 0
858 958 867 0
949 958 858 0
862 869 959 0
953 862 959 0
960 953 959 0
960 955 953 0
870 956 961 0
864 956 870 0
869 962 959 0
873 962 869 0
874 961 963 0
870 961 874 0
962 876 964 0
873 876 962 0
964 877 965 0
876 877 964 0
874 965 877 0
963 965 874 0
967 878 966 0
879 878 967 0
968 879 967 0
880 879 968 0
969 880 968 0
881 880 969 0
970 881 969 0
882 881 970 0
972 883 971 0
884 883 972 0
884 972 878 0
878 972 966 0
973 885 970 0
970 885 882 0
974 885 973 0
886 885 974 0
976 887 975 0
888 887 976 0
888 976 883 0
883 976 971 0
889 886 974 0
889 974 978 0
889 978 977 0
978 979 977 0
980 979 978 0
981 979 980 0
887 982 975 0
890 982 887 0
892 889 977 0
977 979 983 0
977 983 893 0
977 893 892 0
981 983 979 0
984 983 981 0
890 985 982 0
894 985 890 0
895 893 986 0
986 893 983 0
984 986 983 0
987 986 984 0
894 988 985 0
896 988 894 0
897 895 989 0
989 895 986 0
987 989 986 0
990 989 987 0
992 898 991 0
899 898 992 0
993 899 992 0
900 899 993 0
900 993 896 0
896 993 988 0
901 897 994 0
994 897 989 0
990 994 989 0
995 994 990 0
898 996 991 0
902 996 898 0
997 903 904 0
994 998 997 0
994 997 904 0
994 904 901 0
995 998 994 0
999 998 995 0
1001 905 1000 0
906 905 1001 0
906 1001 902 0
902 1001 996 0
907 903 1002 0
1002 903 997 0
1003 997 998 0
1002 997 1003 0
999 1003 998 0
1004 1003 999 0
905 1005 1000 0
908 1005 905 0
1006 909 907 0
1006 907 1002 0
1006 1002 1007 0
1002 1008 1007 0
1003 1008 1002 0
1003 1004 1008 0
908 1009 1005 0
910 1009 908 0
913 1006 1010 0
909 1006 913 0
910 1011 1009 0
914 1011 910 0
1012 915 1013 0
1013 915 916 0
1013 917 1014 0
916 917 1013 0
913 1014 917 0
1010 1014 913 0
914 1015 1011 0
918 1015 914 0
919 1012 1016 0
915 1012 919 0
918 1017 1015 0
920 1017 918 0
923 1016 1018 0
919 1016 923 0
1020 924 1019 0
925 924 1020 0
1021 925 1020 0
926 925 1021 0
926 1021 920 0
920 1021 1017 0
1022 928 1023 0
1023 928 929 0
923 1023 929 0
1018 1023 923 0
924 1024 1019 0
930 1024 924 0
1025 931 1026 0
1026 931 932 0
928 1026 932 0
1022 1026 928 0
930 1027 1024 0
933 1027 930 0
934 1025 1028 0
931 1025 934 0
933 1029 1027 0
935 1029 933 0
936 1028 1030 0
934 1028 936 0
935 1031 1029 0
937 1031 935 0
1032 939 1030 0
1030 939 936 0
1033 939 1032 0
940 939 1033 0
1031 941 1034 0
937 941 1031 0
1034 941 1035 0
1035 941 943 0
1036 945 1033 0
1033 945 940 0
1037 945 1036 0
946 945 1037 0
1035 947 1038 0
943 947 1035 0
1038 947 1039 0
1039 947 948 0
1040 949 1041 0
1041 949 950 0
946 1041 950 0
1037 1041 946 0
1039 951 1042 0
948 951 1039 0
1042 952 1043 0
951 952 1042 0
1043 954 1044 0
952 954 1043 0
1046 1044 954 0
1046 954 955 0
1046 955 1045 0
957 1047 1046 0
957 1046 1045 0
957 1045 956 0
1047 958 1048 0
957 958 1047 0
949 1048 958 0
1040 1048 949 0
960 959 1049 0
1049 1050 1045 0
960 1049 1045 0
955 960 1045 0
1045 961 956 0
1050 961 1045 0
1051 959 962 0
1049 959 1051 0
1051 1050 1049 0
1052 1050 1051 0
1050 963 961 0
1052 963 1050 0
1051 962 964 0
964 1052 1051 0
965 1052 964 0
965 963 1052 0
1054 966 1053 0
967 966 1054 0
1055 967 1054 0
968 967 1055 0
1056 968 1055 0
969 968 1056 0
1057 969 1056 0
970 969 1057 0
1059 971 1058 0
972 971 1059 0
972 1059 966 0
966 1059 1053 0
1060 973 1057 0
1057 973 970 0
973 1060 1062 0
974 973 1062 0
1061 974 1062 0
1062 1063 1061 0
1064 1063 1062 0
1065 1063 1064 0
1067 975 1066 0
976 975 1067 0
976 1067 971 0
971 1067 1058 0
978 974 1061 0
1061 1063 978 0
978 1063 980 0
1065 1068 981 0
1063 1065 981 0
980 1063 981 0
975 1069 1066 0
982 1069 975 0
984 1068 1070 0
981 1068 984 0
982 1071 1069 0
985 1071 982 0
987 1070 1072 0
984 1070 987 0
1075 1073 1074 0
1071 985 988 0
1071 988 1073 0
1071 1073 1075 0
990 1072 1076 0
987 1072 990 0
1078 991 1077 0
992 991 1078 0
993 992 1078 0
993 1078 1074 0
993 1074 1073 0
1073 988 993 0
995 1076 1079 0
990 1076 995 0
991 1080 1077 0
996 1080 991 0
999 1079 1081 0
995 1079 999 0
1083 1000 1082 0
1001 1000 1083 0
1001 1083 996 0
996 1083 1080 0
1004 1081 1084 0
999 1081 1004 0
1000 1085 1082 0
1005 1085 1000 0
1086 1006 1087 0
1087 1006 1007 0
1087 1008 1088 0
1007 1008 1087 0
1004 1088 1008 0
1084 1088 1004 0
1005 1089 1085 0
1009 1089 1005 0
1010 1086 1090 0
1006 1086 1010 0
1009 1091 1089 0
1011 1091 1009 0
1092 1012 1093 0
1093 1012 1013 0
1093 1014 1094 0
1013 1014 1093 0
1010 1094 1014 0
1090 1094 1010 0
1011 1095 1091 0
1015 1095 1011 0
1016 1092 1096 0
1012 1092 1016 0
1015 1097 1095 0
1017 1097 1015 0
1018 1096 1098 0
1016 1096 1018 0
1100 1019 1099 0
1020 1019 1100 0
1101 1020 1100 0
1021 1020 1101 0
1021 1101 1017 0
1017 1101 1097 0
1102 1022 1023 0
1018 1098 1103 0
1023 1018 1103 0
1102 1023 1103 0
1019 1104 1099 0
1024 1104 1019 0
1105 1025 1026 0
1106 1102 1107 0
1106 1105 1102 0
1105 1022 1102 0
1026 1022 1105 0
1102 1103 1107 0
1024 1108 1104 0
1027 1108 1024 0
1109 1028 1025 0
1109 1025 1105 0
1109 1105 1110 0
1105 1106 1110 0
1027 1111 1108 0
1029 1111 1027 0
1030 1109 1112 0
1028 1109 1030 0
1029 1113 1111 0
1031 1113 1029 0
1114 1032 1112 0
1112 1032 1030 0
1115 1032 1114 0
1033 1032 1115 0
1113 1034 1116 0
1031 1034 1113 0
1116 1034 1117 0
1117 1034 1035 0
1118 1036 1115 0
1115 1036 1033 0
1119 1036 1118 0
1037 1036 1119 0
1117 1038 1120 0
1035 1038 1117 0
1122 1120 1038 0
1122 1038 1039 0
1122 1039 1121 0
1121 1123 1122 0
1122 1123 1124 0
1123 1125 1124 0
1124 1125 1126 0
1126 1125 1127 0
1128 1040 1129 0
1129 1040 1041 0
1037 1129 1041 0
1119 1129 1037 0
1121 1039 1042 0
1042 1123 1121 0
1043 1123 1042 0
1043 1125 1123 0
1044 1125 1043 0
1044 1046 1130 0
1125 1044 1130 0
1127 1125 1130 0
1130 1047 1131 0
1046 1047 1130 0
1131 1048 1132 0
1047 1048 1131 0
1040 1132 1048 0
1128 1132 1040 0
1054 1053 1133 0
1135 1055 1054 0
1134 1135 1054 0
1133 1134 1054 0
1136 1055 1135 0
1056 1055 1136 0
1137 1056 1136 0
1057 1056 1137 0
1139 1058 1138 0
1059 1058 1139 0
1059 1139 1140 0
1059 1140 1133 0
1059 1133 1053 0
1140 1134 1133 0
1141 1060 1137 0
1137 1060 1057 0
1142 1060 1141 0
1062 1060 1142 0
1143 1062 1142 0
1064 1062 1143 0
1144 1064 1143 0
1065 1064 1144 0
1067 1066 1145 0
1146 1138 1058 0
1146 1058 1067 0
1146 1067 1145 0
1068 1144 1147 0
1065 1144 1068 0
1148 1066 1069 0
1145 1066 1148 0
1145 1148 1146 0
1146 1148 1149 0
1070 1147 1150 0
1068 1147 1070 0
1069 1071 1151 0
1148 1069 1151 0
1152 1148 1151 0
1152 1149 1148 0
1072 1150 1153 0
1070 1150 1072 0
1155 1074 1154 0
1075 1074 1155 0
1075 1155 1071 0
1071 1155 1151 0
1076 1153 1156 0
1072 1153 1076 0
1158 1077 1157 0
1078 1077 1158 0
1078 1158 1074 0
1074 1158 1154 0
1079 1156 1159 0
1076 1156 1079 0
1077 1160 1157 0
1080 1160 1077 0
1081 1159 1161 0
1079 1159 1081 0
1163 1082 1162 0
1083 1082 1163 0
1083 1163 1080 0
1080 1163 1160 0
1084 1161 1164 0
1081 1161 1084 0
1082 1165 1162 0
1085 1165 1082 0
1166 1086 1087 0
1167 1166 1088 0
1088 1166 1087 0
1084 1164 1168 0
1088 1084 1168 0
1167 1088 1168 0
1085 1169 1165 0
1089 1169 1085 0
1170 1090 1086 0
1170 1086 1166 0
1170 1166 1171 0
1166 1172 1171 0
1167 1172 1166 0
1167 1168 1172 0
1089 1173 1169 0
1091 1173 1089 0
1174 1092 1093 0
1175 1174 1094 0
1094 1174 1093 0
1090 1170 1176 0
1094 1090 1176 0
1175 1094 1176 0
1091 1177 1173 0
1095 1177 1091 0
1178 1096 1092 0
1178 1092 1174 0
1178 1174 1179 0
1174 1180 1179 0
1175 1180 1174 0
1175 1176 1180 0
1095 1181 1177 0
1097 1181 1095 0
1098 1178 1182 0
1096 1178 1098 0
1184 1099 1183 0
1100 1099 1184 0
1185 1100 1184 0
1101 1100 1185 0
1101 1185 1097 0
1097 1185 1181 0
1103 1182 1186 0
1098 1182 1103 0
1099 1187 1183 0
1104 1187 1099 0
1188 1106 1107 0
1103 1186 1189 0
1107 1103 1189 0
1188 1107 1189 0
1104 1190 1187 0
1108 1190 1104 0
1191 1109 1110 0
1188 1192 1191 0
1188 1191 1110 0
1188 1110 1106 0
1189 1192 1188 0
1193 1192 1189 0
1108 1194 1190 0
1111 1194 1108 0
1112 1109 1195 0
1195 1109 1191 0
1195 1191 1192 0
1196 1195 1192 0
1197 1196 1192 0
1192 1193 1197 0
1111 1198 1194 0
1113 1198 1111 0
1114 1112 1195 0
1196 1199 1115 0
1195 1196 1115 0
1114 1195 1115 0
1198 1116 1200 0
1113 1116 1198 0
1200 1116 1201 0
1201 1116 1117 0
1115 1199 1203 0
1115 1203 1202 0
1115 1202 1118 0
1118 1202 1119 0
1201 1120 1204 0
1117 1120 1201 0
1204 1122 1205 0
1120 1122 1204 0
1205 1124 1206 0
1122 1124 1205 0
1206 1126 1207 0
1124 1126 1206 0
1207 1126 1208 0
1208 1126 1127 0
1203 1209 1128 0
1203 1128 1129 0
1203 1129 1202 0
1129 1119 1202 0
1208 1130 1210 0
1127 1130 1208 0
1210 1131 1211 0
1130 1131 1210 0
1211 1132 1212 0
1131 1132 1211 0
1128 1212 1132 0
1209 1212 1128 0
1214 1134 1213 0
1135 1134 1214 0
1215 1135 1214 0
1136 1135 1215 0
1136 1215 1217 0
1137 1136 1217 0
1216 1137 1217 0
1218 1216 1217 0
1220 1138 1219 0
1139 1138 1220 0
1221 1139 1220 0
1140 1139 1221 0
1140 1221 1134 0
1134 1221 1213 0
1141 1137 1216 0
1222 1142 1141 0
1222 1141 1216 0
1222 1216 1218 0
1223 1142 1222 0
1143 1142 1223 0
1224 1143 1223 0
1144 1143 1224 0
1138 1225 1219 0
1146 1225 1138 0
1147 1224 1226 0
1144 1224 1147 0
1146 1227 1225 0
1149 1227 1146 0
1150 1226 1228 0
1147 1226 1150 0
1152 1151 1229 0
1230 1227 1149 0
1230 1149 1152 0
1230 1152 1229 0
1153 1228 1231 0
1150 1228 1153 0
1233 1154 1232 0
1155 1154 1233 0
1155 1233 1234 0
1155 1234 1229 0
1155 1229 1151 0
1234 1230 1229 0
1156 1231 1235 0
1153 1231 1156 0
1158 1157 1236 0
1237 1232 1154 0
1237 1154 1158 0
1237 1158 1236 0
1159 1235 1238 0
1156 1235 1159 0
1157 1160 1239 0
1236 1157 1239 0
1240 1236 1239 0
1240 1237 1236 0
1161 1238 1241 0
1159 1238 1161 0
1243 1162 1242 0
1163 1162 1243 0
1163 1243 1160 0
1160 1243 1239 0
1164 1241 1244 0
1161 1241 1164 0
1162 1245 1242 0
1165 1245 1162 0
1168 1244 1246 0
1164 1244 1168 0
1165 1247 1245 0
1169 1247 1165 0
1248 1170 1249 0
1249 1170 1171 0
1249 1172 1250 0
1171 1172 1249 0
1168 1250 1172 0
1246 1250 1168 0
1169 1251 1247 0
1173 1251 1169 0
1176 1248 1252 0
1170 1248 1176 0
1173 1253 1251 0
1177 1253 1173 0
1254 1178 1179 0
1179 1180 1256 0
1179 1256 1255 0
1179 1255 1254 0
1176 1256 1180 0
1252 1256 1176 0
1177 1257 1253 0
1181 1257 1177 0
1182 1178 1258 0
1258 1178 1254 0
1255 1258 1254 0
1259 1258 1255 0
1261 1183 1260 0
1184 1183 1261 0
1262 1184 1261 0
1185 1184 1262 0
1185 1262 1181 0
1181 1262 1257 0
1263 1186 1182 0
1263 1182 1258 0
1263 1258 1264 0
1258 1259 1264 0
1183 1265 1260 0
1187 1265 1183 0
1189 1263 1266 0
1186 1263 1189 0
1187 1267 1265 0
1190 1267 1187 0
1193 1266 1268 0
1189 1266 1193 0
1190 1269 1267 0
1194 1269 1190 0
1270 1196 1197 0
1193 1268 1271 0
1197 1193 1271 0
1270 1197 1271 0
1194 1272 1269 0
1198 1272 1194 0
1199 1196 1273 0
1273 1196 1270 0
1271 1273 1270 0
1274 1273 1271 0
1272 1200 1275 0
1198 1200 1272 0
1275 1200 1276 0
1276 1200 1201 0
1277 1203 1199 0
1277 1199 1273 0
1277 1273 1278 0
1273 1274 1278 0
1276 1204 1279 0
1201 1204 1276 0
1279 1205 1280 0
1204 1205 1279 0
1280 1206 1281 0
1205 1206 1280 0
1281 1207 1282 0
1206 1207 1281 0
1282 1207 1283 0
1283 1207 1208 0
1285 1284 1286 0
1209 1203 1277 0
1284 1209 1277 0
1286 1284 1277 0
1283 1210 1287 0
1208 1210 1283 0
1287 1211 1288 0
1210 1211 1287 0
1288 1211 1212 0
1285 1288 1212 0
1284 1285 1212 0
1212 1209 1284 0
1290 1213 1289 0
1214 1213 1290 0
1291 1214 1290 0
1215 1214 1291 0
1292 1215 1291 0
1217 1215 1292 0
1293 1217 1292 0
1218 1217 1293 0
1295 1219 1294 0
1220 1219 1295 0
1296 1220 1295 0
1221 1220 1296 0
1221 1296 1213 0
1213 1296 1289 0
1297 1222 1293 0
1293 1222 1218 0
1298 1222 1297 0
1223 1222 1298 0
1299 1223 1298 0
1224 1223 1299 0
1219 1300 1294 0
1225 1300 1219 0
1226 1299 1301 0
1224 1299 1226 0
1225 1302 1300 0
1227 1302 1225 0
1228 1301 1303 0
1226 1301 1228 0
1227 1304 1302 0
1230 1304 1227 0
1231 1303 1305 0
1228 1303 1231 0
1307 1232 1306 0
1233 1232 1307 0
1308 1233 1307 0
1234 1233 1308 0
1234 1308 1230 0
1230 1308 1304 0
1235 1231 1305 0
1235 1305 1310 0
1235 1310 1309 0
1311 1309 1310 0
1232 1312 1306 0
1237 1312 1232 0
1238 1235 1313 0
1313 1235 1309 0
1311 1313 1309 0
1314 1313 1311 0
1316 1239 1315 0
1240 1239 1316 0
1240 1316 1237 0
1237 1316 1312 0
1317 1241 1238 0
1317 1238 1313 0
1317 1313 1318 0
1313 1314 1318 0
1320 1242 1319 0
1243 1242 1320 0
1243 1320 1239 0
1239 1320 1315 0
1244 1317 1321 0
1241 1317 1244 0
1242 1322 1319 0
1245 1322 1242 0
1246 1321 1323 0
1244 1321 1246 0
1245 1324 1322 0
1247 1324 1245 0
1325 1248 1326 0
1326 1248 1249 0
1326 1250 1327 0
1249 1250 1326 0
1246 1327 1250 0
1323 1327 1246 0
1247 1328 1324 0
1251 1328 1247 0
1252 1325 1329 0
1248 1325 1252 0
1251 1330 1328 0
1253 1330 1251 0
1331 1255 1332 0
1332 1255 1256 0
1252 1332 1256 0
1329 1332 1252 0
1335 1333 1334 0
1330 1253 1257 0
1330 1257 1333 0
1330 1333 1335 0
1259 1331 1336 0
1255 1331 1259 0
1338 1260 1337 0
1261 1260 1338 0
1262 1261 1338 0
1262 1338 1334 0
1262 1334 1333 0
1333 1257 1262 0
1339 1263 1340 0
1340 1263 1264 0
1259 1340 1264 0
1336 1340 1259 0
1260 1341 1337 0
1265 1341 1260 0
1266 1339 1342 0
1263 1339 1266 0
1265 1343 1341 0
1267 1343 1265 0
1268 1342 1344 0
1266 1342 1268 0
1267 1345 1343 0
1269 1345 1267 0
1271 1344 1346 0
1268 1344 1271 0
1345 1269 1272 0
1348 1345 1272 0
1347 1348 1272 0
1348 1347 1349 0
1274 1346 1350 0
1271 1346 1274 0
1347 1272 1275 0
1276 1351 1349 0
1276 1349 1347 0
1276 1347 1275 0
1352 1277 1278 0
1274 1350 1353 0
1278 1274 1353 0
1352 1278 1353 0
1351 1279 1354 0
1276 1279 1351 0
1354 1280 1355 0
1279 1280 1354 0
1355 1281 1356 0
1280 1281 1355 0
1356 1282 1357 0
1281 1282 1356 0
1357 1282 1358 0
1358 1282 1283 0
1360 1359 1361 0
1286 1362 1361 0
1286 1361 1359 0
1286 1359 1285 0
1363 1362 1286 0
1352 1363 1286 0
1277 1352 1286 0
1352 1353 1363 0
1358 1287 1364 0
1283 1287 1358 0
1364 1287 1288 0
1360 1364 1288 0
1359 1360 1288 0
1288 1285 1359 0
1366 1289 1365 0
1290 1289 1366 0
1367 1290 1366 0
1291 1290 1367 0
1368 1291 1367 0
1292 1291 1368 0
1369 1292 1368 0
1293 1292 1369 0
1371 1294 1370 0
1295 1294 1371 0
1372 1295 1371 0
1296 1295 1372 0
1296 1372 1289 0
1289 1372 1365 0
1373 1297 1369 0
1369 1297 1293 0
1374 1297 1373 0
1298 1297 1374 0
1375 1298 1374 0
1299 1298 1375 0
1294 1376 1370 0
1300 1376 1294 0
1301 1375 1377 0
1299 1375 1301 0
1300 1378 1376 0
1302 1378 1300 0
1303 1377 1379 0
1301 1377 1303 0
1302 1380 1378 0
1304 1380 1302 0
1305 1303 1379 0
1305 1379 1382 0
1305 1382 1381 0
1382 1383 1381 0
1384 1383 1382 0
1385 1383 1384 0
1307 1306 1386 0
1388 1308 1307 0
1387 1388 1307 0
1386 1387 1307 0
1308 1388 1304 0
1304 1388 1380 0
1310 1305 1381 0
1381 1383 1389 0
1381 1389 1311 0
1381 1311 1310 0
1385 1389 1383 0
1390 1389 1385 0
1391 1306 1312 0
1386 1306 1391 0
1386 1391 1387 0
1387 1391 1392 0
1314 1311 1393 0
1393 1311 1389 0
1390 1393 1389 0
1394 1393 1390 0
1396 1315 1395 0
1316 1315 1396 0
1316 1396 1397 0
1316 1397 1391 0
1316 1391 1312 0
1397 1392 1391 0
1398 1317 1399 0
1399 1317 1318 0
1400 1399 1318 0
1393 1400 1318 0
1314 1393 1318 0
1393 1394 1400 0
1402 1319 1401 0
1320 1319 1402 0
1320 1402 1315 0
1315 1402 1395 0
1321 1398 1403 0
1317 1398 1321 0
1319 1404 1401 0
1322 1404 1319 0
1323 1403 1405 0
1321 1403 1323 0
1322 1406 1404 0
1324 1406 1322 0
1407 1325 1326 0
1408 1407 1327 0
1327 1407 1326 0
1323 1405 1409 0
1327 1323 1409 0
1408 1327 1409 0
1324 1410 1406 0
1328 1410 1324 0
1329 1325 1411 0
1411 1325 1407 0
1412 1407 1408 0
1411 1407 1412 0
1409 1412 1408 0
1413 1412 1409 0
1416 1414 1415 0
1410 1328 1330 0
1410 1330 1414 0
1410 1414 1416 0
1417 1331 1332 0
1418 1411 1419 0
1418 1417 1411 0
1417 1329 1411 0
1332 1329 1417 0
1411 1420 1419 0
1412 1420 1411 0
1412 1413 1420 0
1423 1421 1422 0
1415 1421 1423 0
1415 1414 1421 0
1414 1334 1421 0
1335 1334 1414 0
1414 1330 1335 0
1336 1331 1424 0
1424 1331 1417 0
1418 1424 1417 0
1425 1424 1418 0
1337 1426 1422 0
1338 1337 1422 0
1421 1338 1422 0
1421 1334 1338 0
1427 1339 1340 0
1424 1428 1427 0
1424 1427 1340 0
1424 1340 1336 0
1425 1428 1424 0
1429 1428 1425 0
1337 1430 1426 0
1341 1430 1337 0
1431 1342 1339 0
1431 1339 1427 0
1431 1427 1432 0
1427 1433 1432 0
1428 1433 1427 0
1428 1429 1433 0
1341 1434 1430 0
1343 1434 1341 0
1344 1431 1435 0
1342 1431 1344 0
1343 1436 1434 0
1345 1436 1343 0
1346 1435 1437 0
1344 1435 1346 0
1436 1348 1438 0
1345 1348 1436 0
1440 1438 1348 0
1440 1348 1349 0
1440 1349 1439 0
1440 1439 1441 0
1350 1437 1442 0
1346 1437 1350 0
1443 1349 1351 0
1439 1349 1443 0
1439 1443 1444 0
1439 1444 1445 0
1439 1445 1441 0
1444 1446 1445 0
1445 1446 1447 0
1446 1448 1447 0
1447 1448 1449 0
1448 1450 1449 0
1449 1450 1451 0
1450 1452 1451 0
1451 1452 1453 0
1453 1452 1454 0
1353 1442 1455 0
1350 1442 1353 0
1443 1351 1354 0
1354 1444 1443 0
1355 1444 1354 0
1355 1446 1444 0
1356 1446 1355 0
1356 1448 1446 0
1357 1448 1356 0
1456 1450 1448 0
1358 1456 1448 0
1357 1358 1448 0
1452 1450 1456 0
1361 1452 1456 0
1360 1361 1456 0
1361 1362 1457 0
1452 1361 1457 0
1454 1452 1457 0
1457 1363 1458 0
1362 1363 1457 0
1353 1458 1363 0
1455 1458 1353 0
1456 1358 1364 0
1364 1360 1456 0
1460 1365 1459 0
1366 1365 1460 0
1461 1366 1460 0
1367 1366 1461 0
1462 1367 1461 0
1368 1367 1462 0
1368 1462 1464 0
1369 1368 1464 0
1463 1369 1464 0
1464 1465 1463 0
1466 1465 1464 0
1467 1465 1466 0
1371 1370 1468 0
1372 1468 1469 0
1371 1468 1372 0
1470 1459 1365 0
1470 1365 1372 0
1470 1372 1469 0
1373 1369 1463 0
1463 1465 1373 0
1373 1465 1374 0
1467 1471 1375 0
1465 1467 1375 0
1374 1465 1375 0
1370 1376 1472 0
1468 1370 1472 0
1473 1468 1472 0
1473 1474 1468 0
1468 1474 1469 0
1474 1470 1469 0
1377 1471 1475 0
1375 1471 1377 0
1376 1476 1472 0
1378 1476 1376 0
1379 1377 1475 0
1379 1475 1478 0
1379 1478 1477 0
1479 1477 1478 0
1378 1480 1476 0
1380 1480 1378 0
1382 1379 1477 0
1481 1384 1382 0
1481 1382 1477 0
1481 1477 1479 0
1482 1384 1481 0
1385 1384 1482 0
1388 1387 1483 0
1484 1480 1380 0
1484 1380 1388 0
1484 1388 1483 0
1390 1482 1485 0
1385 1482 1390 0
1387 1392 1486 0
1483 1387 1486 0
1487 1483 1486 0
1487 1484 1483 0
1489 1488 1490 0
1394 1390 1485 0
1488 1394 1485 0
1490 1488 1485 0
1492 1395 1491 0
1396 1395 1492 0
1493 1396 1492 0
1397 1396 1493 0
1397 1493 1392 0
1392 1493 1486 0
1494 1398 1399 0
1489 1495 1488 0
1495 1400 1488 0
1495 1494 1400 0
1494 1399 1400 0
1400 1394 1488 0
1497 1401 1496 0
1402 1401 1497 0
1402 1497 1395 0
1395 1497 1491 0
1403 1398 1498 0
1498 1398 1494 0
1495 1498 1494 0
1499 1498 1495 0
1401 1500 1496 0
1404 1500 1401 0
1405 1403 1501 0
1501 1403 1498 0
1499 1501 1498 0
1502 1501 1499 0
1404 1503 1500 0
1406 1503 1404 0
1504 1409 1405 0
1504 1405 1501 0
1504 1501 1505 0
1501 1502 1505 0
1406 1506 1503 0
1410 1506 1406 0
1508 1507 1509 0
1413 1409 1504 0
1507 1413 1504 0
1509 1507 1504 0
1511 1415 1510 0
1416 1415 1511 0
1416 1511 1410 0
1410 1511 1506 0
1512 1418 1513 0
1513 1418 1419 0
1513 1419 1420 0
1508 1513 1420 0
1507 1508 1420 0
1420 1413 1507 0
1515 1422 1514 0
1423 1422 1515 0
1423 1515 1415 0
1415 1515 1510 0
1425 1512 1516 0
1418 1512 1425 0
1422 1517 1514 0
1426 1517 1422 0
1429 1516 1518 0
1425 1516 1429 0
1426 1519 1517 0
1430 1519 1426 0
1520 1431 1432 0
1432 1433 1522 0
1432 1522 1521 0
1432 1521 1520 0
1429 1522 1433 0
1518 1522 1429 0
1519 1430 1434 0
1524 1519 1434 0
1523 1524 1434 0
1524 1523 1525 0
1435 1431 1526 0
1526 1431 1520 0
1521 1526 1520 0
1527 1526 1521 0
1528 1434 1436 0
1523 1434 1528 0
1523 1528 1529 0
1523 1529 1530 0
1523 1530 1525 0
1530 1529 1531 0
1437 1435 1532 0
1532 1435 1526 0
1527 1532 1526 0
1533 1532 1527 0
1528 1436 1438 0
1438 1529 1528 0
1440 1529 1438 0
1441 1534 1531 0
1441 1531 1529 0
1441 1529 1440 0
1442 1437 1535 0
1535 1437 1532 0
1533 1535 1532 0
1536 1535 1533 0
1534 1445 1537 0
1441 1445 1534 0
1537 1447 1538 0
1445 1447 1537 0
1538 1449 1539 0
1447 1449 1538 0
1539 1449 1451 0
1539 1451 1540 0
1539 1540 1541 0
1542 1540 1453 0
1453 1540 1451 0
1454 1542 1453 0
1455 1442 1543 0
1543 1442 1535 0
1536 1543 1535 0
1544 1543 1536 0
1541 1540 1545 0
1540 1546 1545 0
1542 1546 1540 0
1457 1547 1546 0
1454 1457 1546 0
1542 1454 1546 0
1547 1457 1458 0
1547 1458 1548 0
1547 1548 1549 0
1543 1550 1548 0
1543 1548 1458 0
1543 1458 1455 0
1544 1550 1543 0
1551 1550 1544 0
1549 1548 1552 0
1548 1553 1552 0
1550 1553 1548 0
1550 1551 1553 0
1555 1459 1554 0
1460 1459 1555 0
1556 1460 1555 0
1461 1460 1556 0
1557 1461 1556 0
1462 1461 1557 0
1558 1462 1557 0
1464 1462 1558 0
1559 1464 1558 0
1466 1464 1559 0
1560 1466 1559 0
1467 1466 1560 0
1459 1561 1554 0
1470 1561 1459 0
1471 1560 1562 0
1467 1560 1471 0
1564 1472 1563 0
1473 1472 1564 0
1565 1473 1564 0
1474 1473 1565 0
1474 1565 1470 0
1470 1565 1561 0
1475 1562 1566 0
1471 1562 1475 0
1472 1567 1563 0
1476 1567 1472 0
1568 1478 1566 0
1566 1478 1475 0
1569 1478 1568 0
1479 1478 1569 0
1476 1570 1567 0
1480 1570 1476 0
1479 1569 1572 0
1479 1572 1571 0
1479 1571 1481 0
1481 1571 1482 0
1480 1573 1570 0
1484 1573 1480 0
1572 1575 1571 0
1571 1575 1574 0
1571 1485 1482 0
1574 1485 1571 0
1487 1486 1576 0
1577 1573 1484 0
1577 1484 1487 0
1577 1487 1576 0
1575 1578 1489 0
1575 1489 1490 0
1575 1490 1574 0
1490 1485 1574 0
1492 1491 1579 0
1493 1579 1580 0
1492 1579 1493 0
1580 1581 1576 0
1493 1580 1576 0
1486 1493 1576 0
1576 1581 1577 0
1577 1581 1582 0
1495 1578 1583 0
1489 1578 1495 0
1497 1496 1584 0
1584 1585 1579 0
1497 1584 1579 0
1491 1497 1579 0
1580 1579 1585 0
1580 1585 1586 0
1580 1586 1587 0
1587 1588 1580 0
1580 1588 1581 0
1588 1582 1581 0
1499 1583 1589 0
1495 1583 1499 0
1590 1496 1500 0
1584 1496 1590 0
1590 1585 1584 0
1591 1585 1590 0
1585 1591 1586 0
1586 1591 1592 0
1502 1589 1593 0
1499 1589 1502 0
1500 1503 1594 0
1590 1500 1594 0
1595 1590 1594 0
1595 1596 1590 0
1590 1596 1591 0
1596 1592 1591 0
1597 1504 1598 0
1598 1504 1505 0
1502 1598 1505 0
1593 1598 1502 0
1503 1599 1594 0
1506 1599 1503 0
1600 1508 1509 0
1504 1597 1601 0
1509 1504 1601 0
1600 1509 1601 0
1511 1510 1602 0
1603 1599 1506 0
1603 1506 1511 0
1603 1511 1602 0
1604 1512 1513 0
1600 1605 1604 0
1600 1604 1513 0
1600 1513 1508 0
1601 1605 1600 0
1606 1605 1601 0
1515 1514 1607 0
1607 1608 1602 0
1515 1607 1602 0
1510 1515 1602 0
1602 1608 1603 0
1603 1608 1609 0
1516 1512 1610 0
1610 1512 1604 0
1611 1604 1605 0
1610 1604 1611 0
1606 1611 1605 0
1612 1611 1606 0
1613 1514 1517 0
1607 1514 1613 0
1608 1607 1613 0
1608 1613 1614 0
1608 1614 1615 0
1615 1609 1608 0
1518 1516 1616 0
1616 1516 1610 0
1617 1610 1611 0
1616 1610 1617 0
1612 1617 1611 0
1618 1617 1612 0
1619 1517 1519 0
1613 1517 1619 0
1613 1619 1614 0
1614 1619 1620 0
1621 1521 1522 0
1616 1622 1621 0
1616 1621 1522 0
1616 1522 1518 0
1623 1616 1617 0
1622 1616 1623 0
1618 1623 1617 0
1624 1623 1618 0
1619 1519 1524 0
1619 1626 1620 0
1619 1524 1626 0
1524 1625 1626 0
1525 1625 1524 0
1626 1625 1627 0
1628 1527 1521 0
1628 1521 1621 0
1628 1621 1629 0
1621 1630 1629 0
1622 1630 1621 0
1622 1631 1630 0
1623 1631 1622 0
1623 1624 1631 0
1625 1525 1530 0
1531 1632 1627 0
1531 1627 1625 0
1531 1625 1530 0
1533 1628 1633 0
1527 1628 1533 0
1531 1634 1632 0
1534 1634 1531 0
1536 1633 1635 0
1533 1633 1536 0
1634 1537 1636 0
1534 1537 1634 0
1636 1538 1637 0
1537 1538 1636 0
1637 1539 1638 0
1538 1539 1637 0
1638 1539 1639 0
1639 1539 1541 0
1544 1635 1640 0
1536 1635 1544 0
1639 1545 1641 0
1541 1545 1639 0
1641 1545 1546 0
1641 1546 1642 0
1641 1642 1643 0
1546 1547 1645 0
1546 1645 1644 0
1546 1644 1642 0
1645 1547 1646 0
1646 1547 1549 0
1551 1640 1647 0
1544 1640 1551 0
1643 1642 1648 0
1642 1644 1648 0
1646 1552 1649 0
1549 1552 1646 0
1649 1553 1650 0
1552 1553 1649 0
1551 1650 1553 0
1647 1650 1551 0
1652 1554 1651 0
1555 1554 1652 0
1653 1555 1652 0
1556 1555 1653 0
1654 1556 1653 0
1557 1556 1654 0
1655 1557 1654 0
1558 1557 1655 0
1656 1558 1655 0
1559 1558 1656 0
1657 1559 1656 0
1560 1559 1657 0
1554 1658 1651 0
1561 1658 1554 0
1562 1657 1659 0
1560 1657 1562 0
1564 1563 1660 0
1662 1565 1564 0
1661 1662 1564 0
1660 1661 1564 0
1565 1662 1561 0
1561 1662 1658 0
1566 1659 1663 0
1562 1659 1566 0
1664 1563 1567 0
1660 1563 1664 0
1660 1664 1661 0
1661 1664 1665 0
1666 1568 1663 0
1663 1568 1566 0
1667 1568 1666 0
1569 1568 1667 0
1567 1570 1668 0
1664 1567 1668 0
1669 1664 1668 0
1669 1665 1664 0
1572 1667 1670 0
1569 1667 1572 0
1570 1671 1668 0
1573 1671 1570 0
1575 1572 1670 0
1575 1670 1673 0
1575 1673 1672 0
1674 1672 1673 0
1573 1675 1671 0
1577 1675 1573 0
1578 1575 1676 0
1676 1575 1672 0
1674 1676 1672 0
1677 1676 1674 0
1577 1678 1675 0
1582 1678 1577 0
1583 1578 1679 0
1679 1578 1676 0
1677 1679 1676 0
1680 1679 1677 0
1682 1586 1681 0
1587 1586 1682 0
1683 1587 1682 0
1588 1587 1683 0
1588 1683 1582 0
1582 1683 1678 0
1589 1583 1684 0
1684 1583 1679 0
1680 1684 1679 0
1685 1684 1680 0
1586 1686 1681 0
1592 1686 1586 0
1687 1593 1589 0
1687 1589 1684 0
1687 1684 1688 0
1684 1685 1688 0
1690 1594 1689 0
1595 1594 1690 0
1691 1595 1690 0
1596 1595 1691 0
1596 1691 1592 0
1592 1691 1686 0
1692 1597 1598 0
1593 1687 1693 0
1598 1593 1693 0
1692 1598 1693 0
1594 1694 1689 0
1599 1694 1594 0
1695 1601 1597 0
1695 1597 1692 0
1695 1692 1696 0
1692 1693 1696 0
1599 1697 1694 0
1603 1697 1599 0
1606 1695 1698 0
1601 1695 1606 0
1603 1699 1697 0
1609 1699 1603 0
1612 1698 1700 0
1606 1698 1612 0
1615 1614 1701 0
1702 1699 1609 0
1702 1609 1615 0
1702 1615 1701 0
1618 1700 1703 0
1612 1700 1618 0
1704 1614 1620 0
1701 1614 1704 0
1701 1704 1702 0
1702 1704 1705 0
1624 1703 1706 0
1618 1703 1624 0
1704 1620 1626 0
1627 1707 1705 0
1627 1705 1704 0
1627 1704 1626 0
1708 1628 1629 0
1709 1708 1630 0
1630 1708 1629 0
1710 1709 1631 0
1631 1709 1630 0
1624 1706 1711 0
1631 1624 1711 0
1710 1631 1711 0
1627 1712 1707 0
1632 1712 1627 0
1633 1628 1713 0
1713 1628 1708 0
1714 1708 1709 0
1713 1708 1714 0
1715 1709 1710 0
1714 1709 1715 0
1711 1715 1710 0
1716 1715 1711 0
1712 1632 1634 0
1718 1712 1634 0
1717 1718 1634 0
1717 1719 1718 0
1718 1719 1720 0
1719 1721 1720 0
1720 1721 1722 0
1721 1723 1722 0
1722 1723 1724 0
1724 1723 1725 0
1635 1633 1726 0
1726 1633 1713 0
1727 1713 1714 0
1726 1713 1727 0
1728 1714 1715 0
1727 1714 1728 0
1716 1728 1715 0
1729 1728 1716 0
1717 1634 1636 0
1636 1719 1717 0
1637 1719 1636 0
1637 1721 1719 0
1638 1721 1637 0
1730 1723 1721 0
1639 1730 1721 0
1638 1639 1721 0
1723 1730 1725 0
1725 1730 1731 0
1640 1635 1732 0
1732 1635 1726 0
1733 1726 1727 0
1732 1726 1733 0
1734 1727 1728 0
1733 1727 1734 0
1735 1734 1728 0
1736 1735 1728 0
1729 1736 1728 0
1737 1735 1736 0
1730 1639 1641 0
1730 1739 1731 0
1730 1641 1739 0
1641 1738 1739 0
1643 1738 1641 0
1645 1740 1741 0
1645 1741 1739 0
1644 1645 1739 0
1738 1644 1739 0
1646 1740 1645 0
1647 1640 1742 0
1742 1640 1732 0
1743 1732 1733 0
1742 1732 1743 0
1744 1733 1734 0
1743 1733 1744 0
1745 1734 1735 0
1744 1734 1745 0
1737 1745 1735 0
1746 1745 1737 0
1738 1643 1648 0
1648 1644 1738 0
1747 1741 1740 0
1649 1748 1747 0
1646 1649 1747 0
1740 1646 1747 0
1748 1649 1650 0
1748 1650 1749 0
1748 1749 1750 0
1742 1751 1749 0
1742 1749 1650 0
1742 1650 1647 0
1751 1742 1743 0
1752 1751 1743 0
1753 1752 1743 0
1743 1754 1753 0
1744 1754 1743 0
1744 1755 1754 0
1745 1755 1744 0
1745 1746 1755 0
1750 1749 1756 0
1749 1757 1756 0
1751 1757 1749 0
1751 1752 1757 0
1759 1651 1758 0
1652 1651 1759 0
1760 1652 1759 0
1653 1652 1760 0
1761 1653 1760 0
1654 1653 1761 0
1762 1654 1761 0
1655 1654 1762 0
1763 1655 1762 0
1656 1655 1763 0
1764 1656 1763 0
1657 1656 1764 0
1651 1765 1758 0
1658 1765 1651 0
1659 1764 1766 0
1657 1764 1659 0
1662 1661 1767 0
1768 1765 1658 0
1768 1658 1662 0
1768 1662 1767 0
1663 1766 1769 0
1659 1766 1663 0
1661 1665 1770 0
1767 1661 1770 0
1771 1767 1770 0
1771 1768 1767 0
1772 1666 1769 0
1769 1666 1663 0
1773 1666 1772 0
1667 1666 1773 0
1775 1668 1774 0
1669 1668 1775 0
1669 1775 1665 0
1665 1775 1770 0
1670 1773 1776 0
1667 1773 1670 0
1668 1777 1774 0
1671 1777 1668 0
1778 1673 1776 0
1776 1673 1670 0
1779 1673 1778 0
1674 1673 1779 0
1671 1780 1777 0
1675 1780 1671 0
1677 1779 1781 0
1674 1779 1677 0
1675 1782 1780 0
1678 1782 1675 0
1680 1781 1783 0
1677 1781 1680 0
1682 1681 1784 0
1786 1683 1682 0
1785 1786 1682 0
1784 1785 1682 0
1683 1786 1678 0
1678 1786 1782 0
1685 1783 1787 0
1680 1783 1685 0
1681 1686 1788 0
1784 1681 1788 0
1789 1784 1788 0
1789 1785 1784 0
1790 1687 1791 0
1791 1687 1688 0
1685 1791 1688 0
1787 1791 1685 0
1793 1689 1792 0
1690 1689 1793 0
1794 1690 1793 0
1691 1690 1794 0
1691 1794 1686 0
1686 1794 1788 0
1693 1790 1795 0
1687 1790 1693 0
1689 1796 1792 0
1694 1796 1689 0
1797 1695 1696 0
1693 1795 1798 0
1696 1693 1798 0
1797 1696 1798 0
1694 1799 1796 0
1697 1799 1694 0
1698 1695 1800 0
1800 1695 1797 0
1798 1800 1797 0
1801 1800 1798 0
1697 1802 1799 0
1699 1802 1697 0
1700 1698 1803 0
1803 1698 1800 0
1801 1803 1800 0
1804 1803 1801 0
1699 1805 1802 0
1702 1805 1699 0
1703 1700 1806 0
1806 1700 1803 0
1804 1806 1803 0
1807 1806 1804 0
1702 1808 1805 0
1705 1808 1702 0
1706 1703 1809 0
1809 1703 1806 0
1807 1809 1806 0
1810 1809 1807 0
1705 1811 1808 0
1707 1811 1705 0
1711 1706 1812 0
1812 1706 1809 0
1810 1812 1809 0
1813 1812 1810 0
1707 1814 1811 0
1712 1814 1707 0
1716 1711 1815 0
1815 1711 1812 0
1816 1815 1812 0
1817 1816 1812 0
1813 1817 1812 0
1818 1816 1817 0
1814 1718 1819 0
1712 1718 1814 0
1819 1720 1820 0
1718 1720 1819 0
1820 1722 1821 0
1720 1722 1820 0
1821 1724 1822 0
1722 1724 1821 0
1822 1724 1823 0
1823 1724 1725 0
1729 1716 1824 0
1824 1716 1815 0
1825 1815 1816 0
1824 1815 1825 0
1818 1825 1816 0
1826 1825 1818 0
1823 1725 1731 0
1828 1823 1731 0
1827 1828 1731 0
1827 1829 1828 0
1828 1829 1830 0
1830 1829 1831 0
1736 1729 1824 0
1824 1825 1832 0
1824 1832 1737 0
1824 1737 1736 0
1826 1832 1825 0
1833 1832 1826 0
1827 1731 1739 0
1834 1829 1827 0
1741 1834 1827 0
1739 1741 1827 0
1829 1834 1835 0
1829 1835 1836 0
1829 1836 1831 0
1836 1835 1837 0
1746 1737 1838 0
1838 1737 1832 0
1833 1838 1832 0
1839 1838 1833 0
1834 1741 1747 0
1747 1835 1834 0
1748 1835 1747 0
1750 1840 1837 0
1750 1837 1835 0
1750 1835 1748 0
1842 1841 1843 0
1753 1844 1843 0
1753 1843 1841 0
1753 1841 1752 0
1844 1754 1845 0
1753 1754 1844 0
1845 1755 1846 0
1754 1755 1845 0
1847 1846 1755 0
1838 1847 1755 0
1746 1838 1755 0
1838 1839 1847 0
1840 1756 1848 0
1750 1756 1840 0
1848 1756 1757 0
1842 1848 1757 0
1841 1842 1757 0
1757 1752 1841 0
1759 1758 1849 0
1851 1760 1759 0
1850 1851 1759 0
1849 1850 1759 0
1852 1760 1851 0
1761 1760 1852 0
1853 1761 1852 0
1762 1761 1853 0
1854 1762 1853 0
1763 1762 1854 0
1855 1763 1854 0
1764 1763 1855 0
1758 1765 1856 0
1849 1758 1856 0
1857 1849 1856 0
1857 1850 1849 0
1766 1855 1858 0
1764 1855 1766 0
1765 1859 1856 0
1768 1859 1765 0
1769 1858 1860 0
1766 1858 1769 0
1862 1770 1861 0
1771 1770 1862 0
1771 1862 1768 0
1768 1862 1859 0
1863 1772 1860 0
1860 1772 1769 0
1864 1772 1863 0
1773 1772 1864 0
1866 1774 1865 0
1775 1774 1866 0
1775 1866 1770 0
1770 1866 1861 0
1776 1864 1867 0
1773 1864 1776 0
1774 1868 1865 0
1777 1868 1774 0
1869 1778 1867 0
1867 1778 1776 0
1778 1869 1871 0
1779 1778 1871 0
1870 1779 1871 0
1872 1870 1871 0
1777 1873 1868 0
1780 1873 1777 0
1781 1779 1874 0
1874 1779 1870 0
1872 1874 1870 0
1875 1874 1872 0
1780 1876 1873 0
1782 1876 1780 0
1783 1781 1877 0
1877 1781 1874 0
1875 1877 1874 0
1878 1877 1875 0
1786 1785 1879 0
1880 1876 1782 0
1880 1782 1786 0
1880 1786 1879 0
1787 1783 1881 0
1881 1783 1877 0
1878 1881 1877 0
1882 1881 1878 0
1789 1788 1883 0
1883 1884 1879 0
1789 1883 1879 0
1785 1789 1879 0
1879 1884 1880 0
1880 1884 1885 0
1886 1790 1791 0
1881 1887 1886 0
1881 1886 1791 0
1881 1791 1787 0
1882 1887 1881 0
1888 1887 1882 0
1793 1792 1889 0
1794 1889 1890 0
1793 1889 1794 0
1890 1891 1883 0
1794 1890 1883 0
1788 1794 1883 0
1891 1884 1883 0
1892 1884 1891 0
1884 1892 1885 0
1885 1892 1893 0
1795 1790 1894 0
1894 1790 1886 0
1895 1886 1887 0
1894 1886 1895 0
1888 1895 1887 0
1896 1895 1888 0
1897 1792 1796 0
1889 1792 1897 0
1897 1890 1889 0
1898 1890 1897 0
1891 1890 1898 0
1891 1898 1899 0
1891 1899 1900 0
1900 1901 1891 0
1891 1901 1892 0
1901 1893 1892 0
1798 1795 1902 0
1902 1795 1894 0
1903 1894 1895 0
1902 1894 1903 0
1896 1903 1895 0
1904 1903 1896 0
1796 1799 1905 0
1897 1796 1905 0
1906 1897 1905 0
1906 1907 1897 0
1897 1907 1898 0
1907 1899 1898 0
1908 1801 1798 0
1908 1798 1902 0
1908 1902 1909 0
1902 1910 1909 0
1903 1910 1902 0
1903 1904 1910 0
1799 1911 1905 0
1802 1911 1799 0
1804 1908 1912 0
1801 1908 1804 0
1802 1913 1911 0
1805 1913 1802 0
1807 1912 1914 0
1804 1912 1807 0
1805 1915 1913 0
1808 1915 1805 0
1810 1914 1916 0
1807 1914 1810 0
1808 1917 1915 0
1811 1917 1808 0
1813 1810 1916 0
1813 1916 1919 0
1813 1919 1918 0
1920 1918 1919 0
1811 1921 1917 0
1814 1921 1811 0
1817 1813 1918 0
1923 1918 1920 0
1923 1922 1918 0
1922 1817 1918 0
1818 1817 1922 0
1924 1922 1923 0
1921 1819 1925 0
1814 1819 1921 0
1925 1820 1926 0
1819 1820 1925 0
1926 1821 1927 0
1820 1821 1926 0
1927 1822 1928 0
1821 1822 1927 0
1930 1928 1822 0
1930 1822 1823 0
1930 1823 1929 0
1929 1931 1930 0
1930 1931 1932 0
1932 1931 1933 0
1826 1818 1934 0
1934 1818 1922 0
1924 1934 1922 0
1935 1934 1924 0
1929 1823 1828 0
1828 1931 1929 0
1830 1931 1828 0
1831 1936 1933 0
1831 1933 1931 0
