#!ascii version of
3584 7168
16 91 18 0
91 92 18 0
18 92 20 0
92 93 20 0
20 93 22 0
93 7 22 0
25 9 102 0
102 9 94 0
103 94 95 0
102 94 103 0
104 95 96 0
103 95 104 0
105 96 97 0
104 96 105 0
98 105 97 0
106 105 98 0
11 107 99 0
27 107 11 0
108 31 32 0
109 108 33 0
33 108 32 0
110 109 34 0
34 109 33 0
111 110 35 0
35 110 34 0
102 112 111 0
102 111 35 0
102 35 25 0
113 102 103 0
112 102 113 0
114 103 104 0
113 103 114 0
115 104 105 0
114 104 115 0
116 115 105 0
117 116 105 0
106 117 105 0
117 118 116 0
119 118 117 0
119 120 118 0
121 120 119 0
121 122 120 0
123 122 121 0
124 122 123 0
27 125 107 0
37 125 27 0
126 40 41 0
108 127 126 0
108 126 41 0
108 41 31 0
128 108 109 0
127 108 128 0
129 109 110 0
128 109 129 0
130 110 111 0
129 110 130 0
131 111 112 0
130 111 131 0
132 112 113 0
131 112 132 0
133 113 114 0
132 113 133 0
134 114 115 0
133 114 134 0
135 115 116 0
134 115 135 0
136 116 118 0
135 116 136 0
137 118 120 0
136 118 137 0
138 120 122 0
137 120 138 0
124 138 122 0
139 138 124 0
37 140 125 0
43 140 37 0
141 45 46 0
126 142 141 0
126 141 46 0
126 46 40 0
143 126 127 0
142 126 143 0
144 127 128 0
143 127 144 0
145 128 129 0
144 128 145 0
146 129 130 0
145 129 146 0
147 130 131 0
146 130 147 0
148 131 132 0
147 131 148 0
149 132 133 0
148 132 149 0
150 133 134 0
149 133 150 0
151 134 135 0
150 134 151 0
152 135 136 0
151 135 152 0
153 136 137 0
152 136 153 0
153 137 138 0
154 153 138 0
155 154 138 0
138 139 155 0
157 140 43 0
156 157 43 0
47 156 43 0
158 156 48 0
48 156 47 0
141 159 158 0
141 158 48 0
141 48 45 0
160 141 142 0
159 141 160 0
161 142 143 0
160 142 161 0
162 143 144 0
161 143 162 0
163 144 145 0
162 144 163 0
164 145 146 0
163 145 164 0
165 146 147 0
164 146 165 0
166 147 148 0
165 147 166 0
167 148 149 0
166 148 167 0
168 149 150 0
167 149 168 0
169 150 151 0
168 150 169 0
170 151 152 0
169 151 170 0
171 152 153 0
170 152 171 0
172 171 153 0
173 172 153 0
154 173 153 0
174 172 173 0
156 176 157 0
175 176 156 0
175 156 158 0
177 175 158 0
178 177 158 0
158 159 179 0
178 158 179 0
180 178 179 0
181 159 160 0
179 159 181 0
182 160 161 0
181 160 182 0
183 161 162 0
182 161 183 0
183 162 163 0
184 183 163 0
185 184 163 0
163 186 185 0
164 186 163 0
164 187 186 0
165 187 164 0
165 166 188 0
187 165 188 0
189 187 188 0
190 166 167 0
188 166 190 0
191 167 168 0
190 167 191 0
192 168 169 0
191 168 192 0
193 169 170 0
192 169 193 0
194 170 171 0
193 170 194 0
195 171 172 0
194 171 195 0
174 195 172 0
196 195 174 0
176 175 197 0
175 177 197 0
180 179 198 0
179 199 198 0
181 199 179 0
181 200 199 0
182 200 181 0
182 201 200 0
183 201 182 0
183 184 201 0
189 188 202 0
188 203 202 0
190 203 188 0
190 204 203 0
191 204 190 0
191 205 204 0
192 205 191 0
192 206 205 0
193 206 192 0
193 207 206 0
194 207 193 0
194 208 207 0
195 208 194 0
195 196 208 0
210 50 209 0
51 50 210 0
211 51 210 0
53 51 211 0
212 53 211 0
55 53 212 0
213 55 212 0
57 55 213 0
214 57 213 0
59 57 214 0
215 59 214 0
61 59 215 0
216 61 215 0
63 61 216 0
63 216 218 0
64 63 218 0
217 64 218 0
218 219 217 0
220 219 218 0
221 219 220 0
224 222 223 0
224 225 222 0
226 225 224 0
209 50 66 0
209 66 225 0
209 225 226 0
74 64 217 0
217 219 74 0
74 219 76 0
228 219 221 0
228 227 219 0
227 76 219 0
77 76 227 0
228 229 227 0
230 229 228 0
230 231 229 0
232 231 230 0
233 231 232 0
222 235 223 0
234 235 222 0
236 222 225 0
234 222 236 0
66 79 225 0
225 79 236 0
87 77 227 0
227 229 237 0
227 237 88 0
227 88 87 0
238 229 231 0
237 229 238 0
233 238 231 0
239 238 233 0
234 241 235 0
240 241 234 0
242 234 236 0
240 234 242 0
79 90 236 0
236 90 242 0
98 88 243 0
243 88 237 0
244 237 238 0
243 237 244 0
245 244 238 0
246 245 238 0
239 246 238 0
246 247 245 0
248 247 246 0
249 247 248 0
99 250 241 0
100 99 241 0
240 100 241 0
240 242 100 0
100 242 101 0
242 90 101 0
106 98 251 0
251 98 243 0
252 243 244 0
251 243 252 0
253 244 245 0
252 244 253 0
254 245 247 0
253 245 254 0
255 254 247 0
256 255 247 0
249 256 247 0
257 255 256 0
99 258 250 0
107 258 99 0
117 106 251 0
251 252 117 0
117 252 119 0
252 253 119 0
119 253 121 0
253 254 121 0
121 254 123 0
254 255 259 0
254 259 124 0
254 124 123 0
257 259 255 0
260 259 257 0
107 261 258 0
125 261 107 0
262 139 124 0
262 124 259 0
262 259 263 0
259 260 263 0
125 264 261 0
140 264 125 0
265 154 155 0
139 262 266 0
155 139 266 0
265 155 266 0
140 267 264 0
157 267 140 0
269 268 173 0
269 173 154 0
270 269 154 0
265 270 154 0
266 270 265 0
174 173 268 0
157 271 267 0
176 271 157 0
272 177 178 0
180 272 178 0
273 184 185 0
274 273 186 0
186 273 185 0
275 274 187 0
187 274 186 0
189 275 187 0
277 276 278 0
276 279 268 0
276 268 269 0
276 269 278 0
268 196 174 0
279 196 268 0
281 271 176 0
280 281 176 0
197 280 176 0
272 282 280 0
272 280 197 0
272 197 177 0
283 282 272 0
283 272 180 0
283 180 198 0
284 283 199 0
199 283 198 0
285 284 200 0
200 284 199 0
286 285 201 0
201 285 200 0
273 287 286 0
273 286 201 0
273 201 184 0
288 273 274 0
287 273 288 0
289 274 275 0
288 274 289 0
290 289 275 0
290 275 189 0
290 189 202 0
291 290 203 0
203 290 202 0
292 291 204 0
204 291 203 0
293 292 205 0
205 292 204 0
294 293 206 0
206 293 205 0
277 295 276 0
295 207 276 0
295 294 207 0
294 206 207 0
207 279 276 0
208 279 207 0
208 196 279 0
281 280 296 0
280 297 296 0
282 297 280 0
282 298 297 0
283 298 282 0
283 299 298 0
284 299 283 0
284 300 299 0
285 300 284 0
285 301 300 0
286 301 285 0
286 302 301 0
287 302 286 0
287 303 302 0
288 303 287 0
288 304 303 0
289 304 288 0
289 305 304 0
290 305 289 0
290 306 305 0
291 306 290 0
291 307 306 0
292 307 291 0
292 308 307 0
293 308 292 0
293 309 308 0
294 309 293 0
294 295 309 0
312 310 311 0
312 313 310 0
314 313 312 0
314 315 313 0
316 315 314 0
316 317 315 0
318 317 316 0
318 319 317 0
320 319 318 0
320 321 319 0
322 321 320 0
322 323 321 0
324 323 322 0
324 325 323 0
326 325 324 0
326 327 325 0
328 327 326 0
328 329 327 0
330 329 328 0
330 331 329 0
332 331 330 0
333 331 332 0
310 335 311 0
334 335 310 0
336 310 313 0
334 310 336 0
337 313 315 0
336 313 337 0
338 315 317 0
337 315 338 0
339 317 319 0
338 317 339 0
340 319 321 0
339 319 340 0
341 321 323 0
340 321 341 0
342 323 325 0
341 323 342 0
343 325 327 0
342 325 343 0
344 327 329 0
343 327 344 0
345 329 331 0
344 329 345 0
333 345 331 0
346 345 333 0
349 347 348 0
334 350 347 0
335 334 347 0
349 335 347 0
351 334 336 0
350 334 351 0
352 336 337 0
351 336 352 0
353 337 338 0
352 337 353 0
354 338 339 0
353 338 354 0
355 339 340 0
354 339 355 0
356 340 341 0
355 340 356 0
357 341 342 0
356 341 357 0
358 342 343 0
357 342 358 0
359 343 344 0
358 343 359 0
360 344 345 0
359 344 360 0
346 360 345 0
361 360 346 0
347 363 348 0
362 363 347 0
364 347 350 0
362 347 364 0
365 350 351 0
364 350 365 0
366 351 352 0
365 351 366 0
367 352 353 0
366 352 367 0
368 353 354 0
367 353 368 0
369 354 355 0
368 354 369 0
370 355 356 0
369 355 370 0
371 356 357 0
370 356 371 0
372 357 358 0
371 357 372 0
373 358 359 0
372 358 373 0
374 359 360 0
373 359 374 0
361 374 360 0
375 374 361 0
378 376 377 0
378 379 376 0
380 379 378 0
363 379 380 0
363 362 379 0
362 209 379 0
210 209 362 0
362 364 210 0
210 364 211 0
364 365 211 0
211 365 212 0
365 366 212 0
212 366 213 0
366 367 213 0
213 367 214 0
367 368 214 0
214 368 215 0
368 369 215 0
215 369 216 0
369 370 216 0
216 370 218 0
370 371 218 0
218 371 220 0
371 372 381 0
371 381 221 0
371 221 220 0
382 372 373 0
381 372 382 0
383 373 374 0
382 373 383 0
375 383 374 0
384 383 375 0
223 385 377 0
224 223 377 0
376 224 377 0
376 379 224 0
224 379 226 0
379 209 226 0
228 221 381 0
381 382 228 0
228 382 230 0
382 383 230 0
230 383 232 0
384 386 233 0
383 384 233 0
232 383 233 0
223 387 385 0
235 387 223 0
239 386 388 0
233 386 239 0
235 389 387 0
241 389 235 0
390 246 388 0
388 246 239 0
391 246 390 0
248 246 391 0
392 248 391 0
249 248 392 0
241 393 389 0
250 393 241 0
394 256 392 0
392 256 249 0
395 256 394 0
257 256 395 0
250 396 393 0
258 396 250 0
260 257 395 0
260 395 398 0
260 398 397 0
399 397 398 0
258 400 396 0
261 400 258 0
401 262 263 0
402 397 403 0
402 401 397 0
401 260 397 0
263 260 401 0
397 399 403 0
261 404 400 0
264 404 261 0
405 266 262 0
405 262 401 0
405 401 406 0
401 402 406 0
264 407 404 0
267 407 264 0
408 269 409 0
409 269 270 0
266 409 270 0
405 409 266 0
267 410 407 0
271 410 267 0
411 277 412 0
412 277 278 0
269 412 278 0
408 412 269 0
271 413 410 0
281 413 271 0
295 411 414 0
277 411 295 0
413 296 415 0
281 296 413 0
415 297 416 0
296 297 415 0
416 297 298 0
416 298 417 0
416 417 418 0
419 417 299 0
299 417 298 0
420 419 300 0
300 419 299 0
421 420 301 0
301 420 300 0
422 421 302 0
302 421 301 0
423 422 303 0
303 422 302 0
424 423 304 0
304 423 303 0
425 424 305 0
305 424 304 0
305 306 427 0
305 427 426 0
305 426 425 0
427 307 428 0
306 307 427 0
428 308 429 0
307 308 428 0
429 309 430 0
308 309 429 0
295 430 309 0
414 430 295 0
418 417 431 0
417 432 431 0
419 432 417 0
419 433 432 0
420 433 419 0
420 434 433 0
421 434 420 0
421 435 434 0
422 435 421 0
422 436 435 0
423 436 422 0
423 437 436 0
424 437 423 0
424 438 437 0
425 438 424 0
425 426 438 0
441 439 440 0
442 439 441 0
439 444 440 0
443 444 439 0
442 443 439 0
445 443 442 0
448 446 447 0
448 449 312 0
446 448 312 0
311 446 312 0
450 312 449 0
314 312 450 0
316 314 450 0
316 450 444 0
316 444 443 0
451 318 316 0
451 316 443 0
451 443 445 0
452 318 451 0
320 318 452 0
453 320 452 0
322 320 453 0
454 322 453 0
324 322 454 0
455 324 454 0
326 324 455 0
456 326 455 0
328 326 456 0
457 328 456 0
330 328 457 0
458 330 457 0
332 330 458 0
332 458 460 0
333 332 460 0
459 333 460 0
461 459 460 0
446 463 447 0
462 463 446 0
311 335 446 0
446 335 462 0
346 333 464 0
464 333 459 0
465 464 459 0
466 465 459 0
461 466 459 0
466 467 465 0
468 467 466 0
469 467 468 0
348 470 463 0
349 348 463 0
462 349 463 0
462 335 349 0
361 346 471 0
471 346 464 0
472 464 465 0
471 464 472 0
473 465 467 0
472 465 473 0
474 473 467 0
475 474 467 0
469 475 467 0
476 474 475 0
348 477 470 0
363 477 348 0
375 361 478 0
478 361 471 0
479 471 472 0
478 471 479 0
480 472 473 0
479 472 480 0
481 473 474 0
480 473 481 0
476 481 474 0
482 481 476 0
484 377 483 0
378 377 484 0
485 378 484 0
380 378 485 0
380 485 363 0
363 485 477 0
384 375 486 0
486 375 478 0
487 478 479 0
486 478 487 0
488 479 480 0
487 479 488 0
489 480 481 0
488 480 489 0
482 489 481 0
490 489 482 0
377 491 483 0
385 491 377 0
386 384 492 0
492 384 486 0
493 486 487 0
492 486 493 0
494 487 488 0
493 487 494 0
495 488 489 0
494 488 495 0
490 495 489 0
496 495 490 0
385 497 491 0
387 497 385 0
388 386 498 0
498 386 492 0
499 492 493 0
498 492 499 0
500 493 494 0
499 493 500 0
501 494 495 0
500 494 501 0
496 501 495 0
502 501 496 0
387 503 497 0
389 503 387 0
390 388 498 0
498 499 390 0
390 499 391 0
499 500 504 0
499 504 392 0
499 392 391 0
505 500 501 0
504 500 505 0
502 505 501 0
506 505 502 0
389 507 503 0
393 507 389 0
394 392 504 0
504 505 508 0
504 508 395 0
504 395 394 0
506 508 505 0
509 508 506 0
393 510 507 0
396 510 393 0
398 395 508 0
509 511 399 0
508 509 399 0
398 508 399 0
396 512 510 0
400 512 396 0
513 402 514 0
514 402 403 0
399 514 403 0
511 514 399 0
400 515 512 0
404 515 400 0
516 405 517 0
517 405 406 0
402 517 406 0
513 517 402 0
404 518 515 0
407 518 404 0
519 408 520 0
520 408 409 0
405 520 409 0
516 520 405 0
407 521 518 0
410 521 407 0
522 411 412 0
408 519 523 0
412 408 523 0
522 412 523 0
521 410 413 0
525 521 413 0
524 525 413 0
525 524 526 0
527 414 411 0
527 411 522 0
527 522 528 0
522 523 528 0
524 413 415 0
526 529 530 0
526 416 529 0
524 416 526 0
415 416 524 0
418 529 416 0
531 426 427 0
532 531 428 0
428 531 427 0
428 429 534 0
428 534 533 0
428 533 532 0
534 430 535 0
429 430 534 0
414 535 430 0
527 535 414 0
530 529 536 0
431 537 536 0
418 431 536 0
529 418 536 0
537 432 538 0
431 432 537 0
538 433 539 0
432 433 538 0
539 434 540 0
433 434 539 0
540 435 541 0
434 435 540 0
541 436 542 0
435 436 541 0
542 437 543 0
436 437 542 0
543 438 544 0
437 438 543 0
545 544 438 0
531 545 438 0
426 531 438 0
531 546 545 0
532 546 531 0
532 533 546 0
549 547 548 0
549 550 547 0
551 550 549 0
552 550 551 0
440 553 548 0
441 440 548 0
547 441 548 0
547 550 554 0
547 554 442 0
547 442 441 0
552 554 550 0
555 554 552 0
440 556 553 0
444 556 440 0
445 442 557 0
557 442 554 0
555 557 554 0
558 557 555 0
560 447 559 0
448 447 560 0
561 448 560 0
449 448 561 0
562 449 561 0
450 449 562 0
450 562 444 0
444 562 556 0
451 445 557 0
563 452 451 0
563 451 557 0
563 557 558 0
564 452 563 0
453 452 564 0
565 453 564 0
454 453 565 0
566 454 565 0
455 454 566 0
567 455 566 0
456 455 567 0
568 456 567 0
457 456 568 0
569 457 568 0
458 457 569 0
570 458 569 0
460 458 570 0
460 570 572 0
461 460 572 0
571 461 572 0
573 571 572 0
447 574 559 0
463 574 447 0
466 461 571 0
575 468 466 0
575 466 571 0
575 571 573 0
576 468 575 0
469 468 576 0
463 577 574 0
470 577 463 0
578 475 576 0
576 475 469 0
475 578 580 0
476 475 580 0
579 476 580 0
581 579 580 0
584 582 583 0
584 585 582 0
586 585 584 0
577 470 477 0
577 477 585 0
577 585 586 0
482 476 587 0
587 476 579 0
581 587 579 0
588 587 581 0
483 589 583 0
484 483 583 0
582 484 583 0
582 585 484 0
484 585 485 0
585 477 485 0
490 482 590 0
590 482 587 0
588 590 587 0
591 590 588 0
483 592 589 0
491 592 483 0
496 490 593 0
593 490 590 0
591 593 590 0
594 593 591 0
491 595 592 0
497 595 491 0
502 496 596 0
596 496 593 0
594 596 593 0
597 596 594 0
497 598 595 0
503 598 497 0
506 502 599 0
599 502 596 0
597 599 596 0
600 599 597 0
503 601 598 0
507 601 503 0
509 506 602 0
602 506 599 0
600 602 599 0
603 602 600 0
507 604 601 0
510 604 507 0
605 511 509 0
605 509 602 0
605 602 606 0
602 603 606 0
510 607 604 0
512 607 510 0
608 513 514 0
511 605 609 0
514 511 609 0
608 514 609 0
512 610 607 0
515 610 512 0
611 516 517 0
612 608 613 0
612 611 608 0
611 513 608 0
517 513 611 0
608 609 613 0
515 614 610 0
518 614 515 0
615 519 616 0
616 519 520 0
617 616 520 0
611 617 520 0
516 611 520 0
611 612 617 0
518 618 614 0
521 618 518 0
523 615 619 0
519 615 523 0
618 525 620 0
521 525 618 0
622 620 525 0
622 525 526 0
622 526 621 0
622 621 623 0
624 527 528 0
523 619 625 0
528 523 625 0
624 528 625 0
526 530 626 0
621 526 626 0
627 621 626 0
627 623 621 0
628 533 629 0
629 533 534 0
629 535 630 0
534 535 629 0
631 630 535 0
624 631 535 0
527 624 535 0
624 625 631 0
634 632 633 0
626 530 634 0
530 632 634 0
530 536 632 0
536 635 632 0
636 635 537 0
537 635 536 0
637 636 538 0
538 636 537 0
638 637 539 0
539 637 538 0
639 638 540 0
540 638 539 0
640 639 541 0
541 639 540 0
541 542 642 0
541 642 641 0
541 641 640 0
642 543 643 0
542 543 642 0
643 544 644 0
543 544 643 0
644 545 645 0
544 545 644 0
645 546 646 0
545 546 645 0
533 646 546 0
628 646 533 0
633 632 647 0
632 648 647 0
635 648 632 0
635 649 648 0
636 649 635 0
636 650 649 0
637 650 636 0
637 651 650 0
638 651 637 0
638 652 651 0
639 652 638 0
639 653 652 0
640 653 639 0
640 641 653 0
656 654 655 0
656 657 654 0
658 657 656 0
658 659 657 0
660 659 658 0
661 659 660 0
664 662 663 0
664 665 662 0
666 665 664 0
654 667 665 0
655 654 665 0
666 655 665 0
668 654 657 0
667 654 668 0
669 657 659 0
668 657 669 0
661 669 659 0
670 669 661 0
548 671 663 0
549 548 663 0
662 549 663 0
662 665 549 0
549 665 551 0
665 667 672 0
665 672 552 0
665 552 551 0
673 667 668 0
672 667 673 0
674 668 669 0
673 668 674 0
675 674 669 0
676 675 669 0
670 676 669 0
677 675 676 0
548 678 671 0
553 678 548 0
555 552 679 0
679 552 672 0
680 672 673 0
679 672 680 0
681 673 674 0
680 673 681 0
682 674 675 0
681 674 682 0
677 682 675 0
683 682 677 0
553 684 678 0
556 684 553 0
558 555 685 0
685 555 679 0
686 679 680 0
685 679 686 0
687 680 681 0
686 680 687 0
688 681 682 0
687 681 688 0
683 688 682 0
689 688 683 0
691 559 690 0
560 559 691 0
692 560 691 0
561 560 692 0
693 561 692 0
562 561 693 0
562 693 556 0
556 693 684 0
563 558 685 0
685 686 563 0
563 686 564 0
686 687 564 0
564 687 565 0
687 688 565 0
565 688 566 0
694 567 566 0
694 566 688 0
694 688 689 0
695 567 694 0
568 567 695 0
696 568 695 0
569 568 696 0
697 569 696 0
570 569 697 0
698 570 697 0
572 570 698 0
572 698 700 0
573 572 700 0
699 573 700 0
701 699 700 0
559 702 690 0
574 702 559 0
575 573 699 0
704 699 701 0
704 703 699 0
703 575 699 0
576 575 703 0
704 705 703 0
706 705 704 0
707 705 706 0
574 708 702 0
577 708 574 0
578 576 703 0
703 705 578 0
578 705 580 0
707 709 581 0
705 707 581 0
580 705 581 0
711 583 710 0
584 583 711 0
712 584 711 0
586 584 712 0
586 712 577 0
577 712 708 0
588 709 713 0
581 709 588 0
583 714 710 0
589 714 583 0
591 713 715 0
588 713 591 0
589 716 714 0
592 716 589 0
594 715 717 0
591 715 594 0
592 718 716 0
595 718 592 0
597 717 719 0
594 717 597 0
595 720 718 0
598 720 595 0
600 719 721 0
597 719 600 0
598 722 720 0
601 722 598 0
603 721 723 0
600 721 603 0
601 724 722 0
604 724 601 0
725 605 726 0
726 605 606 0
603 726 606 0
723 726 603 0
604 727 724 0
607 727 604 0
609 725 728 0
605 725 609 0
607 729 727 0
610 729 607 0
730 612 731 0
731 612 613 0
609 731 613 0
728 731 609 0
610 732 729 0
614 732 610 0
733 615 616 0
616 617 735 0
616 735 734 0
616 734 733 0
612 735 617 0
730 735 612 0
614 736 732 0
618 736 614 0
737 619 615 0
737 615 733 0
737 733 738 0
733 734 738 0
736 620 739 0
618 620 736 0
739 622 740 0
620 622 739 0
742 740 622 0
742 622 623 0
742 623 741 0
741 743 742 0
742 743 744 0
743 745 744 0
744 745 746 0
745 747 746 0
746 747 748 0
747 749 748 0
748 749 750 0
749 751 750 0
750 751 752 0
751 753 752 0
752 753 754 0
754 753 755 0
625 737 756 0
619 737 625 0
627 626 757 0
757 758 741 0
627 757 741 0
623 627 741 0
758 743 741 0
759 743 758 0
759 745 743 0
760 745 759 0
760 747 745 0
761 747 760 0
761 749 747 0
762 749 761 0
762 751 749 0
763 751 762 0
763 753 751 0
764 753 763 0
753 764 765 0
753 765 766 0
753 766 755 0
765 767 766 0
766 767 768 0
767 769 768 0
768 769 770 0
629 771 770 0
629 770 769 0
629 769 628 0
771 630 772 0
629 630 771 0
772 631 773 0
630 631 772 0
625 773 631 0
756 773 625 0
634 633 774 0
774 775 757 0
634 774 757 0
626 634 757 0
775 758 757 0
776 758 775 0
776 759 758 0
777 759 776 0
777 760 759 0
778 760 777 0
778 761 760 0
779 761 778 0
779 762 761 0
780 762 779 0
763 762 780 0
642 763 780 0
641 642 780 0
642 764 763 0
643 764 642 0
643 765 764 0
644 765 643 0
644 767 765 0
645 767 644 0
645 769 767 0
646 769 645 0
646 628 769 0
774 633 647 0
647 775 774 0
648 775 647 0
648 776 775 0
649 776 648 0
649 777 776 0
650 777 649 0
650 778 777 0
651 778 650 0
651 779 778 0
652 779 651 0
652 780 779 0
653 780 652 0
653 641 780 0
783 781 782 0
783 784 656 0
781 783 656 0
655 781 656 0
785 656 784 0
658 656 785 0
786 658 785 0
660 658 786 0
660 786 788 0
661 660 788 0
787 661 788 0
788 789 787 0
790 789 788 0
791 789 790 0
793 663 792 0
664 663 793 0
666 664 793 0
666 793 782 0
666 782 781 0
781 655 666 0
670 661 794 0
794 661 787 0
795 787 789 0
794 787 795 0
796 795 789 0
797 796 789 0
791 797 789 0
798 796 797 0
663 799 792 0
671 799 663 0
676 670 794 0
794 795 800 0
794 800 677 0
794 677 676 0
801 795 796 0
800 795 801 0
798 801 796 0
802 801 798 0
671 803 799 0
678 803 671 0
683 677 804 0
804 677 800 0
805 800 801 0
804 800 805 0
806 805 801 0
807 806 801 0
802 807 801 0
807 808 806 0
809 808 807 0
809 810 808 0
811 810 809 0
812 810 811 0
815 813 814 0
803 678 684 0
803 684 813 0
803 813 815 0
689 683 816 0
816 683 804 0
817 804 805 0
816 804 817 0
818 805 806 0
817 805 818 0
819 806 808 0
818 806 819 0
820 808 810 0
819 808 820 0
812 820 810 0
821 820 812 0
823 690 822 0
691 690 823 0
824 691 823 0
692 691 824 0
693 692 824 0
693 824 814 0
693 814 813 0
813 684 693 0
694 689 816 0
816 817 694 0
694 817 695 0
817 818 695 0
695 818 696 0
818 819 696 0
696 819 697 0
819 820 697 0
697 820 698 0
825 700 698 0
825 698 820 0
825 820 821 0
826 700 825 0
701 700 826 0
690 827 822 0
702 827 690 0
828 704 826 0
826 704 701 0
829 704 828 0
706 704 829 0
830 706 829 0
707 706 830 0
702 831 827 0
708 831 702 0
709 830 832 0
707 830 709 0
711 710 833 0
712 833 834 0
711 833 712 0
835 831 708 0
835 708 712 0
835 712 834 0
713 832 836 0
709 832 713 0
837 710 714 0
833 710 837 0
837 834 833 0
838 834 837 0
834 838 835 0
835 838 839 0
715 836 840 0
713 836 715 0
841 714 716 0
837 714 841 0
841 838 837 0
842 838 841 0
838 842 839 0
839 842 843 0
717 840 844 0
715 840 717 0
845 716 718 0
841 716 845 0
842 841 845 0
842 845 846 0
842 846 847 0
847 843 842 0
719 844 848 0
717 844 719 0
718 720 849 0
845 718 849 0
850 845 849 0
850 846 845 0
721 848 851 0
719 848 721 0
720 852 849 0
722 852 720 0
854 853 855 0
723 721 851 0
853 723 851 0
855 853 851 0
722 856 852 0
724 856 722 0
854 857 725 0
854 725 726 0
854 726 853 0
726 723 853 0
856 724 727 0
859 856 727 0
858 859 727 0
858 860 859 0
859 860 861 0
861 860 862 0
728 857 863 0
725 857 728 0
864 727 729 0
858 727 864 0
864 860 858 0
865 860 864 0
860 865 862 0
862 865 866 0
867 730 731 0
728 863 868 0
731 728 868 0
867 731 868 0
869 729 732 0
864 729 869 0
869 865 864 0
870 865 869 0
865 870 871 0
865 871 872 0
865 872 866 0
871 873 872 0
872 873 874 0
873 875 874 0
874 875 876 0
875 877 876 0
876 877 878 0
877 879 878 0
878 879 880 0
879 881 880 0
880 881 882 0
881 883 882 0
882 883 884 0
883 885 884 0
884 885 886 0
886 885 887 0
888 734 889 0
889 734 735 0
890 889 735 0
867 890 735 0
730 867 735 0
867 868 890 0
891 732 736 0
869 732 891 0
891 870 869 0
892 870 891 0
892 871 870 0
893 871 892 0
893 873 871 0
894 873 893 0
894 875 873 0
895 875 894 0
895 877 875 0
896 877 895 0
896 879 877 0
897 879 896 0
897 881 879 0
898 881 897 0
898 883 881 0
899 883 898 0
899 885 883 0
900 885 899 0
885 900 901 0
885 901 902 0
885 902 887 0
901 903 902 0
902 903 904 0
903 905 904 0
904 905 906 0
905 907 906 0
906 907 908 0
907 909 908 0
908 909 910 0
738 911 910 0
738 910 909 0
738 909 737 0
734 911 738 0
888 911 734 0
891 736 739 0
739 892 891 0
740 892 739 0
740 893 892 0
742 893 740 0
742 894 893 0
744 894 742 0
744 895 894 0
746 895 744 0
746 896 895 0
748 896 746 0
748 897 896 0
750 897 748 0
750 898 897 0
752 898 750 0
752 899 898 0
754 899 752 0
912 900 899 0
755 912 899 0
754 755 899 0
912 901 900 0
913 901 912 0
913 903 901 0
914 903 913 0
914 905 903 0
915 905 914 0
915 907 905 0
916 907 915 0
916 909 907 0
917 909 916 0
909 756 737 0
917 756 909 0
912 755 766 0
766 913 912 0
768 913 766 0
768 914 913 0
770 914 768 0
770 915 914 0
771 915 770 0
771 916 915 0
772 916 771 0
772 917 916 0
773 917 772 0
773 756 917 0
919 782 918 0
783 782 919 0
920 783 919 0
784 783 920 0
921 784 920 0
785 784 921 0
922 785 921 0
786 785 922 0
923 786 922 0
788 786 923 0
924 788 923 0
790 788 924 0
925 790 924 0
791 790 925 0
793 792 926 0
927 918 782 0
927 782 793 0
927 793 926 0
928 797 925 0
925 797 791 0
929 797 928 0
798 797 929 0
930 792 799 0
926 792 930 0
926 930 927 0
927 930 931 0
802 798 929 0
802 929 933 0
802 933 932 0
934 932 933 0
935 799 803 0
930 799 935 0
930 935 931 0
931 935 936 0
807 802 932 0
937 809 807 0
937 807 932 0
937 932 934 0
938 809 937 0
811 809 938 0
811 938 940 0
812 811 940 0
939 812 940 0
940 941 939 0
942 941 940 0
943 941 942 0
946 944 945 0
946 947 815 0
944 946 815 0
814 944 815 0
815 947 948 0
815 948 935 0
815 935 803 0
948 936 935 0
821 812 949 0
949 812 939 0
950 939 941 0
949 939 950 0
943 950 941 0
951 950 943 0
953 822 952 0
823 822 953 0
824 823 953 0
824 953 945 0
824 945 944 0
944 814 824 0
825 821 949 0
949 950 954 0
949 954 826 0
949 826 825 0
955 954 950 0
956 955 950 0
951 956 950 0
957 955 956 0
822 958 952 0
827 958 822 0
828 826 954 0
954 955 828 0
828 955 829 0
957 959 830 0
955 957 830 0
829 955 830 0
827 960 958 0
831 960 827 0
832 959 961 0
830 959 832 0
831 962 960 0
835 962 831 0
836 961 963 0
832 961 836 0
835 964 962 0
839 964 835 0
840 963 965 0
836 963 840 0
839 966 964 0
843 966 839 0
844 965 967 0
840 965 844 0
847 846 968 0
969 966 843 0
969 843 847 0
969 847 968 0
848 967 970 0
844 967 848 0
850 849 971 0
971 972 968 0
850 971 968 0
846 850 968 0
968 972 969 0
969 972 973 0
851 970 974 0
848 970 851 0
975 849 852 0
971 849 975 0
975 972 971 0
976 972 975 0
972 976 973 0
973 976 977 0
978 854 979 0
979 854 855 0
851 979 855 0
974 979 851 0
980 852 856 0
975 852 980 0
980 976 975 0
981 976 980 0
976 981 977 0
977 981 982 0
857 978 983 0
854 978 857 0
980 856 859 0
859 981 980 0
861 981 859 0
862 984 982 0
862 982 981 0
862 981 861 0
863 983 985 0
857 983 863 0
862 986 984 0
866 986 862 0
988 987 989 0
987 990 989 0
989 990 991 0
868 863 985 0
990 868 985 0
991 990 985 0
986 872 992 0
866 872 986 0
992 874 993 0
872 874 992 0
993 876 994 0
874 876 993 0
994 878 995 0
876 878 994 0
995 880 996 0
878 880 995 0
996 882 997 0
880 882 996 0
997 884 998 0
882 884 997 0
998 886 999 0
884 886 998 0
999 886 1000 0
1000 886 887 0
988 1001 888 0
988 888 889 0
988 889 987 0
889 990 987 0
890 990 889 0
890 868 990 0
1000 902 1002 0
887 902 1000 0
1002 904 1003 0
902 904 1002 0
1003 906 1004 0
904 906 1003 0
1004 908 1005 0
906 908 1004 0
1005 910 1006 0
908 910 1005 0
1006 911 1007 0
910 911 1006 0
888 1007 911 0
1001 1007 888 0
1010 1008 1009 0
1010 1011 1008 0
1012 1011 1010 0
1013 1011 1012 0
1015 918 1014 0
919 918 1015 0
1016 919 1015 0
920 919 1016 0
1017 920 1016 0
921 920 1017 0
922 921 1017 0
922 1017 1009 0
922 1009 1008 0
1008 1011 922 0
922 1011 923 0
1018 924 923 0
1018 923 1011 0
1018 1011 1013 0
1019 924 1018 0
925 924 1019 0
918 1020 1014 0
927 1020 918 0
1021 928 1019 0
1019 928 925 0
928 1021 1023 0
929 928 1023 0
1022 929 1023 0
1023 1024 1022 0
1025 1024 1023 0
1026 1024 1025 0
927 1027 1020 0
931 1027 927 0
933 929 1022 0
1022 1024 1028 0
1022 1028 934 0
1022 934 933 0
1029 1028 1024 0
1030 1029 1024 0
1026 1030 1024 0
1031 1029 1030 0
931 1032 1027 0
936 1032 931 0
937 934 1028 0
1028 1029 937 0
937 1029 938 0
1033 940 938 0
1033 938 1029 0
1033 1029 1031 0
1034 940 1033 0
942 940 1034 0
1035 942 1034 0
943 942 1035 0
1038 1036 1037 0
1038 1039 946 0
1036 1038 946 0
945 1036 946 0
1040 946 1039 0
947 946 1040 0
1041 947 1040 0
948 947 1041 0
948 1041 936 0
936 1041 1032 0
951 1035 1042 0
943 1035 951 0
952 1043 1037 0
953 952 1037 0
1036 953 1037 0
1036 945 953 0
1044 956 1042 0
1042 956 951 0
1045 956 1044 0
957 956 1045 0
952 1046 1043 0
958 1046 952 0
959 1045 1047 0
957 1045 959 0
958 1048 1046 0
960 1048 958 0
961 959 1047 0
961 1047 1050 0
961 1050 1049 0
1051 1049 1050 0
960 1052 1048 0
962 1052 960 0
963 961 1053 0
1053 961 1049 0
1051 1053 1049 0
1054 1053 1051 0
962 1055 1052 0
964 1055 962 0
965 963 1056 0
1056 963 1053 0
1054 1056 1053 0
1057 1056 1054 0
964 1058 1055 0
966 1058 964 0
967 965 1059 0
1059 965 1056 0
1057 1059 1056 0
1060 1059 1057 0
966 1061 1058 0
969 1061 966 0
970 967 1062 0
1062 967 1059 0
1060 1062 1059 0
1063 1062 1060 0
969 1064 1061 0
973 1064 969 0
1065 974 970 0
1065 970 1062 0
1065 1062 1066 0
1062 1063 1066 0
973 1067 1064 0
977 1067 973 0
1068 978 979 0
974 1065 1069 0
979 974 1069 0
1068 979 1069 0
977 1070 1067 0
982 1070 977 0
983 978 1071 0
1071 978 1068 0
1069 1071 1068 0
1072 1071 1069 0
1070 982 984 0
1074 1070 984 0
1073 1074 984 0
1073 1075 1074 0
1074 1075 1076 0
1075 1077 1076 0
1076 1077 1078 0
1077 1079 1078 0
1078 1079 1080 0
1080 1079 1081 0
985 983 1082 0
1082 983 1071 0
1072 1082 1071 0
1083 1082 1072 0
1084 984 986 0
1073 984 1084 0
1084 1075 1073 0
1085 1075 1084 0
1085 1077 1075 0
1086 1077 1085 0
1086 1079 1077 0
1087 1079 1086 0
1079 1087 1081 0
1081 1087 1088 0
1089 988 1090 0
1090 988 989 0
1090 991 1091 0
989 991 1090 0
1092 1091 991 0
1082 1092 991 0
985 1082 991 0
1082 1083 1092 0
1084 986 992 0
992 1085 1084 0
993 1085 992 0
993 1086 1085 0
994 1086 993 0
994 1087 1086 0
995 1087 994 0
995 996 1093 0
1087 995 1093 0
1088 1087 1093 0
1093 997 1094 0
996 997 1093 0
1094 998 1095 0
997 998 1094 0
1095 998 999 0
1095 999 1096 0
1095 1096 1097 0
1000 1096 999 0
1099 1098 1100 0
1098 1101 1100 0
1100 1101 1102 0
1001 988 1089 0
1101 1001 1089 0
1102 1101 1089 0
1097 1096 1103 0
1002 1104 1103 0
1000 1002 1103 0
1096 1000 1103 0
1104 1002 1003 0
1104 1003 1105 0
1104 1105 1106 0
1107 1105 1004 0
1004 1105 1003 0
1108 1107 1005 0
1005 1107 1004 0
1099 1109 1098 0
1109 1006 1098 0
1109 1108 1006 0
1108 1005 1006 0
1006 1101 1098 0
1007 1101 1006 0
1007 1001 1101 0
1106 1105 1110 0
1105 1111 1110 0
1107 1111 1105 0
1107 1112 1111 0
1108 1112 1107 0
1108 1109 1112 0
1115 1113 1114 0
1115 1116 1113 0
1117 1116 1115 0
1118 1116 1117 0
1009 1119 1114 0
1010 1009 1114 0
1113 1010 1114 0
1113 1116 1010 0
1010 1116 1012 0
1121 1116 1118 0
1121 1120 1116 0
1120 1012 1116 0
1013 1012 1120 0
1122 1120 1121 0
1124 1014 1123 0
1015 1014 1124 0
1125 1015 1124 0
1016 1015 1125 0
1126 1016 1125 0
1017 1016 1126 0
1017 1126 1009 0
1009 1126 1119 0
1018 1013 1120 0
1128 1120 1122 0
1128 1127 1120 0
1127 1018 1120 0
1019 1018 1127 0
1128 1129 1127 0
1130 1129 1128 0
1131 1129 1130 0
1014 1132 1123 0
1020 1132 1014 0
1021 1019 1127 0
1127 1129 1021 0
1021 1129 1023 0
1133 1025 1023 0
1133 1023 1129 0
1133 1129 1131 0
1134 1025 1133 0
1026 1025 1134 0
1020 1135 1132 0
1027 1135 1020 0
1136 1030 1134 0
1134 1030 1026 0
1030 1136 1138 0
1031 1030 1138 0
1137 1031 1138 0
1139 1137 1138 0
1027 1140 1135 0
1032 1140 1027 0
1033 1031 1137 0
1141 1034 1033 0
1141 1033 1137 0
1141 1137 1139 0
1142 1034 1141 0
1035 1034 1142 0
1144 1037 1143 0
1038 1037 1144 0
1145 1038 1144 0
1039 1038 1145 0
1146 1039 1145 0
1040 1039 1146 0
1147 1040 1146 0
1041 1040 1147 0
1041 1147 1032 0
1032 1147 1140 0
1042 1035 1142 0
1042 1142 1149 0
1042 1149 1148 0
1150 1148 1149 0
1037 1151 1143 0
1043 1151 1037 0
1044 1042 1148 0
1153 1148 1150 0
1153 1152 1148 0
1152 1044 1148 0
1045 1044 1152 0
1154 1152 1153 0
1043 1155 1151 0
1046 1155 1043 0
1047 1045 1156 0
1156 1045 1152 0
1154 1156 1152 0
1157 1156 1154 0
1046 1158 1155 0
1048 1158 1046 0
1050 1047 1156 0
1157 1159 1051 0
1156 1157 1051 0
1050 1156 1051 0
1048 1160 1158 0
1052 1160 1048 0
1054 1159 1161 0
1051 1159 1054 0
1052 1162 1160 0
1055 1162 1052 0
1057 1161 1163 0
1054 1161 1057 0
1055 1164 1162 0
1058 1164 1055 0
1060 1163 1165 0
1057 1163 1060 0
1058 1166 1164 0
1061 1166 1058 0
1063 1165 1167 0
1060 1165 1063 0
1061 1168 1166 0
1064 1168 1061 0
1169 1065 1066 0
1167 1066 1063 0
1167 1169 1066 0
1171 1169 1167 0
1170 1169 1171 0
1171 1172 1170 0
1173 1172 1171 0
1174 1172 1173 0
1064 1175 1168 0
1067 1175 1064 0
1069 1065 1176 0
1176 1065 1169 0
1177 1169 1170 0
1176 1169 1177 0
1178 1170 1172 0
1177 1170 1178 0
1174 1178 1172 0
1179 1178 1174 0
1067 1180 1175 0
1070 1180 1067 0
1072 1069 1181 0
1181 1069 1176 0
1182 1176 1177 0
1181 1176 1182 0
1182 1177 1178 0
1183 1182 1178 0
1184 1183 1178 0
1178 1179 1184 0
1180 1074 1185 0
1070 1074 1180 0
1185 1076 1186 0
1074 1076 1185 0
1186 1078 1187 0
1076 1078 1186 0
1187 1080 1188 0
1078 1080 1187 0
1188 1080 1189 0
1189 1080 1081 0
1083 1072 1190 0
1190 1072 1181 0
1191 1181 1182 0
1190 1181 1191 0
1183 1191 1182 0
1192 1191 1183 0
1189 1081 1088 0
1194 1189 1088 0
1193 1194 1088 0
1193 1195 1194 0
1194 1195 1196 0
1196 1195 1197 0
1198 1089 1199 0
1199 1089 1090 0
1199 1091 1200 0
1090 1091 1199 0
1200 1092 1201 0
1091 1092 1200 0
1201 1092 1203 0
1092 1202 1203 0
1092 1083 1202 0
1083 1190 1202 0
1204 1190 1191 0
1202 1190 1204 0
1205 1204 1191 0
1206 1205 1191 0
1192 1206 1191 0
1206 1207 1205 0
1208 1207 1206 0
1209 1207 1208 0
1193 1088 1093 0
1093 1195 1193 0
1094 1195 1093 0
1094 1095 1210 0
1195 1094 1210 0
1197 1195 1210 0
1212 1210 1095 0
1212 1095 1097 0
1212 1097 1211 0
1211 1213 1212 0
1212 1213 1214 0
1213 1215 1214 0
1214 1215 1216 0
1215 1217 1216 0
1216 1217 1218 0
1217 1219 1218 0
1218 1219 1220 0
1100 1221 1220 0
1100 1220 1219 0
1100 1219 1099 0
1221 1102 1222 0
1100 1102 1221 0
1089 1222 1102 0
1198 1222 1089 0
1202 1224 1203 0
1223 1224 1202 0
1225 1202 1204 0
1223 1202 1225 0
1226 1204 1205 0
1225 1204 1226 0
1227 1205 1207 0
1226 1205 1227 0
1209 1227 1207 0
1228 1227 1209 0
1211 1097 1103 0
1103 1213 1211 0
1104 1213 1103 0
1229 1215 1213 0
1106 1229 1213 0
1104 1106 1213 0
1229 1217 1215 0
1230 1217 1229 0
1230 1219 1217 0
1231 1219 1230 0
1219 1109 1099 0
1231 1109 1219 0
1224 1223 1232 0
1223 1233 1232 0
1225 1233 1223 0
1225 1234 1233 0
1226 1234 1225 0
1226 1235 1234 0
1227 1235 1226 0
1227 1228 1235 0
1229 1106 1110 0
1110 1230 1229 0
1111 1230 1110 0
1111 1231 1230 0
1112 1231 1111 0
1112 1109 1231 0
1238 1236 1237 0
1239 1236 1238 0
1241 1114 1240 0
1115 1114 1241 0
1117 1115 1241 0
1117 1241 1237 0
1117 1237 1236 0
1243 1236 1239 0
1243 1242 1236 0
1242 1117 1236 0
1118 1117 1242 0
1244 1242 1243 0
1114 1245 1240 0
1119 1245 1114 0
1121 1118 1242 0
1247 1242 1244 0
1247 1246 1242 0
1246 1121 1242 0
1122 1121 1246 0
1248 1246 1247 0
1250 1123 1249 0
1124 1123 1250 0
1251 1124 1250 0
1125 1124 1251 0
1252 1125 1251 0
1126 1125 1252 0
1126 1252 1119 0
1119 1252 1245 0
1128 1122 1246 0
1253 1130 1128 0
1253 1128 1246 0
1253 1246 1248 0
1130 1253 1255 0
1131 1130 1255 0
1254 1131 1255 0
1256 1254 1255 0
1123 1257 1249 0
1132 1257 1123 0
1133 1131 1254 0
1256 1258 1134 0
1254 1256 1134 0
1133 1254 1134 0
1132 1259 1257 0
1135 1259 1132 0
1260 1136 1258 0
1258 1136 1134 0
1261 1136 1260 0
1138 1136 1261 0
1138 1261 1263 0
1139 1138 1263 0
1262 1139 1263 0
1264 1262 1263 0
1135 1265 1259 0
1140 1265 1135 0
1141 1139 1262 0
1267 1262 1264 0
1267 1266 1262 0
1266 1141 1262 0
1142 1141 1266 0
1268 1266 1267 0
1270 1143 1269 0
1144 1143 1270 0
1271 1144 1270 0
1145 1144 1271 0
1272 1145 1271 0
1146 1145 1272 0
1273 1146 1272 0
1147 1146 1273 0
1147 1273 1140 0
1140 1273 1265 0
1149 1142 1266 0
1275 1266 1268 0
1275 1274 1266 0
1274 1149 1266 0
1150 1149 1274 0
1276 1274 1275 0
1143 1277 1269 0
1151 1277 1143 0
1153 1150 1274 0
1279 1274 1276 0
1279 1278 1274 0
1278 1153 1274 0
1154 1153 1278 0
1280 1278 1279 0
1151 1281 1277 0
1155 1281 1151 0
1157 1154 1282 0
1282 1154 1278 0
1280 1282 1278 0
1283 1282 1280 0
1155 1284 1281 0
1158 1284 1155 0
1159 1157 1285 0
1285 1157 1282 0
1283 1285 1282 0
1286 1285 1283 0
1158 1287 1284 0
1160 1287 1158 0
1161 1159 1288 0
1288 1159 1285 0
1286 1288 1285 0
1289 1288 1286 0
1160 1290 1287 0
1162 1290 1160 0
1163 1161 1291 0
1291 1161 1288 0
1289 1291 1288 0
1292 1291 1289 0
1162 1293 1290 0
1164 1293 1162 0
1165 1163 1294 0
1294 1163 1291 0
1292 1294 1291 0
1295 1294 1292 0
1164 1296 1293 0
1166 1296 1164 0
1167 1165 1297 0
1297 1165 1294 0
1298 1297 1294 0
1299 1298 1294 0
1295 1299 1294 0
1300 1298 1299 0
1166 1301 1296 0
1168 1301 1166 0
1171 1167 1297 0
1297 1298 1171 0
1171 1298 1173 0
1300 1302 1174 0
1298 1300 1174 0
1173 1298 1174 0
1168 1303 1301 0
1175 1303 1168 0
1179 1302 1304 0
1174 1302 1179 0
1303 1175 1180 0
1306 1303 1180 0
1305 1306 1180 0
1305 1307 1306 0
1306 1307 1308 0
1308 1307 1309 0
1310 1183 1184 0
1179 1304 1311 0
1184 1179 1311 0
1310 1184 1311 0
1305 1180 1185 0
1185 1307 1305 0
1186 1307 1185 0
1309 1312 1313 0
1309 1187 1312 0
1307 1187 1309 0
1186 1187 1307 0
1314 1312 1188 0
1188 1312 1187 0
1189 1314 1188 0
1192 1183 1315 0
1315 1183 1310 0
1311 1315 1310 0
1316 1315 1311 0
1313 1312 1317 0
1312 1318 1317 0
1314 1318 1312 0
1318 1319 1320 0
1318 1314 1319 0
1314 1194 1319 0
1189 1194 1314 0
1321 1319 1196 0
1196 1319 1194 0
1197 1321 1196 0
1322 1198 1199 0
1323 1322 1200 0
1200 1322 1199 0
1324 1323 1201 0
1201 1323 1200 0
1203 1324 1201 0
1206 1192 1315 0
1325 1208 1206 0
1325 1206 1315 0
1325 1315 1316 0
1326 1208 1325 0
1209 1208 1326 0
1320 1319 1327 0
1319 1321 1328 0
1327 1319 1328 0
1329 1327 1328 0
1330 1328 1321 0
1330 1321 1197 0
1330 1197 1210 0
1331 1330 1212 0
1212 1330 1210 0
1332 1331 1214 0
1214 1331 1212 0
1333 1332 1216 0
1216 1332 1214 0
1334 1333 1218 0
1218 1333 1216 0
1335 1334 1220 0
1220 1334 1218 0
1336 1335 1221 0
1221 1335 1220 0
1337 1336 1222 0
1222 1336 1221 0
1322 1338 1337 0
1322 1337 1222 0
1322 1222 1198 0
1339 1322 1323 0
1338 1322 1339 0
1340 1323 1324 0
1339 1323 1340 0
1203 1224 1324 0
1324 1224 1340 0
1228 1326 1341 0
1209 1326 1228 0
1329 1328 1342 0
1328 1343 1342 0
1330 1343 1328 0
1330 1344 1343 0
1331 1344 1330 0
1331 1345 1344 0
1332 1345 1331 0
1332 1346 1345 0
1333 1346 1332 0
1333 1347 1346 0
1334 1347 1333 0
1334 1335 1348 0
1347 1334 1348 0
1349 1347 1348 0
1350 1335 1336 0
1348 1335 1350 0
1351 1336 1337 0
1350 1336 1351 0
1352 1337 1338 0
1351 1337 1352 0
1353 1338 1339 0
1352 1338 1353 0
1354 1339 1340 0
1353 1339 1354 0
1340 1355 1354 0
1340 1356 1355 0
1224 1356 1340 0
1232 1356 1224 0
1356 1233 1357 0
1232 1233 1356 0
1357 1234 1358 0
1233 1234 1357 0
1358 1235 1359 0
1234 1235 1358 0
1228 1359 1235 0
1341 1359 1228 0
1349 1348 1360 0
1348 1361 1360 0
1350 1361 1348 0
1350 1362 1361 0
1351 1362 1350 0
1351 1363 1362 0
1352 1363 1351 0
1352 1364 1363 0
1353 1364 1352 0
1353 1365 1364 0
1354 1365 1353 0
1354 1355 1365 0
1367 1237 1366 0
1238 1237 1367 0
1238 1367 1369 0
1239 1238 1369 0
1368 1239 1369 0
1370 1368 1369 0
1372 1240 1371 0
1241 1240 1372 0
1241 1372 1237 0
1237 1372 1366 0
1243 1239 1368 0
1374 1368 1370 0
1374 1373 1368 0
1373 1243 1368 0
1244 1243 1373 0
1374 1375 1373 0
1376 1375 1374 0
1377 1375 1376 0
1240 1378 1371 0
1245 1378 1240 0
1247 1244 1373 0
1373 1375 1379 0
1373 1379 1248 0
1373 1248 1247 0
1380 1379 1375 0
1381 1380 1375 0
1377 1381 1375 0
1381 1382 1380 0
1383 1382 1381 0
1384 1382 1383 0
1386 1249 1385 0
1250 1249 1386 0
1387 1250 1386 0
1251 1250 1387 0
1388 1251 1387 0
1252 1251 1388 0
1252 1388 1245 0
1245 1388 1378 0
1253 1248 1379 0
1379 1380 1253 0
1253 1380 1255 0
1380 1382 1389 0
1380 1389 1256 0
1380 1256 1255 0
1390 1389 1382 0
1391 1390 1382 0
1384 1391 1382 0
1392 1390 1391 0
1249 1393 1385 0
1257 1393 1249 0
1258 1256 1394 0
1394 1256 1389 0
1395 1389 1390 0
1394 1389 1395 0
1392 1395 1390 0
1396 1395 1392 0
1257 1397 1393 0
1259 1397 1257 0
1260 1258 1394 0
1394 1395 1260 0
1260 1395 1261 0
1398 1263 1261 0
1398 1261 1395 0
1398 1395 1396 0
1263 1398 1400 0
1264 1263 1400 0
1399 1264 1400 0
1401 1399 1400 0
1259 1402 1397 0
1265 1402 1259 0
1267 1264 1399 0
1404 1399 1401 0
1404 1403 1399 0
1403 1267 1399 0
1268 1267 1403 0
1405 1403 1404 0
1270 1269 1406 0
1271 1406 1407 0
1270 1406 1271 0
1409 1272 1271 0
1408 1409 1271 0
1407 1408 1271 0
1410 1272 1409 0
1273 1272 1410 0
1273 1410 1265 0
1265 1410 1402 0
1275 1268 1403 0
1412 1403 1405 0
1412 1411 1403 0
1411 1275 1403 0
1276 1275 1411 0
1413 1411 1412 0
1414 1269 1277 0
1406 1269 1414 0
1414 1407 1406 0
1415 1407 1414 0
1407 1415 1408 0
1408 1415 1416 0
1279 1276 1411 0
1413 1417 1280 0
1411 1413 1280 0
1279 1411 1280 0
1418 1277 1281 0
1414 1277 1418 0
1415 1414 1418 0
1415 1418 1419 0
1415 1419 1420 0
1420 1416 1415 0
1283 1280 1417 0
1283 1417 1422 0
1283 1422 1421 0
1423 1421 1422 0
1424 1281 1284 0
1418 1281 1424 0
1418 1424 1419 0
1419 1424 1425 0
1286 1283 1426 0
1426 1283 1421 0
1423 1426 1421 0
1427 1426 1423 0
1428 1284 1287 0
1424 1284 1428 0
1424 1428 1425 0
1425 1428 1429 0
1289 1286 1430 0
1430 1286 1426 0
1427 1430 1426 0
1431 1430 1427 0
1432 1287 1290 0
1428 1287 1432 0
1428 1432 1429 0
1429 1432 1433 0
1292 1289 1434 0
1434 1289 1430 0
1435 1434 1430 0
1436 1435 1430 0
1431 1436 1430 0
1437 1435 1436 0
1290 1293 1438 0
1432 1290 1438 0
1439 1432 1438 0
1439 1433 1432 0
1295 1292 1440 0
1440 1292 1434 0
1441 1434 1435 0
1440 1434 1441 0
1437 1441 1435 0
1442 1441 1437 0
1293 1443 1438 0
1296 1443 1293 0
1299 1295 1440 0
1440 1441 1444 0
1440 1444 1300 0
1440 1300 1299 0
1442 1444 1441 0
1445 1444 1442 0
1296 1446 1443 0
1301 1446 1296 0
1302 1300 1447 0
1447 1300 1444 0
1445 1447 1444 0
1448 1447 1445 0
1301 1449 1446 0
1303 1449 1301 0
1450 1304 1302 0
1450 1302 1447 0
1450 1447 1451 0
1447 1448 1451 0
1449 1306 1452 0
1303 1306 1449 0
1452 1308 1453 0
1306 1308 1452 0
1453 1308 1454 0
1454 1308 1309 0
1311 1450 1455 0
1304 1450 1311 0
1309 1456 1454 0
1313 1456 1309 0
1316 1455 1457 0
1311 1455 1316 0
1456 1317 1458 0
1313 1317 1456 0
1458 1318 1459 0
1317 1318 1458 0
1459 1318 1460 0
1460 1318 1320 0
1316 1457 1462 0
1316 1462 1461 0
1316 1461 1325 0
1325 1461 1326 0
1464 1460 1320 0
1463 1464 1320 0
1327 1463 1320 0
1329 1463 1327 0
1462 1466 1461 0
1461 1466 1465 0
1461 1341 1326 0
1465 1341 1461 0
1464 1463 1467 0
1342 1468 1467 0
1329 1342 1467 0
1463 1329 1467 0
1468 1343 1469 0
1342 1343 1468 0
1469 1344 1470 0
1343 1344 1469 0
1470 1345 1471 0
1344 1345 1470 0
1471 1346 1472 0
1345 1346 1471 0
1472 1347 1473 0
1346 1347 1472 0
1475 1473 1347 0
1475 1347 1349 0
1475 1349 1474 0
1474 1476 1475 0
1475 1476 1477 0
1477 1476 1478 0
1479 1355 1480 0
1480 1355 1356 0
1480 1357 1481 0
1356 1357 1480 0
1481 1358 1482 0
1357 1358 1481 0
1482 1358 1359 0
1466 1482 1359 0
1465 1466 1359 0
1359 1341 1465 0
1474 1349 1360 0
1360 1476 1474 0
1361 1476 1360 0
1361 1362 1483 0
1476 1361 1483 0
1478 1476 1483 0
1483 1363 1484 0
1362 1363 1483 0
1484 1364 1485 0
1363 1364 1484 0
1485 1365 1486 0
1364 1365 1485 0
1355 1486 1365 0
1479 1486 1355 0
1489 1487 1488 0
1489 1490 1367 0
1487 1489 1367 0
1366 1487 1367 0
1491 1367 1490 0
1369 1367 1491 0
1492 1369 1491 0
1370 1369 1492 0
1371 1493 1488 0
1372 1371 1488 0
1487 1372 1488 0
1487 1366 1372 0
1494 1374 1492 0
1492 1374 1370 0
1495 1374 1494 0
1376 1374 1495 0
1376 1495 1497 0
1377 1376 1497 0
1496 1377 1497 0
1498 1496 1497 0
1371 1499 1493 0
1378 1499 1371 0
1381 1377 1496 0
1500 1383 1381 0
1500 1381 1496 0
1500 1496 1498 0
1383 1500 1502 0
1384 1383 1502 0
1501 1384 1502 0
1503 1501 1502 0
1505 1385 1504 0
1386 1385 1505 0
1506 1386 1505 0
1387 1386 1506 0
1507 1387 1506 0
1388 1387 1507 0
1388 1507 1378 0
1378 1507 1499 0
1391 1384 1501 0
1503 1508 1392 0
1501 1503 1392 0
1391 1501 1392 0
1385 1509 1504 0
1393 1509 1385 0
1396 1392 1508 0
1396 1508 1511 0
1396 1511 1510 0
1512 1510 1511 0
1393 1513 1509 0
1397 1513 1393 0
1398 1396 1510 0
1514 1400 1398 0
1514 1398 1510 0
1514 1510 1512 0
1400 1514 1516 0
1401 1400 1516 0
1515 1401 1516 0
1517 1515 1516 0
1397 1518 1513 0
1402 1518 1397 0
1404 1401 1515 0
1520 1515 1517 0
1520 1519 1515 0
1519 1404 1515 0
1405 1404 1519 0
1521 1519 1520 0
1523 1408 1522 0
1409 1408 1523 0
1524 1409 1523 0
1410 1409 1524 0
1410 1524 1402 0
1402 1524 1518 0
1412 1405 1519 0
1526 1519 1521 0
1526 1525 1519 0
1525 1412 1519 0
1413 1412 1525 0
1527 1525 1526 0
1408 1528 1522 0
1416 1528 1408 0
1417 1413 1529 0
1529 1413 1525 0
1527 1529 1525 0
1530 1529 1527 0
1532 1419 1531 0
1420 1419 1532 0
1420 1532 1416 0
1416 1532 1528 0
1422 1417 1529 0
1530 1533 1423 0
1529 1530 1423 0
1422 1529 1423 0
1419 1534 1531 0
1425 1534 1419 0
1427 1533 1535 0
1423 1533 1427 0
1425 1536 1534 0
1429 1536 1425 0
1431 1427 1535 0
1431 1535 1538 0
1431 1538 1537 0
1539 1537 1538 0
1429 1540 1536 0
1433 1540 1429 0
1436 1431 1537 0
1539 1541 1437 0
1537 1539 1437 0
1436 1537 1437 0
1439 1438 1542 0
1543 1540 1433 0
1543 1433 1439 0
1543 1439 1542 0
1442 1541 1544 0
1437 1541 1442 0
1545 1438 1443 0
1542 1438 1545 0
1542 1545 1543 0
1543 1545 1546 0
1445 1544 1547 0
1442 1544 1445 0
1548 1443 1446 0
1545 1443 1548 0
1545 1548 1546 0
1546 1548 1549 0
1448 1547 1550 0
1445 1547 1448 0
1551 1446 1449 0
1548 1446 1551 0
1548 1551 1549 0
1549 1551 1552 0
1553 1450 1554 0
1554 1450 1451 0
1448 1554 1451 0
1550 1554 1448 0
1551 1449 1452 0
1452 1453 1555 0
1551 1452 1555 0
1552 1551 1555 0
1555 1453 1556 0
1556 1453 1454 0
1455 1553 1557 0
1450 1553 1455 0
1454 1558 1556 0
1456 1558 1454 0
1457 1557 1559 0
1455 1557 1457 0
1558 1458 1560 0
1456 1458 1558 0
1560 1459 1561 0
1458 1459 1560 0
1561 1459 1562 0
1562 1459 1460 0
1462 1559 1563 0
1457 1559 1462 0
1460 1564 1562 0
1464 1564 1460 0
1466 1563 1565 0
1462 1563 1466 0
1567 1564 1464 0
1566 1567 1464 0
1467 1566 1464 0
1568 1566 1468 0
1468 1566 1467 0
1569 1568 1469 0
1469 1568 1468 0
1469 1470 1571 0
1469 1571 1570 0
1469 1570 1569 0
1571 1471 1572 0
1470 1471 1571 0
1572 1472 1573 0
1471 1472 1572 0
1573 1473 1574 0
1472 1473 1573 0
1574 1475 1575 0
1473 1475 1574 0
1575 1477 1576 0
1475 1477 1575 0
1578 1576 1477 0
1578 1477 1478 0
1578 1478 1577 0
1578 1577 1579 0
1580 1479 1581 0
1581 1479 1480 0
1581 1481 1582 0
1480 1481 1581 0
1582 1482 1583 0
1481 1482 1582 0
1466 1583 1482 0
1565 1583 1466 0
1567 1566 1584 0
1566 1568 1585 0
1584 1566 1585 0
1586 1584 1585 0
1587 1568 1569 0
1585 1568 1587 0
1570 1587 1569 0
1588 1587 1570 0
1577 1478 1483 0
1483 1484 1589 0
1577 1483 1589 0
1579 1577 1589 0
1589 1485 1590 0
1484 1485 1589 0
1590 1486 1591 0
1485 1486 1590 0
1479 1591 1486 0
1580 1591 1479 0
1586 1585 1592 0
1585 1593 1592 0
1587 1593 1585 0
1587 1588 1593 0
1489 1488 1594 0
1596 1490 1489 0
1595 1596 1489 0
1594 1595 1489 0
1597 1490 1596 0
1491 1490 1597 0
1491 1597 1599 0
1492 1491 1599 0
1598 1492 1599 0
1599 1600 1598 0
1601 1600 1599 0
1602 1600 1601 0
1603 1488 1493 0
1594 1488 1603 0
1594 1603 1595 0
1595 1603 1604 0
1494 1492 1598 0
1598 1600 1494 0
1494 1600 1495 0
1605 1497 1495 0
1605 1495 1600 0
1605 1600 1602 0
1497 1605 1607 0
1498 1497 1607 0
1606 1498 1607 0
1608 1606 1607 0
1609 1493 1499 0
1603 1493 1609 0
1603 1609 1604 0
1604 1609 1610 0
1500 1498 1606 0
1611 1502 1500 0
1611 1500 1606 0
1611 1606 1608 0
1612 1502 1611 0
1503 1502 1612 0
1614 1504 1613 0
1505 1504 1614 0
1615 1505 1614 0
1506 1505 1615 0
1616 1506 1615 0
1507 1506 1616 0
1507 1616 1617 0
1507 1617 1609 0
1507 1609 1499 0
1617 1610 1609 0
1508 1503 1612 0
1508 1612 1619 0
1508 1619 1618 0
1619 1620 1618 0
1621 1620 1619 0
1622 1620 1621 0
1504 1623 1613 0
1509 1623 1504 0
1511 1508 1618 0
1618 1620 1624 0
1618 1624 1512 0
1618 1512 1511 0
1625 1624 1620 0
1626 1625 1620 0
1622 1626 1620 0
1627 1625 1626 0
1509 1628 1623 0
1513 1628 1509 0
1514 1512 1624 0
1624 1625 1514 0
1514 1625 1516 0
1630 1625 1627 0
1630 1629 1625 0
1629 1516 1625 0
1517 1516 1629 0
1631 1629 1630 0
1513 1632 1628 0
1518 1632 1513 0
1520 1517 1629 0
1631 1633 1521 0
1629 1631 1521 0
1520 1629 1521 0
1523 1522 1634 0
1524 1634 1635 0
1523 1634 1524 0
1636 1632 1518 0
1636 1518 1524 0
1636 1524 1635 0
1637 1526 1633 0
1633 1526 1521 0
1638 1526 1637 0
1527 1526 1638 0
1522 1528 1639 0
1634 1522 1639 0
1640 1634 1639 0
1640 1641 1634 0
1634 1641 1635 0
1641 1636 1635 0
1530 1638 1642 0
1527 1638 1530 0
1532 1531 1643 0
1644 1639 1528 0
1644 1528 1532 0
1644 1532 1643 0
1533 1530 1642 0
1533 1642 1646 0
1533 1646 1645 0
1647 1645 1646 0
1531 1534 1648 0
1643 1531 1648 0
1649 1643 1648 0
1649 1644 1643 0
1535 1533 1650 0
1650 1533 1645 0
1647 1650 1645 0
1651 1650 1647 0
1534 1652 1648 0
1536 1652 1534 0
1538 1535 1650 0
1651 1653 1539 0
1650 1651 1539 0
1538 1650 1539 0
1536 1654 1652 0
1540 1654 1536 0
1541 1539 1653 0
1541 1653 1656 0
1541 1656 1655 0
1657 1655 1656 0
1540 1658 1654 0
1543 1658 1540 0
1659 1544 1541 0
1659 1541 1655 0
1659 1655 1660 0
1655 1657 1660 0
1543 1661 1658 0
1546 1661 1543 0
1547 1659 1662 0
1544 1659 1547 0
1546 1663 1661 0
1549 1663 1546 0
1550 1662 1664 0
1547 1662 1550 0
1549 1665 1663 0
1552 1665 1549 0
1666 1553 1667 0
1667 1553 1554 0
1550 1667 1554 0
1664 1667 1550 0
1665 1555 1668 0
1552 1555 1665 0
1670 1668 1555 0
1670 1555 1556 0
1670 1556 1669 0
1669 1671 1670 0
1670 1671 1672 0
1672 1671 1673 0
1557 1666 1674 0
1553 1666 1557 0
1675 1556 1558 0
1669 1556 1675 0
1675 1671 1669 0
1676 1671 1675 0
1671 1676 1673 0
1673 1676 1677 0
1559 1674 1678 0
1557 1674 1559 0
1675 1558 1560 0
1560 1676 1675 0
1561 1676 1560 0
1562 1679 1677 0
1562 1677 1676 0
1562 1676 1561 0
1563 1678 1680 0
1559 1678 1563 0
1562 1681 1679 0
1564 1681 1562 0
1565 1563 1680 0
1565 1680 1683 0
1565 1683 1682 0
1684 1682 1683 0
1564 1685 1681 0
1567 1685 1564 0
1686 1570 1571 0
1571 1572 1688 0
1571 1688 1687 0
1571 1687 1686 0
1688 1573 1689 0
1572 1573 1688 0
1689 1574 1690 0
1573 1574 1689 0
1690 1575 1691 0
1574 1575 1690 0
1691 1576 1692 0
1575 1576 1691 0
1692 1578 1693 0
1576 1578 1692 0
1695 1693 1578 0
1695 1578 1579 0
1695 1579 1694 0
1694 1696 1695 0
1695 1696 1697 0
1697 1696 1698 0
1699 1580 1700 0
1700 1580 1581 0
1700 1582 1701 0
1581 1582 1700 0
1701 1583 1702 0
1582 1583 1701 0
1703 1702 1583 0
1682 1703 1583 0
1565 1682 1583 0
1682 1684 1703 0
1685 1584 1704 0
1567 1584 1685 0
1706 1704 1584 0
