#!ascii version of
8084 16172
2983 3242 3227 0
3231 3244 3230 0
3230 3244 3243 0
3243 3233 3230 0
3245 3233 3243 0
3233 2999 2988 0
3245 2999 3233 0
3237 3000 3246 0
2993 3000 3237 0
3246 3000 3001 0
3246 3001 3247 0
3246 3247 3248 0
3003 3247 3001 0
3244 3249 3004 0
3244 3004 3005 0
3244 3005 3243 0
3005 3245 3243 0
3006 3245 3005 0
3006 2999 3245 0
3248 3247 3250 0
3007 3251 3250 0
3003 3007 3250 0
3247 3003 3250 0
3251 3007 3252 0
3252 3007 3009 0
3010 3249 3253 0
3004 3249 3010 0
3009 3254 3252 0
3012 3254 3009 0
3255 3013 3256 0
3256 3013 3014 0
3010 3256 3014 0
3253 3256 3010 0
3012 3257 3254 0
3016 3257 3012 0
3017 3255 3258 0
3013 3255 3017 0
3260 3019 3259 0
3020 3019 3260 0
3261 3020 3260 0
3022 3020 3261 0
3022 3261 3016 0
3016 3261 3257 0
3263 3262 3264 0
3025 3265 3264 0
3025 3264 3262 0
3025 3262 3024 0
3265 3027 3266 0
3025 3027 3265 0
3017 3266 3027 0
3258 3266 3017 0
3019 3267 3259 0
3028 3267 3019 0
3268 3030 3031 0
3031 3032 3270 0
3031 3270 3269 0
3031 3269 3268 0
3270 3032 3033 0
3263 3270 3033 0
3262 3263 3033 0
3033 3024 3262 0
3028 3271 3267 0
3034 3271 3028 0
3272 3036 3273 0
3273 3036 3037 0
3274 3273 3037 0
3268 3274 3037 0
3030 3268 3037 0
3268 3269 3274 0
3034 3275 3271 0
3038 3275 3034 0
3276 3039 3277 0
3277 3039 3040 0
3277 3041 3278 0
3040 3041 3277 0
3278 3041 3042 0
3278 3042 3279 0
3278 3279 3280 0
3043 3279 3042 0
3282 3281 3283 0
3046 3284 3283 0
3046 3283 3281 0
3046 3281 3045 0
3284 3048 3285 0
3046 3048 3284 0
3287 3285 3048 0
3287 3048 3049 0
3287 3049 3286 0
3287 3286 3288 0
3289 3050 3051 0
3290 3289 3052 0
3052 3289 3051 0
3052 3053 3292 0
3052 3292 3291 0
3052 3291 3290 0
3292 3054 3293 0
3053 3054 3292 0
3036 3293 3054 0
3272 3293 3036 0
3275 3055 3294 0
3038 3055 3275 0
3294 3056 3295 0
3055 3056 3294 0
3039 3295 3056 0
3276 3295 3039 0
3280 3279 3296 0
3298 3296 3297 0
3296 3057 3297 0
3296 3279 3057 0
3279 3043 3057 0
3297 3299 3298 0
3298 3299 3300 0
3299 3301 3281 0
3299 3281 3282 0
3299 3282 3300 0
3281 3058 3045 0
3301 3058 3281 0
3286 3049 3059 0
3059 3060 3302 0
3286 3059 3302 0
3288 3286 3302 0
3302 3061 3303 0
3060 3061 3302 0
3304 3303 3061 0
3289 3304 3061 0
3050 3289 3061 0
3289 3305 3304 0
3290 3305 3289 0
3290 3291 3305 0
3297 3057 3062 0
3062 3299 3297 0
3063 3299 3062 0
3063 3301 3299 0
3064 3301 3063 0
3064 3058 3301 0
3308 3306 3307 0
3308 3309 3306 0
3310 3309 3308 0
3311 3309 3310 0
3314 3312 3313 0
3314 3315 3312 0
3316 3315 3314 0
3316 3317 3315 0
3318 3317 3316 0
3306 3319 3317 0
3307 3306 3317 0
3318 3307 3317 0
3320 3306 3309 0
3319 3306 3320 0
3311 3320 3309 0
3321 3320 3311 0
3312 3323 3313 0
3322 3323 3312 0
3324 3312 3315 0
3322 3312 3324 0
3324 3315 3317 0
3324 3317 3067 0
3324 3067 3066 0
3317 3319 3067 0
3067 3319 3069 0
3319 3320 3069 0
3069 3320 3071 0
3321 3325 3072 0
3320 3321 3072 0
3071 3320 3072 0
3322 3327 3323 0
3326 3327 3322 0
3326 3322 3324 0
3326 3324 3074 0
3326 3074 3073 0
3324 3066 3074 0
3076 3325 3328 0
3072 3325 3076 0
3326 3330 3327 0
3329 3330 3326 0
3073 3077 3326 0
3326 3077 3329 0
3332 3331 3333 0
3079 3076 3328 0
3331 3079 3328 0
3333 3331 3328 0
3336 3334 3335 0
3329 3337 3334 0
3330 3329 3334 0
3336 3330 3334 0
3077 3080 3329 0
3329 3080 3337 0
3338 3331 3332 0
3339 3082 3079 0
3338 3339 3079 0
3331 3338 3079 0
3334 3341 3335 0
3340 3341 3334 0
3342 3334 3337 0
3340 3334 3342 0
3080 3083 3337 0
3337 3083 3342 0
3084 3339 3343 0
3082 3339 3084 0
3086 3344 3341 0
3087 3086 3341 0
3340 3087 3341 0
3340 3342 3087 0
3087 3342 3089 0
3342 3083 3089 0
3091 3343 3345 0
3084 3343 3091 0
3086 3346 3344 0
3093 3346 3086 0
3096 3345 3347 0
3091 3345 3096 0
3093 3348 3346 0
3098 3348 3093 0
3349 3102 3103 0
3350 3349 3104 0
3104 3349 3103 0
3096 3347 3351 0
3104 3096 3351 0
3350 3104 3351 0
3098 3352 3348 0
3106 3352 3098 0
3110 3102 3353 0
3353 3102 3349 0
3354 3349 3350 0
3353 3349 3354 0
3351 3354 3350 0
3355 3354 3351 0
3357 3112 3356 0
3113 3112 3357 0
3113 3357 3106 0
3106 3357 3352 0
3118 3110 3358 0
3358 3110 3353 0
3359 3353 3354 0
3358 3353 3359 0
3355 3359 3354 0
3360 3359 3355 0
3362 3120 3361 0
3121 3120 3362 0
3363 3121 3362 0
3123 3121 3363 0
3123 3363 3112 0
3112 3363 3356 0
3364 3128 3129 0
3365 3358 3366 0
3365 3364 3358 0
3364 3118 3358 0
3129 3118 3364 0
3358 3367 3366 0
3359 3367 3358 0
3359 3360 3367 0
3369 3130 3368 0
3131 3130 3369 0
3131 3369 3120 0
3120 3369 3361 0
3370 3134 3135 0
3364 3371 3370 0
3364 3370 3135 0
3364 3135 3128 0
3365 3371 3364 0
3372 3371 3365 0
3374 3137 3373 0
3138 3137 3374 0
3375 3138 3374 0
3140 3138 3375 0
3376 3140 3375 0
3141 3140 3376 0
3141 3376 3130 0
3130 3376 3368 0
3143 3134 3377 0
3377 3134 3370 0
3378 3370 3371 0
3377 3370 3378 0
3372 3378 3371 0
3379 3378 3372 0
3137 3380 3373 0
3145 3380 3137 0
3148 3143 3377 0
3377 3378 3148 0
3148 3378 3150 0
3382 3378 3379 0
3382 3381 3378 0
3381 3150 3378 0
3151 3150 3381 0
3382 3383 3381 0
3384 3383 3382 0
3385 3383 3384 0
3145 3386 3380 0
3152 3386 3145 0
3153 3151 3381 0
3381 3383 3153 0
3153 3383 3154 0
3385 3387 3155 0
3383 3385 3155 0
3154 3383 3155 0
3389 3160 3388 0
3161 3160 3389 0
3390 3161 3389 0
3162 3161 3390 0
3391 3162 3390 0
3163 3162 3391 0
3392 3163 3391 0
3164 3163 3392 0
3393 3164 3392 0
3165 3164 3393 0
3394 3165 3393 0
3166 3165 3394 0
3166 3394 3152 0
3152 3394 3386 0
3396 3395 3397 0
3395 3398 3397 0
3397 3398 3399 0
3167 3155 3387 0
3398 3167 3387 0
3399 3398 3387 0
3401 3168 3400 0
3169 3168 3401 0
3402 3169 3401 0
3170 3169 3402 0
3403 3170 3402 0
3171 3170 3403 0
3404 3171 3403 0
3172 3171 3404 0
3172 3404 3160 0
3160 3404 3388 0
3396 3405 3173 0
3396 3173 3174 0
3396 3174 3395 0
3174 3398 3395 0
3175 3398 3174 0
3175 3167 3398 0
3407 3400 3168 0
3406 3407 3168 0
3176 3406 3168 0
3177 3406 3176 0
3409 3408 3410 0
3180 3411 3410 0
3180 3410 3408 0
3180 3408 3179 0
3173 3411 3180 0
3405 3411 3173 0
3407 3406 3412 0
3177 3182 3413 0
3177 3413 3412 0
3177 3412 3406 0
3415 3414 3416 0
3414 3417 3416 0
3416 3417 3418 0
3417 3419 3418 0
3418 3419 3420 0
3419 3421 3408 0
3419 3408 3409 0
3419 3409 3420 0
3408 3183 3179 0
3421 3183 3408 0
3186 3185 3422 0
3187 3422 3423 0
3186 3422 3187 0
3187 3423 3189 0
3182 3424 3413 0
3191 3424 3182 0
3426 3425 3427 0
3425 3428 3427 0
3427 3428 3429 0
3428 3430 3429 0
3429 3430 3431 0
3430 3432 3414 0
3430 3414 3415 0
3430 3415 3431 0
3417 3414 3432 0
3193 3417 3432 0
3192 3193 3432 0
3193 3419 3417 0
3194 3419 3193 0
3194 3421 3419 0
3195 3421 3194 0
3195 3183 3421 0
3434 3197 3433 0
3198 3197 3434 0
3435 3198 3434 0
3199 3198 3435 0
3436 3199 3435 0
3200 3199 3436 0
3200 3436 3437 0
3200 3437 3422 0
3200 3422 3185 0
3437 3438 3422 0
3422 3438 3423 0
3438 3439 3201 0
3438 3201 3189 0
3438 3189 3423 0
3440 3201 3439 0
3202 3201 3440 0
3441 3202 3440 0
3203 3202 3441 0
3442 3203 3441 0
3205 3203 3442 0
3445 3443 3444 0
3445 3446 3209 0
3443 3445 3209 0
3208 3443 3209 0
3209 3446 3191 0
3191 3446 3424 0
3426 3448 3425 0
3425 3448 3447 0
3447 3428 3425 0
3449 3428 3447 0
3449 3430 3428 0
3450 3430 3449 0
3432 3430 3450 0
3213 3432 3450 0
3212 3213 3450 0
3213 3192 3432 0
3433 3214 3451 0
3197 3214 3433 0
3451 3215 3452 0
3214 3215 3451 0
3452 3216 3453 0
3215 3216 3452 0
3453 3217 3454 0
3216 3217 3453 0
3454 3218 3455 0
3217 3218 3454 0
3455 3220 3456 0
3218 3220 3455 0
3456 3220 3457 0
3457 3220 3221 0
3458 3222 3442 0
3442 3222 3205 0
3459 3222 3458 0
3223 3222 3459 0
3460 3223 3459 0
3224 3223 3460 0
3461 3224 3460 0
3225 3224 3461 0
3462 3225 3461 0
3226 3225 3462 0
3464 3227 3463 0
3228 3227 3464 0
3229 3228 3464 0
3229 3464 3444 0
3229 3444 3443 0
3443 3208 3229 0
3448 3466 3447 0
3447 3466 3465 0
3465 3449 3447 0
3467 3449 3465 0
3450 3449 3467 0
3232 3450 3467 0
3231 3232 3467 0
3232 3212 3450 0
3457 3234 3468 0
3221 3234 3457 0
3468 3235 3469 0
3234 3235 3468 0
3469 3236 3470 0
3235 3236 3469 0
3470 3236 3471 0
3471 3236 3237 0
3472 3238 3462 0
3462 3238 3226 0
3473 3238 3472 0
3239 3238 3473 0
3474 3239 3473 0
3240 3239 3474 0
3475 3240 3474 0
3241 3240 3475 0
3476 3241 3475 0
3242 3241 3476 0
3242 3476 3227 0
3227 3476 3463 0
3477 3465 3466 0
3478 3467 3465 0
3478 3465 3477 0
3478 3477 3479 0
3467 3244 3231 0
3478 3244 3467 0
3471 3246 3480 0
3237 3246 3471 0
3480 3246 3481 0
3481 3246 3248 0
3482 3478 3479 0
3483 3249 3244 0
3482 3483 3244 0
3478 3482 3244 0
3481 3250 3484 0
3248 3250 3481 0
3484 3250 3251 0
3484 3251 3485 0
3484 3485 3486 0
3252 3485 3251 0
3253 3249 3483 0
3253 3483 3488 0
3253 3488 3487 0
3489 3487 3488 0
3485 3491 3486 0
3490 3491 3485 0
3252 3254 3485 0
3485 3254 3490 0
3492 3255 3256 0
3487 3493 3492 0
3487 3492 3256 0
3487 3256 3253 0
3489 3493 3487 0
3494 3493 3489 0
3490 3496 3491 0
3495 3496 3490 0
3254 3257 3490 0
3490 3257 3495 0
3258 3255 3497 0
3497 3255 3492 0
3497 3492 3493 0
3498 3497 3493 0
3499 3498 3493 0
3493 3494 3499 0
3501 3259 3500 0
3260 3259 3501 0
3261 3260 3501 0
3261 3501 3496 0
3261 3496 3495 0
3495 3257 3261 0
3502 3263 3503 0
3503 3263 3264 0
3503 3265 3504 0
3264 3265 3503 0
3504 3266 3505 0
3265 3266 3504 0
3506 3505 3266 0
3497 3506 3266 0
3258 3497 3266 0
3497 3498 3506 0
3509 3507 3508 0
3500 3259 3267 0
3500 3267 3507 0
3500 3507 3509 0
3510 3269 3511 0
3511 3269 3270 0
3263 3511 3270 0
3502 3511 3263 0
3507 3513 3508 0
3512 3513 3507 0
3267 3271 3507 0
3507 3271 3512 0
3514 3272 3515 0
3515 3272 3273 0
3515 3274 3516 0
3273 3274 3515 0
3269 3516 3274 0
3510 3516 3269 0
3513 3512 3517 0
3519 3517 3518 0
3517 3275 3518 0
3517 3512 3275 0
3512 3271 3275 0
3518 3520 3519 0
3519 3520 3521 0
3277 3522 3521 0
3277 3521 3520 0
3277 3520 3276 0
3522 3278 3523 0
3277 3278 3522 0
3523 3278 3524 0
3524 3278 3280 0
3525 3282 3526 0
3526 3282 3283 0
3526 3284 3527 0
3283 3284 3526 0
3527 3285 3528 0
3284 3285 3527 0
3528 3287 3529 0
3285 3287 3528 0
3531 3529 3287 0
3531 3287 3288 0
3531 3288 3530 0
3531 3530 3532 0
3533 3291 3534 0
3534 3291 3292 0
3534 3293 3535 0
3292 3293 3534 0
3272 3535 3293 0
3514 3535 3272 0
3518 3275 3294 0
3294 3520 3518 0
3295 3520 3294 0
3295 3276 3520 0
3524 3296 3536 0
3280 3296 3524 0
3536 3298 3537 0
3296 3298 3536 0
3537 3300 3538 0
3298 3300 3537 0
3282 3538 3300 0
3525 3538 3282 0
3530 3288 3302 0
3302 3303 3539 0
3530 3302 3539 0
3532 3530 3539 0
3539 3304 3540 0
3303 3304 3539 0
3540 3305 3541 0
3304 3305 3540 0
3291 3541 3305 0
3533 3541 3291 0
3544 3542 3543 0
3544 3545 3542 0
3546 3545 3544 0
3547 3545 3546 0
3542 3549 3543 0
3548 3549 3542 0
3550 3542 3545 0
3548 3542 3550 0
3547 3550 3545 0
3551 3550 3547 0
3554 3552 3553 0
3554 3555 3552 0
3556 3555 3554 0
3549 3555 3556 0
3549 3548 3555 0
3548 3307 3555 0
3308 3307 3548 0
3548 3550 3308 0
3308 3550 3310 0
3551 3557 3311 0
3550 3551 3311 0
3310 3550 3311 0
3314 3313 3558 0
3559 3553 3558 0
3553 3314 3558 0
3553 3552 3314 0
3552 3316 3314 0
3552 3555 3316 0
3316 3555 3318 0
3555 3307 3318 0
3561 3560 3562 0
3321 3311 3557 0
3560 3321 3557 0
3562 3560 3557 0
3313 3323 3563 0
3558 3313 3563 0
3564 3558 3563 0
3564 3559 3558 0
3566 3565 3567 0
3565 3568 3567 0
3567 3568 3569 0
3568 3570 3560 0
3568 3560 3561 0
3568 3561 3569 0
3560 3325 3321 0
3570 3325 3560 0
3573 3571 3572 0
3563 3323 3327 0
3563 3327 3571 0
3563 3571 3573 0
3566 3575 3565 0
3565 3575 3574 0
3574 3568 3565 0
3576 3568 3574 0
3576 3570 3568 0
3577 3570 3576 0
3570 3328 3325 0
3577 3328 3570 0
3571 3579 3572 0
3578 3579 3571 0
3327 3330 3571 0
3571 3330 3578 0
3575 3581 3574 0
3574 3581 3580 0
3580 3576 3574 0
3582 3576 3580 0
3577 3576 3582 0
3333 3577 3582 0
3332 3333 3582 0
3333 3328 3577 0
3335 3583 3579 0
3336 3335 3579 0
3578 3336 3579 0
3578 3330 3336 0
3581 3585 3580 0
3580 3585 3584 0
3584 3582 3580 0
3586 3582 3584 0
3582 3586 3587 0
3332 3582 3587 0
3338 3332 3587 0
3338 3587 3339 0
3335 3588 3583 0
3341 3588 3335 0
3585 3590 3584 0
3584 3590 3589 0
3589 3586 3584 0
3591 3586 3589 0
3591 3587 3586 0
3592 3587 3591 0
3587 3343 3339 0
3592 3343 3587 0
3341 3593 3588 0
3344 3593 3341 0
3594 3589 3590 0
3595 3591 3589 0
3595 3589 3594 0
3595 3594 3596 0
3595 3592 3591 0
3597 3592 3595 0
3592 3345 3343 0
3597 3345 3592 0
3344 3598 3593 0
3346 3598 3344 0
3599 3595 3596 0
3600 3597 3595 0
3600 3595 3599 0
3600 3599 3601 0
3597 3347 3345 0
3600 3347 3597 0
3346 3602 3598 0
3348 3602 3346 0
3603 3600 3601 0
3604 3351 3347 0
3603 3604 3347 0
3600 3603 3347 0
3348 3605 3602 0
3352 3605 3348 0
3355 3604 3606 0
3351 3604 3355 0
3609 3607 3608 0
3609 3610 3357 0
3607 3609 3357 0
3356 3607 3357 0
3357 3610 3352 0
3352 3610 3605 0
3360 3606 3611 0
3355 3606 3360 0
3613 3361 3612 0
3362 3361 3613 0
3363 3362 3613 0
3363 3613 3608 0
3363 3608 3607 0
3607 3356 3363 0
3614 3365 3366 0
3615 3614 3367 0
3367 3614 3366 0
3360 3611 3616 0
3367 3360 3616 0
3615 3367 3616 0
3619 3617 3618 0
3619 3620 3617 0
3621 3620 3619 0
3621 3622 3369 0
3620 3621 3369 0
3368 3620 3369 0
3369 3622 3361 0
3361 3622 3612 0
3623 3372 3365 0
3623 3365 3614 0
3623 3614 3624 0
3614 3625 3624 0
3615 3625 3614 0
3615 3616 3625 0
3628 3626 3627 0
3628 3629 3374 0
3626 3628 3374 0
3373 3626 3374 0
3375 3374 3629 0
3375 3629 3618 0
3375 3618 3617 0
3617 3620 3375 0
3375 3620 3376 0
3620 3368 3376 0
3379 3623 3630 0
3372 3623 3379 0
3626 3632 3627 0
3631 3632 3626 0
3373 3380 3626 0
3626 3380 3631 0
3633 3382 3630 0
3630 3382 3379 0
3634 3382 3633 0
3384 3382 3634 0
3635 3384 3634 0
3385 3384 3635 0
3638 3636 3637 0
3638 3639 3636 0
3640 3639 3638 0
3640 3641 3639 0
3642 3641 3640 0
3642 3643 3641 0
3644 3643 3642 0
3644 3645 3643 0
3646 3645 3644 0
3631 3647 3645 0
3632 3631 3645 0
3646 3632 3645 0
3380 3386 3631 0
3631 3386 3647 0
3387 3635 3648 0
3385 3635 3387 0
3651 3649 3650 0
3637 3649 3651 0
3637 3636 3649 0
3636 3388 3649 0
3389 3388 3636 0
3636 3639 3389 0
3389 3639 3390 0
3639 3641 3390 0
3390 3641 3391 0
3641 3643 3391 0
3391 3643 3392 0
3643 3645 3392 0
3392 3645 3393 0
3645 3647 3393 0
3393 3647 3394 0
3647 3386 3394 0
3652 3396 3653 0
3653 3396 3397 0
3653 3399 3654 0
3397 3399 3653 0
3387 3654 3399 0
3648 3654 3387 0
3656 3400 3655 0
3401 3400 3656 0
3657 3401 3656 0
3402 3401 3657 0
3658 3402 3657 0
3403 3402 3658 0
3404 3403 3658 0
3404 3658 3650 0
3404 3650 3649 0
3649 3388 3404 0
3405 3652 3659 0
3396 3652 3405 0
3400 3660 3655 0
3407 3660 3400 0
3661 3409 3662 0
3662 3409 3410 0
3662 3411 3663 0
3410 3411 3662 0
3405 3663 3411 0
3659 3663 3405 0
3665 3660 3407 0
3664 3665 3407 0
3412 3664 3407 0
3413 3664 3412 0
3667 3666 3668 0
3416 3669 3668 0
3416 3668 3666 0
3416 3666 3415 0
3669 3418 3670 0
3416 3418 3669 0
3670 3420 3671 0
3418 3420 3670 0
3409 3671 3420 0
3661 3671 3409 0
3664 3673 3665 0
3672 3673 3664 0
3413 3424 3664 0
3664 3424 3672 0
3674 3426 3675 0
3675 3426 3427 0
3675 3429 3676 0
3427 3429 3675 0
3676 3429 3431 0
3667 3676 3431 0
3666 3667 3431 0
3431 3415 3666 0
3678 3433 3677 0
3434 3433 3678 0
3679 3434 3678 0
3435 3434 3679 0
3680 3435 3679 0
3436 3435 3680 0
3681 3436 3680 0
3437 3436 3681 0
3682 3437 3681 0
3438 3437 3682 0
3683 3438 3682 0
3439 3438 3683 0
3684 3439 3683 0
3440 3439 3684 0
3685 3440 3684 0
3441 3440 3685 0
3686 3441 3685 0
3442 3441 3686 0
3689 3687 3688 0
3689 3690 3687 0
3691 3690 3689 0
3691 3692 3445 0
3690 3691 3445 0
3444 3690 3445 0
3446 3445 3692 0
3446 3692 3673 0
3446 3673 3672 0
3672 3424 3446 0
3448 3674 3693 0
3426 3674 3448 0
3677 3451 3694 0
3433 3451 3677 0
3694 3452 3695 0
3451 3452 3694 0
3695 3453 3696 0
3452 3453 3695 0
3696 3454 3697 0
3453 3454 3696 0
3697 3455 3698 0
3454 3455 3697 0
3698 3456 3699 0
3455 3456 3698 0
3699 3456 3700 0
3700 3456 3457 0
3701 3458 3686 0
3686 3458 3442 0
3702 3458 3701 0
3459 3458 3702 0
3703 3459 3702 0
3460 3459 3703 0
3704 3460 3703 0
3461 3460 3704 0
3461 3704 3706 0
3462 3461 3706 0
3705 3462 3706 0
3707 3705 3706 0
3710 3708 3709 0
3687 3711 3708 0
3688 3687 3708 0
3710 3688 3708 0
3711 3687 3690 0
3711 3690 3464 0
3711 3464 3463 0
3690 3444 3464 0
3466 3693 3712 0
3448 3693 3466 0
3700 3468 3713 0
3457 3468 3700 0
3713 3469 3714 0
3468 3469 3713 0
3714 3469 3470 0
3714 3470 3715 0
3714 3715 3716 0
3471 3715 3470 0
3472 3462 3705 0
3717 3473 3472 0
3717 3472 3705 0
3717 3705 3707 0
3718 3473 3717 0
3474 3473 3718 0
3475 3474 3718 0
3475 3718 3709 0
3475 3709 3708 0
3708 3711 3475 0
3475 3711 3476 0
3711 3463 3476 0
3719 3477 3712 0
3712 3477 3466 0
3720 3477 3719 0
3479 3477 3720 0
3716 3715 3721 0
3721 3722 3723 0
3721 3715 3722 0
3715 3480 3722 0
3471 3480 3715 0
3481 3722 3480 0
3479 3720 3725 0
3479 3725 3724 0
3479 3724 3482 0
3482 3724 3483 0
3723 3722 3726 0
3726 3727 3728 0
3726 3722 3727 0
3722 3484 3727 0
3481 3484 3722 0
3486 3727 3484 0
3729 3724 3725 0
3729 3730 3488 0
3729 3488 3483 0
3729 3483 3724 0
3731 3488 3730 0
3489 3488 3731 0
3728 3727 3732 0
3486 3491 3733 0
3486 3733 3732 0
3486 3732 3727 0
3494 3731 3734 0
3489 3731 3494 0
3491 3735 3733 0
3496 3735 3491 0
3736 3498 3737 0
3737 3498 3499 0
3494 3737 3499 0
3734 3737 3494 0
3501 3500 3738 0
3739 3735 3496 0
3739 3496 3501 0
3739 3501 3738 0
3740 3502 3741 0
3741 3502 3503 0
3741 3504 3742 0
3503 3504 3741 0
3742 3505 3743 0
3504 3505 3742 0
3743 3506 3744 0
3505 3506 3743 0
3498 3744 3506 0
3736 3744 3498 0
3746 3508 3745 0
3509 3508 3746 0
3509 3746 3747 0
3509 3747 3738 0
3509 3738 3500 0
3747 3739 3738 0
3748 3510 3749 0
3749 3510 3511 0
3502 3749 3511 0
3740 3749 3502 0
3508 3750 3745 0
3513 3750 3508 0
3751 3514 3752 0
3752 3514 3515 0
3752 3516 3753 0
3515 3516 3752 0
3510 3753 3516 0
3748 3753 3510 0
3750 3517 3754 0
3513 3517 3750 0
3754 3519 3755 0
3517 3519 3754 0
3755 3521 3756 0
3519 3521 3755 0
3756 3522 3757 0
3521 3522 3756 0
3757 3523 3758 0
3522 3523 3757 0
3758 3523 3759 0
3759 3523 3524 0
3760 3525 3761 0
3761 3525 3526 0
3761 3527 3762 0
3526 3527 3761 0
3762 3528 3763 0
3527 3528 3762 0
3763 3529 3764 0
3528 3529 3763 0
3764 3531 3765 0
3529 3531 3764 0
3767 3765 3531 0
3767 3531 3532 0
3767 3532 3766 0
3767 3766 3768 0
3769 3533 3534 0
3770 3769 3535 0
3535 3769 3534 0
3514 3751 3771 0
3535 3514 3771 0
3770 3535 3771 0
3759 3536 3772 0
3524 3536 3759 0
3772 3537 3773 0
3536 3537 3772 0
3773 3538 3774 0
3537 3538 3773 0
3525 3774 3538 0
3760 3774 3525 0
3766 3532 3539 0
3539 3540 3775 0
3766 3539 3775 0
3768 3766 3775 0
3775 3541 3776 0
3540 3541 3775 0
3777 3776 3541 0
3769 3777 3541 0
3533 3769 3541 0
3769 3778 3777 0
3770 3778 3769 0
3770 3771 3778 0
3544 3543 3779 0
3546 3779 3780 0
3544 3779 3546 0
3546 3780 3547 0
3781 3543 3549 0
3779 3543 3781 0
3781 3780 3779 0
3782 3780 3781 0
3780 3551 3547 0
3782 3551 3780 0
3554 3553 3783 0
3556 3783 3784 0
3554 3783 3556 0
3784 3785 3781 0
3556 3784 3781 0
3549 3556 3781 0
3785 3782 3781 0
3786 3782 3785 0
3782 3557 3551 0
3786 3557 3782 0
3787 3553 3559 0
3783 3553 3787 0
3787 3784 3783 0
3788 3784 3787 0
3788 3785 3784 0
3789 3785 3788 0
3786 3785 3789 0
3562 3786 3789 0
3561 3562 3789 0
3562 3557 3786 0
3564 3563 3790 0
3790 3791 3787 0
3564 3790 3787 0
3559 3564 3787 0
3788 3787 3791 0
3567 3788 3791 0
3566 3567 3791 0
3567 3789 3788 0
3569 3789 3567 0
3569 3561 3789 0
3793 3572 3792 0
3573 3572 3793 0
3573 3793 3794 0
3573 3794 3790 0
3573 3790 3563 0
3795 3791 3790 0
3795 3790 3794 0
3795 3794 3796 0
3791 3575 3566 0
3795 3575 3791 0
3572 3797 3792 0
3579 3797 3572 0
3796 3799 3795 0
3795 3799 3798 0
3795 3581 3575 0
3798 3581 3795 0
3802 3800 3801 0
3803 3800 3802 0
3806 3804 3805 0
3806 3807 3804 0
3808 3807 3806 0
3808 3809 3807 0
3810 3809 3808 0
3797 3579 3583 0
3797 3583 3809 0
3797 3809 3810 0
3811 3798 3799 0
3585 3581 3812 0
3581 3813 3812 0
3581 3798 3813 0
3798 3811 3813 0
3813 3814 3812 0
3815 3814 3813 0
3800 3816 3814 0
3801 3800 3814 0
3815 3801 3814 0
3803 3816 3800 0
3817 3816 3803 0
3804 3819 3805 0
3818 3819 3804 0
3820 3804 3807 0
3818 3804 3820 0
3821 3807 3809 0
3820 3807 3821 0
3583 3588 3809 0
3809 3588 3821 0
3590 3585 3822 0
3822 3585 3812 0
3823 3812 3814 0
3822 3812 3823 0
3824 3814 3816 0
3823 3814 3824 0
3817 3824 3816 0
3825 3824 3817 0
3818 3827 3819 0
3826 3827 3818 0
3828 3818 3820 0
3826 3818 3828 0
3829 3820 3821 0
3828 3820 3829 0
3588 3593 3821 0
3821 3593 3829 0
3594 3590 3822 0
3822 3823 3830 0
3822 3830 3596 0
3822 3596 3594 0
3831 3823 3824 0
3830 3823 3831 0
3825 3831 3824 0
3832 3831 3825 0
3826 3834 3827 0
3833 3834 3826 0
3835 3826 3828 0
3833 3826 3835 0
3836 3828 3829 0
3835 3828 3836 0
3593 3598 3829 0
3829 3598 3836 0
3599 3596 3830 0
3830 3831 3837 0
3830 3837 3601 0
3830 3601 3599 0
3832 3837 3831 0
3838 3837 3832 0
3834 3833 3839 0
3833 3835 3840 0
3839 3833 3840 0
3841 3839 3840 0
3842 3835 3836 0
3840 3835 3842 0
3598 3602 3836 0
3836 3602 3842 0
3603 3601 3837 0
3838 3843 3604 0
3837 3838 3604 0
3603 3837 3604 0
3840 3845 3841 0
3844 3845 3840 0
3846 3840 3842 0
3844 3840 3846 0
3602 3605 3842 0
3842 3605 3846 0
3606 3843 3847 0
3604 3843 3606 0
3850 3848 3849 0
3845 3848 3850 0
3845 3844 3848 0
3844 3608 3848 0
3609 3608 3844 0
3844 3846 3609 0
3609 3846 3610 0
3846 3605 3610 0
3611 3847 3851 0
3606 3847 3611 0
3854 3852 3853 0
3854 3855 3852 0
3856 3855 3854 0
3849 3855 3856 0
3849 3848 3855 0
3848 3612 3855 0
3613 3612 3848 0
3848 3608 3613 0
3616 3851 3857 0
3611 3851 3616 0
3860 3858 3859 0
3861 3858 3860 0
3863 3618 3862 0
3619 3618 3863 0
3621 3619 3863 0
3621 3863 3853 0
3621 3853 3852 0
3852 3855 3621 0
3621 3855 3622 0
3855 3612 3622 0
3864 3623 3624 0
3865 3864 3625 0
3625 3864 3624 0
3616 3857 3866 0
3625 3616 3866 0
3865 3625 3866 0
3858 3868 3859 0
3867 3868 3858 0
3869 3628 3861 0
3628 3858 3861 0
3628 3627 3858 0
3627 3867 3858 0
3870 3628 3869 0
3629 3628 3870 0
3629 3870 3618 0
3618 3870 3862 0
3630 3623 3871 0
3871 3623 3864 0
3872 3864 3865 0
3871 3864 3872 0
3866 3872 3865 0
3873 3872 3866 0
3867 3875 3868 0
3874 3875 3867 0
3627 3632 3867 0
3867 3632 3874 0
3633 3630 3871 0
3871 3872 3633 0
3633 3872 3634 0
3873 3876 3635 0
3872 3873 3635 0
3634 3872 3635 0
3878 3637 3877 0
3638 3637 3878 0
3879 3638 3878 0
3640 3638 3879 0
3880 3640 3879 0
3642 3640 3880 0
3881 3642 3880 0
3644 3642 3881 0
3646 3644 3881 0
3646 3881 3875 0
3646 3875 3874 0
3874 3632 3646 0
3883 3882 3884 0
3648 3635 3876 0
3882 3648 3876 0
3884 3882 3876 0
3886 3650 3885 0
3651 3650 3886 0
3651 3886 3637 0
3637 3886 3877 0
3888 3887 3889 0
3887 3890 3889 0
3889 3890 3891 0
3653 3892 3891 0
3653 3891 3890 0
3653 3890 3652 0
3892 3653 3654 0
3883 3892 3654 0
3882 3883 3654 0
3654 3648 3882 0
3894 3655 3893 0
3656 3655 3894 0
3895 3656 3894 0
3657 3656 3895 0
3896 3657 3895 0
3658 3657 3896 0
3658 3896 3650 0
3650 3896 3885 0
3898 3897 3899 0
3897 3900 3899 0
3899 3900 3901 0
3900 3902 3901 0
3901 3902 3903 0
3902 3904 3887 0
3902 3887 3888 0
3902 3888 3903 0
3904 3890 3887 0
3905 3890 3904 0
3890 3659 3652 0
3905 3659 3890 0
3655 3906 3893 0
3660 3906 3655 0
3908 3907 3909 0
3907 3910 3909 0
3909 3910 3911 0
3910 3912 3897 0
3910 3897 3898 0
3910 3898 3911 0
3912 3900 3897 0
3913 3900 3912 0
3913 3902 3900 0
3914 3902 3913 0
3904 3902 3914 0
3662 3904 3914 0
3661 3662 3914 0
3662 3905 3904 0
3663 3905 3662 0
3663 3659 3905 0
3660 3915 3906 0
3665 3915 3660 0
3917 3916 3918 0
3916 3919 3907 0
3916 3907 3908 0
3916 3908 3918 0
3910 3907 3919 0
3668 3910 3919 0
3667 3668 3919 0
3668 3912 3910 0
3669 3912 3668 0
3669 3913 3912 0
3670 3913 3669 0
3670 3914 3913 0
3671 3914 3670 0
3671 3661 3914 0
3665 3920 3915 0
3673 3920 3665 0
3917 3921 3674 0
3917 3674 3675 0
3917 3675 3916 0
3675 3919 3916 0
3676 3919 3675 0
3676 3667 3919 0
3923 3677 3922 0
3678 3677 3923 0
3924 3678 3923 0
3679 3678 3924 0
3925 3679 3924 0
3680 3679 3925 0
3926 3680 3925 0
3681 3680 3926 0
3927 3681 3926 0
3682 3681 3927 0
3928 3682 3927 0
3683 3682 3928 0
3929 3683 3928 0
3684 3683 3929 0
3930 3684 3929 0
3685 3684 3930 0
3685 3930 3932 0
3686 3685 3932 0
3931 3686 3932 0
3933 3931 3932 0
3935 3688 3934 0
3689 3688 3935 0
3936 3689 3935 0
3691 3689 3936 0
3937 3691 3936 0
3692 3691 3937 0
3692 3937 3673 0
3673 3937 3920 0
3693 3921 3938 0
3674 3921 3693 0
3922 3694 3939 0
3677 3694 3922 0
3939 3695 3940 0
3694 3695 3939 0
3940 3696 3941 0
3695 3696 3940 0
3941 3697 3942 0
3696 3697 3941 0
3942 3697 3698 0
3942 3698 3943 0
3942 3943 3944 0
3945 3943 3699 0
3699 3943 3698 0
3700 3945 3699 0
3701 3686 3931 0
3946 3702 3701 0
3946 3701 3931 0
3946 3931 3933 0
3947 3702 3946 0
3703 3702 3947 0
3948 3703 3947 0
3704 3703 3948 0
3949 3704 3948 0
3706 3704 3949 0
3706 3949 3951 0
3707 3706 3951 0
3950 3707 3951 0
3951 3952 3950 0
3953 3952 3951 0
3953 3954 3710 0
3952 3953 3710 0
3709 3952 3710 0
3710 3954 3688 0
3688 3954 3934 0
3712 3938 3955 0
3693 3938 3712 0
3944 3943 3956 0
3943 3957 3956 0
3945 3957 3943 0
3713 3958 3957 0
3700 3713 3957 0
3945 3700 3957 0
3958 3713 3714 0
3958 3714 3959 0
3958 3959 3960 0
3716 3959 3714 0
3717 3707 3950 0
3950 3952 3717 0
3717 3952 3718 0
3952 3709 3718 0
3961 3719 3955 0
3955 3719 3712 0
3962 3719 3961 0
3720 3719 3962 0
3960 3959 3963 0
3721 3964 3963 0
3716 3721 3963 0
3959 3716 3963 0
3964 3721 3965 0
3965 3721 3723 0
3725 3962 3966 0
3720 3962 3725 0
3965 3726 3967 0
3723 3726 3965 0
3967 3726 3968 0
3968 3726 3728 0
3969 3729 3966 0
3966 3729 3725 0
3970 3729 3969 0
3730 3729 3970 0
3971 3730 3970 0
3731 3730 3971 0
3968 3732 3972 0
3728 3732 3968 0
3972 3732 3973 0
3973 3732 3733 0
3734 3731 3971 0
3734 3971 3975 0
3734 3975 3974 0
3976 3974 3975 0
3733 3977 3973 0
3735 3977 3733 0
3978 3736 3737 0
3974 3979 3978 0
3974 3978 3737 0
3974 3737 3734 0
3976 3979 3974 0
3980 3979 3976 0
3735 3981 3977 0
3739 3981 3735 0
3982 3740 3741 0
3983 3982 3742 0
3742 3982 3741 0
3984 3983 3743 0
3743 3983 3742 0
3985 3984 3744 0
3744 3984 3743 0
3978 3986 3985 0
3978 3985 3744 0
3978 3744 3736 0
3987 3978 3979 0
3986 3978 3987 0
3980 3987 3979 0
3988 3987 3980 0
3746 3745 3989 0
3991 3747 3746 0
3990 3991 3746 0
3989 3990 3746 0
3747 3991 3739 0
3739 3991 3981 0
3993 3992 3994 0
3749 3995 3994 0
3749 3994 3992 0
3749 3992 3748 0
3996 3995 3749 0
3982 3996 3749 0
3740 3982 3749 0
3982 3997 3996 0
3983 3997 3982 0
3983 3998 3997 0
3984 3998 3983 0
3984 3999 3998 0
3985 3999 3984 0
3985 4000 3999 0
3986 4000 3985 0
3986 3987 4001 0
4000 3986 4001 0
4002 4000 4001 0
4003 4001 3987 0
4004 4003 3987 0
3988 4004 3987 0
4005 4003 4004 0
4006 3745 3750 0
3989 3745 4006 0
3989 4006 4007 0
3989 4007 4008 0
3989 4008 3990 0
4008 4007 4009 0
4010 3751 3752 0
3993 4011 3992 0
4011 3753 3992 0
4011 4010 3753 0
4010 3752 3753 0
3753 3748 3992 0
4002 4001 4012 0
4001 4003 4013 0
4012 4001 4013 0
4014 4012 4013 0
4005 4013 4003 0
4015 4013 4005 0
4006 3750 3754 0
3754 4007 4006 0
3755 4007 3754 0
3755 3756 4016 0
4007 3755 4016 0
4009 4007 4016 0
4016 3757 4017 0
3756 3757 4016 0
4017 3758 4018 0
3757 3758 4017 0
4018 3758 4019 0
4019 3758 3759 0
4020 3760 4021 0
4021 3760 3761 0
4021 3762 4022 0
3761 3762 4021 0
4022 3763 4023 0
3762 3763 4022 0
4023 3764 4024 0
3763 3764 4023 0
4024 3765 4025 0
3764 3765 4024 0
4025 3767 4026 0
3765 3767 4025 0
4028 4026 3767 0
4028 3767 3768 0
4028 3768 4027 0
4027 4029 4028 0
4028 4029 4030 0
4029 4031 4030 0
4030 4031 4032 0
4031 4033 4032 0
4032 4033 4034 0
4034 4010 4035 0
4034 3751 4010 0
4033 3751 4034 0
3771 3751 4033 0
4010 4011 4035 0
4014 4013 4036 0
4013 4015 4036 0
4038 4019 3759 0
4037 4038 3759 0
3772 4037 3759 0
3772 3773 4040 0
3772 4040 4039 0
3772 4039 4037 0
4040 3774 4041 0
3773 3774 4040 0
3760 4041 3774 0
4020 4041 3760 0
4027 3768 3775 0
3775 4029 4027 0
3776 4029 3775 0
3776 4031 4029 0
3777 4031 3776 0
3777 4033 4031 0
3778 4033 3777 0
3778 3771 4033 0
4038 4037 4042 0
4037 4039 4042 0
3793 3792 4043 0
3794 4043 4044 0
3793 4043 3794 0
3794 4044 3796 0
4047 4045 4046 0
4048 4045 4047 0
3792 3797 4049 0
4043 3792 4049 0
4050 4043 4049 0
4050 4051 4043 0
4043 4051 4044 0
3799 3796 4052 0
3796 4053 4052 0
3796 4044 4053 0
4044 4051 4053 0
4045 4054 4052 0
4046 4045 4052 0
4053 4046 4052 0
4055 4054 4045 0
4056 4055 4045 0
4048 4056 4045 0
3802 3801 4057 0
4056 4058 4055 0
3802 4057 3803 0
3806 3805 4059 0
3808 4059 4060 0
3806 4059 3808 0
4062 3810 3808 0
4061 4062 3808 0
4060 4061 3808 0
3810 4062 3797 0
3797 4062 4049 0
3811 3799 4052 0
4052 4054 3811 0
3811 4054 3813 0
4054 4055 3813 0
3813 4055 3815 0
4063 3815 4064 0
4063 4057 3815 0
4057 3801 3815 0
4064 3815 4058 0
4058 3815 4055 0
4057 3817 3803 0
4063 3817 4057 0
4065 3805 3819 0
4059 3805 4065 0
4065 4060 4059 0
4066 4060 4065 0
4060 4066 4061 0
4061 4066 4067 0
4068 4063 4064 0
4069 3825 3817 0
4068 4069 3817 0
4063 4068 3817 0
3819 3827 4070 0
4065 3819 4070 0
4071 4065 4070 0
4071 4072 4065 0
4065 4072 4066 0
4072 4067 4066 0
3832 4069 4073 0
3825 4069 3832 0
3827 4074 4070 0
3834 4074 3827 0
4076 4075 4077 0
4075 4078 4077 0
4077 4078 4079 0
3838 3832 4073 0
4078 3838 4073 0
4079 4078 4073 0
4081 4074 3834 0
4080 4081 3834 0
3839 4080 3834 0
3841 4080 3839 0
4076 4083 4075 0
4075 4083 4082 0
4082 4078 4075 0
4084 4078 4082 0
4078 3843 3838 0
4084 3843 4078 0
4080 4086 4081 0
4085 4086 4080 0
3841 3845 4080 0
4080 3845 4085 0
4083 4088 4082 0
4082 4088 4087 0
4087 4084 4082 0
4089 4084 4087 0
4084 3847 3843 0
4089 3847 4084 0
4092 4090 4091 0
4092 4093 4090 0
4094 4093 4092 0
4086 4093 4094 0
4086 4085 4093 0
4085 3849 4093 0
3850 3849 4085 0
4085 3845 3850 0
4095 4087 4088 0
4096 4089 4087 0
4096 4087 4095 0
4096 4095 4097 0
4089 3851 3847 0
4096 3851 4089 0
3853 4098 4091 0
3854 3853 4091 0
4090 3854 4091 0
4090 4093 3854 0
3854 4093 3856 0
4093 3849 3856 0
4099 4096 4097 0
4100 3857 3851 0
4099 4100 3851 0
4096 4099 3851 0
4102 3859 4101 0
3860 3859 4102 0
3860 4102 4104 0
3861 3860 4104 0
4103 3861 4104 0
4104 4105 4103 0
4106 4105 4104 0
4106 4107 3863 0
4105 4106 3863 0
3862 4105 3863 0
3863 4107 3853 0
3853 4107 4098 0
3866 4100 4108 0
3857 4100 3866 0
3859 4109 4101 0
3868 4109 3859 0
3869 3861 4103 0
4103 4105 3869 0
3869 4105 3870 0
4105 3862 3870 0
3873 4108 4110 0
3866 4108 3873 0
4113 4111 4112 0
4109 3868 3875 0
4109 3875 4111 0
4109 4111 4113 0
3876 4110 4114 0
3873 4110 3876 0
4116 3877 4115 0
3878 3877 4116 0
4117 3878 4116 0
3879 3878 4117 0
4118 3879 4117 0
3880 3879 4118 0
3881 3880 4118 0
3881 4118 4112 0
3881 4112 4111 0
4111 3875 3881 0
4120 4119 4121 0
3884 4122 4121 0
3884 4121 4119 0
3884 4119 3883 0
3876 4122 3884 0
4114 4122 3876 0
4125 4123 4124 0
4125 4126 3886 0
4123 4125 3886 0
3885 4123 3886 0
3886 4126 3877 0
3877 4126 4115 0
4128 4127 4129 0
3889 4130 4129 0
3889 4129 4127 0
3889 4127 3888 0
4130 3891 4131 0
3889 3891 4130 0
4131 3891 3892 0
4120 4131 3892 0
4119 4120 3892 0
3892 3883 4119 0
4134 4132 4133 0
4134 4135 3894 0
4132 4134 3894 0
3893 4132 3894 0
4136 3894 4135 0
3895 3894 4136 0
3896 3895 4136 0
3896 4136 4124 0
3896 4124 4123 0
4123 3885 3896 0
4137 3898 4138 0
4138 3898 3899 0
4138 3901 4139 0
3899 3901 4138 0
4139 3901 3903 0
4128 4139 3903 0
4127 4128 3903 0
3903 3888 4127 0
4132 4141 4133 0
4140 4141 4132 0
3893 3906 4132 0
4132 3906 4140 0
4142 3908 4143 0
4143 3908 3909 0
4143 3911 4144 0
3909 3911 4143 0
3898 4144 3911 0
4137 4144 3898 0
4140 4146 4141 0
4145 4146 4140 0
3906 3915 4140 0
4140 3915 4145 0
4148 4147 4149 0
3918 4150 4149 0
3918 4149 4147 0
3918 4147 3917 0
3908 4150 3918 0
4142 4150 3908 0
4153 4151 4152 0
4145 4154 4151 0
4146 4145 4151 0
4153 4146 4151 0
3915 3920 4145 0
4145 3920 4154 0
4148 4156 4147 0
4147 4156 4155 0
4147 3921 3917 0
4155 3921 4147 0
3923 3922 4157 0
4159 3924 3923 0
4158 4159 3923 0
4157 4158 3923 0
3925 3924 4159 0
4160 3925 4159 0
4161 4160 4159 0
4163 3926 3925 0
4162 4163 3925 0
4160 4162 3925 0
4164 3926 4163 0
3927 3926 4164 0
4165 3927 4164 0
3928 3927 4165 0
4166 3928 4165 0
3929 3928 4166 0
4167 3929 4166 0
3930 3929 4167 0
4168 3930 4167 0
3932 3930 4168 0
4169 3932 4168 0
3933 3932 4169 0
4171 3934 4170 0
3935 3934 4171 0
3936 3935 4171 0
3936 4171 4152 0
3936 4152 4151 0
4151 4154 3936 0
3936 4154 3937 0
4154 3920 3937 0
4156 4173 4155 0
4155 4173 4172 0
4155 3938 3921 0
4172 3938 4155 0
4157 3922 3939 0
3939 3940 4174 0
4157 3939 4174 0
4158 4157 4174 0
4174 3940 3941 0
4161 4174 3941 0
4160 4161 3941 0
3941 3942 4175 0
4160 3941 4175 0
4162 4160 4175 0
4175 3942 4176 0
4176 3942 3944 0
4177 3946 4169 0
4169 3946 3933 0
4178 3946 4177 0
3947 3946 4178 0
4179 3947 4178 0
3948 3947 4179 0
4180 3948 4179 0
3949 3948 4180 0
4181 3949 4180 0
3951 3949 4181 0
4182 3951 4181 0
3953 3951 4182 0
4183 3953 4182 0
3954 3953 4183 0
3954 4183 3934 0
3934 4183 4170 0
4173 4185 4172 0
4172 4185 4184 0
4172 3955 3938 0
4184 3955 4172 0
4176 3956 4186 0
3944 3956 4176 0
4186 3957 4187 0
3956 3957 4186 0
4187 3958 4188 0
3957 3958 4187 0
4188 3958 4189 0
4189 3958 3960 0
4190 4184 4185 0
4190 3955 4184 0
4190 4192 3955 0
4192 3961 3955 0
4191 3961 4192 0
3961 4191 3962 0
4189 3963 4193 0
3960 3963 4189 0
4193 3964 4194 0
3963 3964 4193 0
4194 3964 4195 0
4195 3964 3965 0
4196 4191 4192 0
4197 3966 3962 0
4196 4197 3962 0
4191 4196 3962 0
4195 3967 4198 0
3965 3967 4195 0
4198 3967 4199 0
4199 3967 3968 0
4200 3969 4197 0
4197 3969 3966 0
4201 3969 4200 0
3970 3969 4201 0
3970 4201 4203 0
3971 3970 4203 0
4202 3971 4203 0
4204 4202 4203 0
4206 4199 3968 0
4205 4206 3968 0
3972 4205 3968 0
3973 4205 3972 0
3975 3971 4202 0
4204 4207 3976 0
4202 4204 3976 0
3975 4202 3976 0
4205 4209 4206 0
4208 4209 4205 0
3973 3977 4205 0
4205 3977 4208 0
3980 4207 4210 0
3976 4207 3980 0
4208 4212 4209 0
4211 4212 4208 0
3977 3981 4208 0
4208 3981 4211 0
4214 4213 4215 0
4215 4213 4216 0
3988 3980 4210 0
3988 4210 4218 0
3988 4218 4217 0
4219 4217 4218 0
3990 4220 4212 0
3991 3990 4212 0
4211 3991 4212 0
4211 3981 3991 0
4221 3993 4222 0
4222 3993 3994 0
4222 3995 4223 0
3994 3995 4222 0
4223 3996 4224 0
3995 3996 4223 0
4224 3996 3997 0
4214 4224 3997 0
4213 4214 3997 0
3997 3998 4225 0
4213 3997 4225 0
4216 4213 4225 0
4225 3998 3999 0
4225 3999 4226 0
4225 4226 4227 0
4228 4226 4000 0
4000 4226 3999 0
4002 4228 4000 0
4004 3988 4217 0
4219 4229 4005 0
4217 4219 4005 0
4004 4217 4005 0
4220 4008 4230 0
3990 4008 4220 0
4230 4008 4231 0
4231 4008 4009 0
4011 4221 4232 0
3993 4221 4011 0
4227 4226 4233 0
4226 4234 4233 0
4228 4234 4226 0
4012 4235 4234 0
4002 4012 4234 0
4228 4002 4234 0
4235 4012 4236 0
4236 4012 4014 0
4015 4229 4237 0
4005 4229 4015 0
4231 4016 4238 0
4009 4016 4231 0
4238 4017 4239 0
4016 4017 4238 0
4239 4017 4018 0
4239 4018 4240 0
4239 4240 4241 0
4019 4240 4018 0
4242 4020 4243 0
4243 4020 4021 0
4243 4022 4244 0
4021 4022 4243 0
4244 4023 4245 0
4022 4023 4244 0
4245 4024 4246 0
4023 4024 4245 0
4246 4025 4247 0
4024 4025 4246 0
4247 4026 4248 0
4025 4026 4247 0
4248 4028 4249 0
4026 4028 4248 0
4249 4030 4250 0
4028 4030 4249 0
4250 4030 4032 0
4250 4032 4251 0
4250 4251 4252 0
4253 4251 4034 0
4034 4251 4032 0
4034 4035 4255 0
4034 4255 4254 0
4034 4254 4253 0
4011 4255 4035 0
4232 4255 4011 0
4236 4036 4256 0
4014 4036 4236 0
4015 4256 4036 0
4237 4256 4015 0
4240 4258 4241 0
4257 4258 4240 0
4019 4038 4240 0
4240 4038 4257 0
4259 4039 4260 0
4260 4039 4040 0
4260 4041 4261 0
4040 4041 4260 0
4020 4261 4041 0
4242 4261 4020 0
4252 4251 4262 0
4251 4263 4262 0
4253 4263 4251 0
4253 4254 4263 0
4258 4257 4264 0
4042 4265 4264 0
4038 4042 4264 0
4257 4038 4264 0
4039 4265 4042 0
4259 4265 4039 0
4268 4266 4267 0
4268 4269 4266 0
4270 4269 4268 0
4270 4271 4269 0
4272 4271 4270 0
4272 4273 4271 0
4274 4273 4272 0
4275 4273 4274 0
4266 4277 4267 0
4276 4277 4266 0
4278 4266 4269 0
4276 4266 4278 0
4279 4269 4271 0
4278 4269 4279 0
4280 4271 4273 0
4279 4271 4280 0
4275 4280 4273 0
4281 4280 4275 0
4046 4282 4277 0
4047 4046 4277 0
4276 4047 4277 0
4276 4278 4283 0
4276 4283 4048 0
4276 4048 4047 0
4283 4278 4279 0
4284 4283 4279 0
4285 4284 4279 0
4279 4286 4285 0
4280 4286 4279 0
4280 4281 4286 0
4288 4049 4287 0
4050 4049 4288 0
4289 4050 4288 0
4051 4050 4289 0
4290 4051 4289 0
4053 4051 4290 0
4053 4290 4046 0
4046 4290 4282 0
4056 4048 4283 0
4284 4291 4058 0
4283 4284 4058 0
4056 4283 4058 0
4294 4292 4293 0
4294 4295 4062 0
4292 4294 4062 0
4061 4292 4062 0
4062 4295 4049 0
4049 4295 4287 0
4297 4296 4298 0
4064 4058 4291 0
4296 4064 4291 0
4298 4296 4291 0
4301 4299 4300 0
4292 4302 4299 0
4293 4292 4299 0
4301 4293 4299 0
4061 4067 4292 0
4292 4067 4302 0
4304 4303 4305 0
4303 4306 4305 0
4305 4306 4307 0
4306 4308 4296 0
4306 4296 4297 0
4306 4297 4307 0
4296 4308 4309 0
4064 4296 4309 0
4068 4064 4309 0
4068 4309 4069 0
4070 4310 4300 0
4071 4070 4300 0
4299 4071 4300 0
4299 4302 4071 0
4071 4302 4072 0
4302 4067 4072 0
4304 4312 4303 0
4303 4312 4311 0
4311 4306 4303 0
4313 4306 4311 0
4313 4308 4306 0
4314 4308 4313 0
4314 4309 4308 0
4315 4309 4314 0
4309 4073 4069 0
4315 4073 4309 0
4070 4316 4310 0
4074 4316 4070 0
4312 4318 4311 0
4311 4318 4317 0
4317 4313 4311 0
4319 4313 4317 0
4314 4313 4319 0
4077 4314 4319 0
4076 4077 4319 0
4077 4315 4314 0
4079 4315 4077 0
4079 4073 4315 0
4074 4320 4316 0
4081 4320 4074 0
4318 4322 4317 0
4317 4322 4321 0
4321 4319 4317 0
4323 4319 4321 0
4319 4083 4076 0
4323 4083 4319 0
4326 4324 4325 0
4320 4081 4086 0
4320 4086 4324 0
4320 4324 4326 0
4327 4321 4322 0
4327 4328 4321 0
4321 4328 4323 0
4329 4088 4083 0
4328 4329 4083 0
4323 4328 4083 0
4331 4091 4330 0
4092 4091 4331 0
4094 4092 4331 0
4094 4331 4325 0
4094 4325 4324 0
4324 4086 4094 0
4332 4095 4329 0
4329 4095 4088 0
4333 4095 4332 0
4097 4095 4333 0
4336 4334 4335 0
4330 4091 4098 0
4330 4098 4334 0
4330 4334 4336 0
4337 4099 4333 0
4333 4099 4097 0
4338 4099 4337 0
4100 4099 4338 0
4341 4339 4340 0
4341 4342 4102 0
4339 4341 4102 0
4101 4339 4102 0
4343 4102 4342 0
4104 4102 4343 0
4344 4104 4343 0
4106 4104 4344 0
4107 4106 4344 0
4107 4344 4335 0
4107 4335 4334 0
4334 4098 4107 0
4108 4338 4345 0
4100 4338 4108 0
4339 4347 4340 0
4346 4347 4339 0
4101 4109 4339 0
4339 4109 4346 0
4110 4345 4348 0
4108 4345 4110 0
4112 4349 4347 0
4113 4112 4347 0
4346 4113 4347 0
4346 4109 4113 0
4114 4348 4350 0
4110 4348 4114 0
4352 4115 4351 0
4116 4115 4352 0
4353 4116 4352 0
4117 4116 4353 0
4354 4117 4353 0
4118 4117 4354 0
4118 4354 4112 0
4112 4354 4349 0
4355 4120 4356 0
4356 4120 4121 0
4356 4122 4357 0
4121 4122 4356 0
4114 4357 4122 0
4350 4357 4114 0
4359 4124 4358 0
4125 4124 4359 0
4360 4125 4359 0
4126 4125 4360 0
4126 4360 4115 0
4115 4360 4351 0
4361 4128 4362 0
4362 4128 4129 0
4362 4130 4363 0
4129 4130 4362 0
4363 4131 4364 0
4130 4131 4363 0
4120 4364 4131 0
4355 4364 4120 0
4366 4133 4365 0
4134 4133 4366 0
4367 4134 4366 0
4135 4134 4367 0
4368 4135 4367 0
4136 4135 4368 0
4136 4368 4124 0
4124 4368 4358 0
4370 4369 4371 0
4369 4372 4371 0
4371 4372 4373 0
4138 4374 4373 0
4138 4373 4372 0
4138 4372 4137 0
4374 4139 4375 0
4138 4139 4374 0
4128 4375 4139 0
4361 4375 4128 0
4133 4376 4365 0
4141 4376 4133 0
4370 4377 4142 0
4370 4142 4143 0
4370 4143 4369 0
4143 4372 4369 0
4144 4372 4143 0
4144 4137 4372 0
4380 4378 4379 0
4376 4141 4146 0
4376 4146 4378 0
4376 4378 4380 0
4381 4148 4382 0
4382 4148 4149 0
4382 4150 4383 0
4149 4150 4382 0
4142 4383 4150 0
4377 4383 4142 0
4152 4384 4379 0
4153 4152 4379 0
4378 4153 4379 0
4378 4146 4153 0
4156 4381 4385 0
4148 4381 4156 0
4159 4158 4386 0
4389 4387 4388 0
4159 4386 4161 0
4389 4390 4163 0
4387 4389 4163 0
4162 4387 4163 0
4391 4163 4390 0
4164 4163 4391 0
4392 4164 4391 0
4165 4164 4392 0
4393 4165 4392 0
4166 4165 4393 0
4167 4166 4393 0
4394 4167 4393 0
4395 4394 4393 0
4168 4394 4396 0
4167 4394 4168 0
4168 4396 4169 0
4398 4170 4397 0
4171 4170 4398 0
4171 4398 4152 0
4152 4398 4384 0
4173 4385 4399 0
4156 4385 4173 0
4401 4402 4400 0
4158 4174 4386 0
4174 4161 4386 0
4388 4387 4402 0
4387 4400 4402 0
4403 4400 4387 0
4404 4403 4387 0
4404 4387 4162 0
4404 4162 4175 0
4176 4404 4175 0
4405 4394 4395 0
4405 4406 4394 0
4394 4406 4396 0
4406 4407 4177 0
4406 4177 4169 0
4406 4169 4396 0
4408 4177 4407 0
4178 4177 4408 0
4179 4178 4408 0
4409 4179 4408 0
4410 4409 4408 0
4180 4409 4411 0
4179 4409 4180 0
4413 4181 4180 0
4412 4413 4180 0
4411 4412 4180 0
4414 4181 4413 0
4182 4181 4414 0
4415 4182 4414 0
4183 4182 4415 0
4183 4415 4170 0
4170 4415 4397 0
4185 4399 4416 0
4173 4399 4185 0
4401 4400 4417 0
4400 4418 4417 0
4403 4418 4400 0
4403 4419 4418 0
4404 4419 4403 0
4186 4420 4419 0
4176 4186 4419 0
4404 4176 4419 0
4420 4187 4421 0
4186 4187 4420 0
4421 4188 4422 0
4187 4188 4421 0
4422 4188 4423 0
4423 4188 4189 0
4424 4409 4410 0
4424 4425 4409 0
4409 4425 4411 0
4425 4412 4411 0
4426 4190 4416 0
4416 4190 4185 0
4427 4190 4426 0
4192 4190 4427 0
4423 4193 4428 0
4189 4193 4423 0
4428 4194 4429 0
4193 4194 4428 0
4429 4194 4430 0
4430 4194 4195 0
4431 4196 4427 0
4427 4196 4192 0
4196 4431 4433 0
4197 4196 4433 0
4432 4197 4433 0
4433 4434 4432 0
4435 4434 4433 0
4435 4436 4434 0
4437 4436 4435 0
4438 4436 4437 0
4430 4198 4439 0
4195 4198 4430 0
4439 4198 4440 0
4440 4198 4199 0
4200 4197 4432 0
4432 4434 4200 0
4200 4434 4201 0
4434 4436 4201 0
4201 4436 4203 0
4438 4441 4204 0
4436 4438 4204 0
4203 4436 4204 0
4199 4442 4440 0
4206 4442 4199 0
4207 4441 4443 0
4204 4441 4207 0
4206 4444 4442 0
4209 4444 4206 0
4210 4443 4445 0
4207 4443 4210 0
4209 4446 4444 0
4212 4446 4209 0
4447 4214 4215 0
4216 4447 4215 0
4448 4218 4445 0
4445 4218 4210 0
4449 4218 4448 0
4219 4218 4449 0
4212 4450 4446 0
4220 4450 4212 0
4451 4221 4452 0
4452 4221 4222 0
4452 4223 4453 0
4222 4223 4452 0
4453 4224 4454 0
4223 4224 4453 0
4455 4454 4224 0
4447 4455 4224 0
4214 4447 4224 0
4225 4456 4455 0
4216 4225 4455 0
4447 4216 4455 0
4456 4225 4457 0
4457 4225 4227 0
4229 4449 4458 0
4219 4449 4229 0
4450 4230 4459 0
4220 4230 4450 0
4461 4459 4230 0
4461 4230 4231 0
4461 4231 4460 0
4460 4462 4461 0
4461 4462 4463 0
4463 4462 4464 0
4466 4465 4467 0
4232 4221 4451 0
4465 4232 4451 0
4467 4465 4451 0
4457 4233 4468 0
4227 4233 4457 0
4468 4234 4469 0
4233 4234 4468 0
4469 4235 4470 0
4234 4235 4469 0
4470 4235 4471 0
4471 4235 4236 0
4237 4458 4472 0
4229 4458 4237 0
4460 4231 4238 0
4238 4462 4460 0
4239 4462 4238 0
4241 4473 4464 0
4241 4464 4462 0
4241 4462 4239 0
4475 4474 4476 0
4474 4477 4476 0
4476 4477 4478 0
4243 4479 4478 0
4243 4478 4477 0
4243 4477 4242 0
4479 4244 4480 0
4243 4244 4479 0
4480 4245 4481 0
4244 4245 4480 0
4481 4246 4482 0
4245 4246 4481 0
4482 4247 4483 0
4246 4247 4482 0
4483 4248 4484 0
4247 4248 4483 0
4484 4249 4485 0
4248 4249 4484 0
4485 4250 4486 0
4249 4250 4485 0
4486 4250 4487 0
4487 4250 4252 0
4466 4488 4254 0
4466 4254 4255 0
4466 4255 4465 0
4255 4232 4465 0
4490 4471 4236 0
4489 4490 4236 0
4256 4489 4236 0
4472 4256 4237 0
4472 4489 4256 0
4492 4489 4472 0
4491 4489 4492 0
4493 4491 4492 0
4241 4494 4473 0
4258 4494 4241 0
4475 4495 4259 0
4475 4259 4260 0
4475 4260 4474 0
4260 4477 4474 0
4261 4477 4260 0
4261 4242 4477 0
4487 4262 4496 0
4252 4262 4487 0
4496 4263 4497 0
4262 4263 4496 0
4254 4497 4263 0
4488 4497 4254 0
4490 4489 4498 0
4489 4499 4498 0
4491 4499 4489 0
4491 4493 4499 0
4494 4264 4500 0
4258 4264 4494 0
4500 4265 4501 0
4264 4265 4500 0
4259 4501 4265 0
4495 4501 4259 0
4268 4267 4502 0
4270 4502 4503 0
4268 4502 4270 0
4272 4503 4504 0
4270 4503 4272 0
4274 4504 4505 0
4272 4504 4274 0
4274 4505 4275 0
4506 4267 4277 0
4502 4267 4506 0
4506 4503 4502 0
4507 4503 4506 0
4507 4504 4503 0
4508 4504 4507 0
4508 4505 4504 0
4509 4505 4508 0
4505 4281 4275 0
4509 4281 4505 0
4510 4277 4282 0
4506 4277 4510 0
4510 4507 4506 0
4511 4507 4510 0
4508 4507 4511 0
4285 4508 4511 0
4284 4285 4511 0
4285 4509 4508 0
4286 4509 4285 0
4286 4281 4509 0
4513 4287 4512 0
4288 4287 4513 0
4289 4288 4513 0
4514 4289 4513 0
4515 4514 4513 0
4290 4514 4516 0
4289 4514 4290 0
4516 4517 4510 0
4290 4516 4510 0
4282 4290 4510 0
4517 4511 4510 0
4518 4511 4517 0
4511 4291 4284 0
4518 4291 4511 0
4294 4293 4519 0
4521 4295 4294 0
4520 4521 4294 0
4519 4520 4294 0
4295 4521 4287 0
4287 4521 4512 0
4515 4523 4514 0
4514 4523 4522 0
4522 4516 4514 0
4524 4516 4522 0
4524 4517 4516 0
4525 4517 4524 0
4518 4517 4525 0
4298 4518 4525 0
4297 4298 4525 0
4298 4291 4518 0
4527 4300 4526 0
4301 4300 4527 0
4301 4527 4528 0
4301 4528 4519 0
4301 4519 4293 0
4528 4520 4519 0
4523 4530 4522 0
4522 4530 4529 0
4524 4522 4529 0
4305 4524 4529 0
4304 4305 4529 0
4305 4525 4524 0
4307 4525 4305 0
4307 4297 4525 0
4300 4531 4526 0
4310 4531 4300 0
4530 4533 4529 0
4529 4533 4532 0
4529 4312 4304 0
4532 4312 4529 0
4536 4534 4535 0
4531 4310 4316 0
4531 4316 4534 0
4531 4534 4536 0
4533 4538 4532 0
4532 4538 4537 0
4532 4318 4312 0
4537 4318 4532 0
4534 4540 4535 0
4539 4540 4534 0
4316 4320 4534 0
4534 4320 4539 0
4538 4542 4537 0
4537 4542 4541 0
4537 4322 4318 0
4541 4322 4537 0
4545 4543 4544 0
4545 4546 4543 0
4547 4546 4545 0
4540 4546 4547 0
4540 4539 4546 0
4539 4325 4546 0
4326 4325 4539 0
4539 4320 4326 0
4548 4541 4542 0
4548 4549 4327 0
4548 4327 4322 0
4548 4322 4541 0
4550 4327 4549 0
4328 4327 4550 0
4551 4328 4550 0
4329 4328 4551 0
4543 4553 4544 0
4552 4553 4543 0
4552 4543 4546 0
4552 4546 4331 0
4552 4331 4330 0
4546 4325 4331 0
4554 4332 4551 0
4551 4332 4329 0
4332 4554 4556 0
4333 4332 4556 0
4555 4333 4556 0
4557 4555 4556 0
4335 4558 4553 0
4336 4335 4553 0
4552 4336 4553 0
4552 4330 4336 0
4337 4333 4555 0
4557 4559 4338 0
4555 4557 4338 0
4337 4555 4338 0
4561 4340 4560 0
4341 4340 4561 0
4562 4341 4561 0
4342 4341 4562 0
4563 4342 4562 0
4343 4342 4563 0
4564 4343 4563 0
4344 4343 4564 0
4344 4564 4335 0
4335 4564 4558 0
4345 4559 4565 0
4338 4559 4345 0
4340 4566 4560 0
4347 4566 4340 0
4348 4565 4567 0
4345 4565 4348 0
4570 4568 4569 0
4570 4571 4568 0
4572 4571 4570 0
4566 4347 4349 0
4566 4349 4571 0
4566 4571 4572 0
4574 4573 4575 0
4350 4348 4567 0
4573 4350 4567 0
4575 4573 4567 0
4578 4576 4577 0
4578 4579 4352 0
4576 4578 4352 0
4351 4576 4352 0
4353 4352 4579 0
4353 4579 4569 0
4353 4569 4568 0
4568 4571 4353 0
4353 4571 4354 0
4571 4349 4354 0
4580 4355 4581 0
4581 4355 4356 0
4581 4356 4357 0
4574 4581 4357 0
4573 4574 4357 0
4357 4350 4573 0
4583 4358 4582 0
4359 4358 4583 0
4360 4359 4583 0
4360 4583 4577 0
4360 4577 4576 0
4576 4351 4360 0
4584 4361 4585 0
4585 4361 4362 0
4585 4363 4586 0
4362 4363 4585 0
4586 4364 4587 0
4363 4364 4586 0
4355 4587 4364 0
4580 4587 4355 0
4589 4365 4588 0
4366 4365 4589 0
4590 4366 4589 0
4367 4366 4590 0
4591 4367 4590 0
4368 4367 4591 0
4368 4591 4358 0
4358 4591 4582 0
4592 4370 4593 0
4593 4370 4371 0
4593 4373 4594 0
4371 4373 4593 0
4594 4374 4595 0
4373 4374 4594 0
4595 4375 4596 0
4374 4375 4595 0
4361 4596 4375 0
4584 4596 4361 0
4365 4597 4588 0
4376 4597 4365 0
4377 4592 4598 0
4370 4592 4377 0
4600 4379 4599 0
4380 4379 4600 0
4380 4600 4376 0
4376 4600 4597 0
4601 4381 4602 0
4602 4381 4382 0
4602 4383 4603 0
4382 4383 4602 0
4377 4603 4383 0
4598 4603 4377 0
4379 4604 4599 0
4384 4604 4379 0
4385 4601 4605 0
4381 4601 4385 0
4389 4388 4606 0
4390 4606 4607 0
4389 4606 4390 0
4609 4391 4390 0
4608 4609 4390 0
4607 4608 4390 0
4392 4391 4609 0
4610 4392 4609 0
4611 4610 4609 0
4393 4610 4612 0
4392 4610 4393 0
4393 4612 4395 0
4614 4397 4613 0
4398 4397 4614 0
4398 4614 4384 0
4384 4614 4604 0
4399 4605 4615 0
4385 4605 4399 0
4617 4401 4616 0
4402 4401 4617 0
4402 4617 4618 0
4402 4618 4606 0
4402 4606 4388 0
4618 4619 4606 0
4606 4619 4607 0
4619 4608 4607 0
4620 4610 4611 0
4620 4621 4610 0
4610 4621 4612 0
4621 4622 4405 0
4621 4405 4395 0
4621 4395 4612 0
4623 4405 4622 0
4406 4405 4623 0
4624 4406 4623 0
4407 4406 4624 0
4625 4407 4624 0
4408 4407 4625 0
4626 4408 4625 0
4410 4408 4626 0
4628 4412 4627 0
4413 4412 4628 0
4629 4413 4628 0
4414 4413 4629 0
4630 4414 4629 0
4415 4414 4630 0
4415 4630 4397 0
4397 4630 4613 0
4416 4615 4631 0
4399 4615 4416 0
4616 4417 4632 0
4401 4417 4616 0
4632 4418 4633 0
4417 4418 4632 0
4633 4419 4634 0
4418 4419 4633 0
4634 4420 4635 0
4419 4420 4634 0
4635 4421 4636 0
4420 4421 4635 0
4636 4421 4422 0
4636 4422 4637 0
4636 4637 4638 0
4423 4637 4422 0
4639 4424 4626 0
4626 4424 4410 0
4640 4424 4639 0
4425 4424 4640 0
4425 4640 4412 0
4412 4640 4627 0
4416 4631 4642 0
4416 4642 4641 0
4416 4641 4426 0
4426 4641 4427 0
4638 4637 4643 0
4428 4644 4643 0
4423 4428 4643 0
4637 4423 4643 0
4644 4429 4645 0
4428 4429 4644 0
4645 4429 4646 0
4646 4429 4430 0
4647 4641 4642 0
4647 4648 4431 0
4647 4431 4427 0
4647 4427 4641 0
