#!ascii version of
23010 46052
13224 13225 13732 0
13224 13732 13731 0
13224 13731 13730 0
13214 13732 13225 0
13720 13732 13214 0
13722 13734 13723 0
13733 13734 13722 0
13735 13722 13724 0
13733 13722 13735 0
13736 13724 13725 0
13735 13724 13736 0
13736 13725 13726 0
13736 13726 13228 0
13736 13228 13227 0
13726 13218 13228 0
13230 13727 13737 0
13220 13727 13230 0
13232 13231 13738 0
13740 13233 13232 0
13739 13740 13232 0
13738 13739 13232 0
13233 13740 13221 0
13221 13740 13728 0
13741 13235 13742 0
13742 13235 13236 0
13743 13742 13236 0
13730 13743 13236 0
13223 13730 13236 0
13730 13731 13743 0
13733 13745 13734 0
13744 13745 13733 0
13744 13733 13735 0
13744 13735 13240 0
13744 13240 13239 0
13735 13736 13240 0
13240 13736 13242 0
13736 13227 13242 0
13246 13737 13746 0
13230 13737 13246 0
13748 13247 13747 0
13248 13247 13748 0
13749 13248 13748 0
13249 13248 13749 0
13750 13249 13749 0
13250 13249 13750 0
13751 13250 13750 0
13251 13250 13751 0
13251 13751 13752 0
13251 13752 13738 0
13251 13738 13231 0
13752 13739 13738 0
13252 13741 13753 0
13235 13741 13252 0
13744 13755 13745 0
13754 13755 13744 0
13239 13254 13744 0
13744 13254 13754 0
13259 13746 13756 0
13246 13746 13259 0
13758 13260 13757 0
13261 13260 13758 0
13261 13758 13247 0
13247 13758 13747 0
13760 13759 13761 0
13262 13252 13753 0
13759 13262 13753 0
13761 13759 13753 0
13754 13763 13755 0
13762 13763 13754 0
13254 13264 13754 0
13754 13264 13762 0
13764 13266 13765 0
13765 13266 13267 0
13259 13765 13267 0
13756 13765 13259 0
13767 13269 13766 0
13270 13269 13767 0
13768 13270 13767 0
13271 13270 13768 0
13769 13271 13768 0
13272 13271 13769 0
13272 13769 13260 0
13260 13769 13757 0
13760 13771 13759 0
13759 13771 13770 0
13759 13273 13262 0
13770 13273 13759 0
13762 13773 13763 0
13772 13773 13762 0
13264 13275 13762 0
13762 13275 13772 0
13277 13764 13774 0
13266 13764 13277 0
13279 13278 13775 0
13777 13280 13279 0
13776 13777 13279 0
13775 13776 13279 0
13778 13280 13777 0
13281 13280 13778 0
13779 13281 13778 0
13282 13281 13779 0
13282 13779 13269 0
13269 13779 13766 0
13781 13780 13782 0
13780 13783 13782 0
13782 13783 13784 0
13783 13771 13784 0
13783 13284 13771 0
13284 13770 13771 0
13285 13770 13284 0
13285 13273 13770 0
13773 13772 13785 0
13286 13786 13785 0
13275 13286 13785 0
13772 13275 13785 0
13786 13287 13787 0
13286 13287 13786 0
13787 13287 13788 0
13788 13287 13288 0
13289 13774 13789 0
13277 13774 13289 0
13791 13291 13790 0
13292 13291 13791 0
13792 13292 13791 0
13293 13292 13792 0
13293 13792 13793 0
13293 13793 13775 0
13293 13775 13278 0
13793 13776 13775 0
13781 13795 13780 0
13780 13795 13794 0
13783 13780 13794 0
13295 13783 13794 0
13294 13295 13794 0
13295 13284 13783 0
13788 13296 13796 0
13288 13296 13788 0
13798 13796 13296 0
13798 13296 13297 0
13798 13297 13797 0
13298 13289 13789 0
13797 13298 13789 0
13798 13797 13789 0
13301 13300 13799 0
13801 13302 13301 0
13800 13801 13301 0
13799 13800 13301 0
13802 13302 13801 0
13303 13302 13802 0
13803 13303 13802 0
13304 13303 13803 0
13804 13304 13803 0
13305 13304 13804 0
13805 13305 13804 0
13306 13305 13805 0
13806 13306 13805 0
13307 13306 13806 0
13807 13307 13806 0
13308 13307 13807 0
13308 13807 13291 0
13291 13807 13790 0
13795 13808 13310 0
13795 13310 13311 0
13795 13311 13794 0
13311 13294 13794 0
13797 13297 13312 0
13312 13298 13797 0
13300 13316 13809 0
13799 13300 13809 0
13810 13799 13809 0
13810 13800 13799 0
13811 13318 13812 0
13812 13318 13319 0
13812 13320 13813 0
13319 13320 13812 0
13813 13321 13814 0
13320 13321 13813 0
13814 13322 13815 0
13321 13322 13814 0
13310 13815 13322 0
13808 13815 13310 0
13817 13324 13816 0
13325 13324 13817 0
13818 13325 13817 0
13326 13325 13818 0
13326 13818 13316 0
13316 13818 13809 0
13328 13811 13819 0
13318 13811 13328 0
13330 13329 13820 0
13821 13816 13324 0
13821 13324 13330 0
13821 13330 13820 0
13823 13822 13824 0
13822 13825 13824 0
13824 13825 13826 0
13331 13328 13819 0
13825 13331 13819 0
13826 13825 13819 0
13829 13827 13828 0
13830 13827 13829 0
13333 13332 13831 0
13334 13831 13832 0
13333 13831 13334 0
13834 13335 13334 0
13833 13834 13334 0
13832 13833 13334 0
13335 13834 13835 0
13335 13835 13820 0
13335 13820 13329 0
13835 13821 13820 0
13837 13836 13838 0
13337 13839 13838 0
13337 13838 13836 0
13337 13836 13336 0
13839 13337 13338 0
13823 13839 13338 0
13822 13823 13338 0
13338 13825 13822 0
13339 13825 13338 0
13339 13331 13825 0
13841 13340 13840 0
13341 13340 13841 0
13342 13341 13841 0
13342 13841 13828 0
13342 13828 13827 0
13830 13842 13343 0
13827 13830 13343 0
13342 13827 13343 0
13843 13332 13344 0
13831 13332 13843 0
13843 13832 13831 0
13844 13832 13843 0
13832 13844 13833 0
13833 13844 13845 0
13846 13345 13847 0
13847 13345 13346 0
13847 13346 13347 0
13837 13847 13347 0
13836 13837 13347 0
13347 13336 13836 0
13350 13349 13848 0
13850 13351 13350 0
13849 13850 13350 0
13848 13849 13350 0
13351 13850 13340 0
13340 13850 13840 0
13352 13842 13851 0
13343 13842 13352 0
13344 13353 13852 0
13843 13344 13852 0
13853 13843 13852 0
13853 13854 13843 0
13843 13854 13844 0
13854 13845 13844 0
13855 13354 13856 0
13856 13354 13355 0
13856 13356 13857 0
13355 13356 13856 0
13857 13357 13858 0
13356 13357 13857 0
13345 13858 13357 0
13846 13858 13345 0
13860 13359 13859 0
13360 13359 13860 0
13861 13360 13860 0
13362 13360 13861 0
13862 13362 13861 0
13364 13362 13862 0
13863 13349 13367 0
13848 13349 13863 0
13848 13863 13849 0
13849 13863 13864 0
13368 13851 13865 0
13352 13851 13368 0
13353 13866 13852 0
13370 13866 13353 0
13371 13855 13867 0
13354 13855 13371 0
13359 13868 13859 0
13372 13868 13359 0
13869 13373 13862 0
13862 13373 13364 0
13870 13373 13869 0
13374 13373 13870 0
13871 13374 13870 0
13375 13374 13871 0
13375 13871 13872 0
13375 13872 13863 0
13375 13863 13367 0
13872 13864 13863 0
13376 13865 13873 0
13368 13865 13376 0
13378 13377 13874 0
13875 13866 13370 0
13875 13370 13378 0
13875 13378 13874 0
13876 13380 13877 0
13877 13380 13381 0
13371 13877 13381 0
13867 13877 13371 0
13879 13382 13878 0
13383 13382 13879 0
13880 13383 13879 0
13384 13383 13880 0
13384 13880 13372 0
13372 13880 13868 0
13385 13873 13881 0
13376 13873 13385 0
13882 13377 13386 0
13874 13377 13882 0
13874 13882 13875 0
13875 13882 13883 0
13387 13876 13884 0
13380 13876 13387 0
13382 13885 13878 0
13388 13885 13382 0
13389 13881 13886 0
13385 13881 13389 0
13386 13390 13887 0
13882 13386 13887 0
13888 13882 13887 0
13888 13883 13882 0
13889 13393 13394 0
13890 13889 13395 0
13395 13889 13394 0
13395 13396 13892 0
13395 13892 13891 0
13395 13891 13890 0
13892 13396 13397 0
13892 13397 13893 0
13892 13893 13894 0
13895 13893 13398 0
13398 13893 13397 0
13400 13895 13398 0
13896 13402 13897 0
13897 13402 13403 0
13387 13897 13403 0
13884 13897 13387 0
13388 13898 13885 0
13404 13898 13388 0
13405 13886 13899 0
13389 13886 13405 0
13390 13900 13887 0
13406 13900 13390 0
13901 13408 13902 0
13902 13408 13409 0
13903 13902 13409 0
13889 13903 13409 0
13393 13889 13409 0
13889 13904 13903 0
13890 13904 13889 0
13890 13891 13904 0
13894 13893 13905 0
13893 13906 13905 0
13895 13906 13893 0
13412 13907 13906 0
13400 13412 13906 0
13895 13400 13906 0
13907 13413 13908 0
13412 13413 13907 0
13908 13414 13909 0
13413 13414 13908 0
13909 13415 13910 0
13414 13415 13909 0
13910 13415 13911 0
13911 13415 13417 0
13912 13419 13913 0
13913 13419 13420 0
13913 13421 13914 0
13420 13421 13913 0
13914 13422 13915 0
13421 13422 13914 0
13402 13915 13422 0
13896 13915 13402 0
13404 13916 13898 0
13423 13916 13404 0
13424 13899 13917 0
13405 13899 13424 0
13919 13425 13918 0
13426 13425 13919 0
13426 13919 13406 0
13406 13919 13900 0
13920 13427 13901 0
13901 13427 13408 0
13921 13427 13920 0
13428 13427 13921 0
13922 13428 13921 0
13429 13428 13922 0
13923 13429 13922 0
13430 13429 13923 0
13924 13430 13923 0
13431 13430 13924 0
13432 13431 13924 0
13925 13432 13924 0
13926 13925 13924 0
13432 13925 13433 0
13911 13434 13927 0
13417 13434 13911 0
13927 13435 13928 0
13434 13435 13927 0
13419 13928 13435 0
13912 13928 13419 0
13930 13916 13423 0
13929 13930 13423 0
13436 13929 13423 0
13437 13929 13436 0
13438 13917 13931 0
13424 13917 13438 0
13425 13932 13918 0
13439 13932 13425 0
13933 13925 13926 0
13933 13934 13440 0
13933 13440 13433 0
13933 13433 13925 0
13935 13440 13934 0
13441 13440 13935 0
13936 13441 13935 0
13442 13441 13936 0
13930 13929 13937 0
13443 13938 13937 0
13437 13443 13937 0
13929 13437 13937 0
13938 13445 13939 0
13443 13445 13938 0
13939 13447 13940 0
13445 13447 13939 0
13940 13449 13941 0
13447 13449 13940 0
13941 13449 13942 0
13942 13449 13450 0
13451 13438 13931 0
13451 13931 13944 0
13451 13944 13943 0
13945 13943 13944 0
13439 13946 13932 0
13453 13946 13439 0
13442 13936 13948 0
13442 13948 13947 0
13442 13947 13454 0
13454 13947 13455 0
13450 13949 13942 0
13456 13949 13450 0
13457 13451 13950 0
13950 13451 13943 0
13945 13950 13943 0
13951 13950 13945 0
13946 13458 13952 0
13453 13458 13946 0
13952 13458 13953 0
13953 13458 13460 0
13954 13947 13948 0
13955 13461 13455 0
13954 13955 13455 0
13947 13954 13455 0
13456 13956 13949 0
13462 13956 13456 0
13463 13457 13950 0
13951 13957 13464 0
13950 13951 13464 0
13463 13950 13464 0
13953 13465 13958 0
13460 13465 13953 0
13958 13466 13959 0
13465 13466 13958 0
13961 13959 13466 0
13961 13466 13467 0
13961 13467 13960 0
13961 13960 13962 0
13468 13955 13963 0
13461 13955 13468 0
13462 13964 13956 0
13469 13964 13462 0
13470 13957 13965 0
13464 13957 13470 0
13467 13471 13966 0
13960 13467 13966 0
13967 13960 13966 0
13967 13962 13960 0
13472 13963 13968 0
13468 13963 13472 0
13964 13474 13969 0
13469 13474 13964 0
13969 13474 13970 0
13970 13474 13475 0
13476 13965 13971 0
13470 13965 13476 0
13973 13477 13972 0
13478 13477 13973 0
13478 13973 13471 0
13471 13973 13966 0
13479 13968 13974 0
13472 13968 13479 0
13481 13480 13975 0
13977 13482 13481 0
13976 13977 13481 0
13975 13976 13481 0
13978 13482 13977 0
13483 13482 13978 0
13979 13483 13978 0
13484 13483 13979 0
13485 13484 13979 0
13980 13485 13979 0
13981 13980 13979 0
13485 13980 13486 0
13475 13982 13970 0
13487 13982 13475 0
13488 13971 13983 0
13476 13971 13488 0
13477 13984 13972 0
13489 13984 13477 0
13985 13490 13974 0
13974 13490 13479 0
13492 13490 13985 0
13986 13492 13985 0
13987 13986 13985 0
13494 13986 13988 0
13492 13986 13494 0
13494 13988 13495 0
13990 13497 13989 0
13498 13497 13990 0
13498 13990 13991 0
13498 13991 13975 0
13498 13975 13480 0
13991 13976 13975 0
13992 13980 13981 0
13992 13993 13499 0
13992 13499 13486 0
13992 13486 13980 0
13994 13499 13993 0
13500 13499 13994 0
13501 13500 13994 0
13995 13501 13994 0
13996 13995 13994 0
13501 13995 13502 0
13982 13487 13503 0
13998 13982 13503 0
13997 13998 13503 0
13998 13997 13999 0
14000 13505 13983 0
13983 13505 13488 0
14001 13505 14000 0
13506 13505 14001 0
13984 13507 14002 0
13489 13507 13984 0
14002 13507 14003 0
14003 13507 13508 0
14004 13986 13987 0
14004 14005 13986 0
13986 14005 13988 0
14006 13509 13495 0
14005 14006 13495 0
13988 14005 13495 0
14008 13511 14007 0
13512 13511 14008 0
14009 13512 14008 0
13514 13512 14009 0
14010 13514 14009 0
13515 13514 14010 0
14011 13515 14010 0
13516 13515 14011 0
14012 13516 14011 0
13517 13516 14012 0
14013 13517 14012 0
13518 13517 14013 0
13519 13518 14013 0
14014 13519 14013 0
14015 14014 14013 0
13520 14014 14016 0
13519 14014 13520 0
13521 14016 14017 0
13520 14016 13521 0
13522 14017 14018 0
13521 14017 13522 0
13522 14018 13523 0
13497 14019 13989 0
13524 14019 13497 0
14020 13995 13996 0
14021 13526 13502 0
14020 14021 13502 0
13995 14020 13502 0
13997 13503 13528 0
13529 14022 13999 0
13529 13999 13997 0
13529 13997 13528 0
13530 14001 14023 0
13506 14001 13530 0
14003 13508 13531 0
14025 14003 13531 0
14024 14025 13531 0
14025 14024 14026 0
13532 13509 14006 0
13532 14006 14028 0
13532 14028 14027 0
14028 14029 14027 0
14030 14029 14028 0
14007 13511 13533 0
14007 13533 14029 0
14007 14029 14030 0
14031 14014 14015 0
14031 14032 14014 0
14014 14032 14016 0
14032 14033 14016 0
14016 14033 14017 0
14033 14034 14017 0
14017 14034 14018 0
14034 14035 13534 0
14034 13534 13523 0
14034 13523 14018 0
14036 13534 14035 0
13535 13534 14036 0
13535 14036 13524 0
13524 14036 14019 0
13526 14021 14038 0
13526 14038 14037 0
13526 14037 13536 0
13537 14037 14039 0
13536 14037 13537 0
14040 14022 13529 0
14040 13529 13537 0
14040 13537 14039 0
13538 14023 14041 0
13530 14023 13538 0
14024 13531 13539 0
13540 14042 14026 0
13540 14026 14024 0
13540 14024 13539 0
13541 13532 14027 0
14027 14029 13541 0
13541 14029 13542 0
14029 13533 13542 0
14038 14044 14037 0
14037 14044 14043 0
14043 14039 14037 0
14045 14039 14043 0
14039 14045 14040 0
14040 14045 14046 0
13543 14041 14047 0
13538 14041 13543 0
14042 13544 14048 0
13540 13544 14042 0
14050 14048 13544 0
14050 13544 13545 0
14050 13545 14049 0
14050 14049 14051 0
14052 14043 14044 0
14052 14053 14043 0
14043 14053 14045 0
14053 14046 14045 0
13546 14047 14054 0
13543 14047 13546 0
14049 13545 13547 0
14049 14056 14051 0
14049 13547 14056 0
13547 14055 14056 0
13548 14055 13547 0
14056 14055 14057 0
13549 14054 14058 0
13546 14054 13549 0
14055 13548 13550 0
13550 13551 14059 0
14055 13550 14059 0
14057 14055 14059 0
14059 13552 14060 0
13551 13552 14059 0
14062 14060 13552 0
14062 13552 13553 0
14062 13553 14061 0
14062 14061 14063 0
13554 14058 14064 0
13549 14058 13554 0
14065 13553 13555 0
14061 13553 14065 0
14061 14065 14063 0
14063 14065 14066 0
13556 14064 14067 0
13554 14064 13556 0
14068 13555 13557 0
14065 13555 14068 0
14065 14068 14066 0
14066 14068 14069 0
13558 14067 14070 0
13556 14067 13558 0
14068 13557 13560 0
14068 14072 14069 0
14068 13560 14072 0
13560 14071 14072 0
13561 14071 13560 0
14072 14071 14073 0
13562 14070 14074 0
13558 14070 13562 0
14071 13561 13564 0
13565 14075 14073 0
13565 14073 14071 0
13565 14071 13564 0
13566 13562 14074 0
13566 14074 14077 0
13566 14077 14076 0
14078 14076 14077 0
14075 13567 14079 0
13565 13567 14075 0
14079 13567 14080 0
14080 13567 13568 0
14081 13570 13566 0
14081 13566 14076 0
14081 14076 14082 0
14076 14078 14082 0
13568 14083 14080 0
13571 14083 13568 0
14084 13572 14085 0
14085 13572 13573 0
13570 14085 13573 0
14081 14085 13570 0
13571 14086 14083 0
13574 14086 13571 0
13575 14084 14087 0
13572 14084 13575 0
14086 13576 14088 0
13574 13576 14086 0
14088 13578 14089 0
13576 13578 14088 0
14089 13578 14090 0
14090 13578 13579 0
14092 14091 14093 0
13581 14094 14093 0
13581 14093 14091 0
13581 14091 13580 0
14094 13582 14095 0
13581 13582 14094 0
14095 13583 14096 0
13582 13583 14095 0
14096 13583 13584 0
14096 13584 14097 0
14096 14097 14098 0
13586 14097 13584 0
13588 14087 14099 0
13575 14087 13588 0
14090 13589 14100 0
13579 13589 14090 0
14100 13590 14101 0
13589 13590 14100 0
14101 13591 14102 0
13590 13591 14101 0
14104 14102 13591 0
14104 13591 13592 0
14104 13592 14103 0
14104 14103 14105 0
14107 14106 14108 0
13595 14109 14108 0
13595 14108 14106 0
13595 14106 13594 0
14109 13595 13596 0
14092 14109 13596 0
14091 14092 13596 0
13596 13580 14091 0
14097 14111 14098 0
14110 14111 14097 0
13586 13598 14097 0
14097 13598 14110 0
14112 13601 14113 0
14113 13601 13602 0
13588 14113 13602 0
14099 14113 13588 0
14103 13592 13603 0
13603 13604 14114 0
14103 13603 14114 0
14105 14103 14114 0
14114 13605 14115 0
13604 13605 14114 0
14117 14115 13605 0
14117 13605 13606 0
14117 13606 14116 0
14116 14118 14117 0
14117 14118 14119 0
14119 14118 14120 0
14122 14121 14123 0
14121 14124 14123 0
14123 14124 14125 0
14124 14126 14125 0
14125 14126 14127 0
13608 14128 14127 0
13608 14127 14126 0
13608 14126 13607 0
14128 13609 14129 0
13608 13609 14128 0
14129 13609 13610 0
14107 14129 13610 0
14106 14107 13610 0
13610 13594 14106 0
14111 14110 14130 0
14130 14131 14132 0
14130 14110 14131 0
14110 13611 14131 0
13598 13611 14110 0
13613 14131 13611 0
14133 13615 13616 0
14134 14133 13617 0
13617 14133 13616 0
14135 14134 13618 0
13618 14134 13617 0
13620 14135 13618 0
14136 13622 14137 0
14137 13622 13623 0
14137 13624 14138 0
13623 13624 14137 0
13601 14138 13624 0
14112 14138 13601 0
14116 13606 13625 0
13625 14118 14116 0
13626 14118 13625 0
13626 13627 14139 0
14118 13626 14139 0
14120 14118 14139 0
14139 13628 14140 0
13627 13628 14139 0
14140 13629 14141 0
13628 13629 14140 0
14141 13630 14142 0
13629 13630 14141 0
14142 13632 14143 0
13630 13632 14142 0
14143 13634 14144 0
13632 13634 14143 0
14144 13635 14145 0
13634 13635 14144 0
14145 13636 14146 0
13635 13636 14145 0
14146 13636 13637 0
14122 14146 13637 0
14121 14122 13637 0
13637 14124 14121 0
13638 14124 13637 0
13638 14126 14124 0
13639 14126 13638 0
13639 13607 14126 0
14131 14148 14132 0
14147 14148 14131 0
13613 13641 14131 0
14131 13641 14147 0
14149 13643 13615 0
14149 13615 14133 0
14149 14133 14150 0
14133 14151 14150 0
14134 14151 14133 0
14134 14152 14151 0
14135 14152 14134 0
13644 14153 14152 0
13620 13644 14152 0
14135 13620 14152 0
14153 13645 14154 0
13644 13645 14153 0
13622 14154 13645 0
14136 14154 13622 0
14148 14147 14155 0
14157 14155 14156 0
14155 13647 14156 0
14155 14147 13647 0
14147 13641 13647 0
14157 14156 14158 0
13643 14149 14160 0
13643 14160 14159 0
13643 14159 13648 0
13648 14159 13650 0
14156 13647 13651 0
13651 13652 14161 0
14156 13651 14161 0
14158 14156 14161 0
13652 14160 14161 0
13652 14159 14160 0
13653 14159 13652 0
14162 14159 13653 0
14159 13655 13650 0
14162 13655 14159 0
14162 13653 13656 0
13656 13655 14162 0
13659 13658 14163 0
13660 14163 14164 0
13659 14163 13660 0
13661 14164 14165 0
13660 14164 13661 0
13661 14165 13662 0
14166 13658 13665 0
14163 13658 14166 0
14166 14164 14163 0
14167 14164 14166 0
14167 14165 14164 0
14168 14165 14167 0
14165 13666 13662 0
14168 13666 14165 0
13668 13667 14169 0
13669 14169 14170 0
13668 14169 13669 0
14170 14171 14166 0
13669 14170 14166 0
13665 13669 14166 0
14167 14166 14171 0
14167 14171 14172 0
14167 14172 14173 0
14173 14174 14167 0
14167 14174 14168 0
14175 13670 13666 0
14174 14175 13666 0
14168 14174 13666 0
13672 13671 14176 0
14176 14177 14169 0
13672 14176 14169 0
13667 13672 14169 0
14170 14169 14177 0
14170 14177 14178 0
14170 14178 14179 0
14179 14180 14170 0
14170 14180 14171 0
14180 14172 14171 0
13673 14175 14181 0
13670 14175 13673 0
14183 13674 14182 0
13675 13674 14183 0
14184 13675 14183 0
13676 13675 14184 0
13676 14184 14185 0
13676 14185 14176 0
13676 14176 13671 0
14185 14186 14176 0
14176 14186 14177 0
14186 14178 14177 0
13677 14181 14187 0
13673 14181 13677 0
13674 14188 14182 0
13679 14188 13674 0
13680 14187 14189 0
13677 14187 13680 0
14191 13681 14190 0
13682 13681 14191 0
13682 14191 13679 0
13679 14191 14188 0
13683 14189 14192 0
13680 14189 13683 0
14194 13684 14193 0
13685 13684 14194 0
13685 14194 13681 0
13681 14194 14190 0
13686 14192 14195 0
13683 14192 13686 0
14197 13687 14196 0
13688 13687 14197 0
13688 14197 13684 0
13684 14197 14193 0
13689 14195 14198 0
13686 14195 13689 0
14200 13690 14199 0
13691 13690 14200 0
13691 14200 13687 0
13687 14200 14196 0
13692 14198 14201 0
13689 14198 13692 0
14203 13694 14202 0
13695 13694 14203 0
14204 13695 14203 0
13696 13695 14204 0
14205 13696 14204 0
13697 13696 14205 0
14206 13697 14205 0
13698 13697 14206 0
14207 13698 14206 0
13699 13698 14207 0
13699 14207 13690 0
13690 14207 14199 0
13704 14201 14208 0
13692 14201 13704 0
14211 14209 14210 0
14202 13694 13705 0
14202 13705 14209 0
14202 14209 14211 0
13710 14208 14212 0
13704 14208 13710 0
13711 14213 14210 0
13712 13711 14210 0
14209 13712 14210 0
14209 13705 13712 0
13715 14212 14214 0
13710 14212 13715 0
14216 13717 14215 0
13718 13717 14216 0
14217 13718 14216 0
13719 13718 14217 0
13719 14217 13711 0
13711 14217 14213 0
14218 13720 14219 0
14219 13720 13721 0
14219 13721 14220 0
14220 13721 13723 0
13727 14214 14221 0
13715 14214 13727 0
14224 14222 14223 0
14224 14225 13729 0
14222 14224 13729 0
13728 14222 13729 0
13729 14225 13717 0
13717 14225 14215 0
14226 13731 14227 0
14227 13731 13732 0
13720 14227 13732 0
14218 14227 13720 0
13723 14228 14220 0
13734 14228 13723 0
13737 14221 14229 0
13727 14221 13737 0
13739 14230 14223 0
13740 13739 14223 0
14222 13740 14223 0
14222 13728 13740 0
14231 13741 14232 0
14232 13741 13742 0
14232 13743 14233 0
13742 13743 14232 0
13731 14233 13743 0
14226 14233 13731 0
13734 14234 14228 0
13745 14234 13734 0
13746 14229 14235 0
13737 14229 13746 0
14237 13747 14236 0
13748 13747 14237 0
14238 13748 14237 0
13749 13748 14238 0
14239 13749 14238 0
13750 13749 14239 0
14240 13750 14239 0
13751 13750 14240 0
14241 13751 14240 0
13752 13751 14241 0
13752 14241 13739 0
13739 14241 14230 0
14243 14242 14244 0
13753 13741 14231 0
14242 13753 14231 0
14244 14242 14231 0
13745 14245 14234 0
13755 14245 13745 0
13756 14235 14246 0
13746 14235 13756 0
13758 13757 14247 0
14248 14236 13747 0
14248 13747 13758 0
14248 13758 14247 0
14243 14249 13760 0
14243 13760 13761 0
14243 13761 14242 0
13761 13753 14242 0
13755 14250 14245 0
13763 14250 13755 0
14252 14251 14253 0
14251 14254 14253 0
14253 14254 14255 0
14254 14256 14255 0
14255 14256 14257 0
13765 14258 14257 0
13765 14257 14256 0
13765 14256 13764 0
13756 14258 13765 0
14246 14258 13756 0
13767 13766 14259 0
13768 14259 14260 0
13767 14259 13768 0
14262 13769 13768 0
14261 14262 13768 0
14260 14261 13768 0
13769 14262 14263 0
13769 14263 14247 0
13769 14247 13757 0
14263 14248 14247 0
14265 14264 14266 0
13771 13760 14249 0
14264 13771 14249 0
14266 14264 14249 0
14250 13763 13773 0
14268 14250 13773 0
14267 14268 13773 0
14267 14269 14268 0
14268 14269 14270 0
14269 14271 14251 0
14269 14251 14252 0
14269 14252 14270 0
14271 14254 14251 0
14272 14254 14271 0
14272 14256 14254 0
14273 14256 14272 0
14256 13774 13764 0
14273 13774 14256 0
14275 13776 14274 0
13777 13776 14275 0
14276 13777 14275 0
13778 13777 14276 0
14277 13778 14276 0
13779 13778 14277 0
13779 14277 14278 0
13779 14278 14259 0
13779 14259 13766 0
14278 14279 14259 0
14259 14279 14260 0
14279 14261 14260 0
14280 13781 14281 0
14281 13781 13782 0
14281 13782 13784 0
14265 14281 13784 0
14264 14265 13784 0
13784 13771 14264 0
14267 13773 13785 0
13785 14269 14267 0
13786 14269 13785 0
13786 14271 14269 0
13787 14271 13786 0
14282 14272 14271 0
13788 14282 14271 0
13787 13788 14271 0
14273 14272 14282 0
14273 14282 14283 0
14273 14283 14284 0
14285 13789 13774 0
14284 14285 13774 0
14273 14284 13774 0
14287 13790 14286 0
13791 13790 14287 0
14288 13791 14287 0
13792 13791 14288 0
14289 13792 14288 0
13793 13792 14289 0
13793 14289 13776 0
13776 14289 14274 0
13795 14280 14290 0
13781 14280 13795 0
14282 13788 13796 0
13796 13798 14291 0
14282 13796 14291 0
14283 14282 14291 0
13789 14291 13798 0
14285 14291 13789 0
13801 13800 14292 0
14294 13802 13801 0
14293 14294 13801 0
14292 14293 13801 0
14295 13802 14294 0
13803 13802 14295 0
13804 13803 14295 0
14296 13804 14295 0
14297 14296 14295 0
14299 13805 13804 0
14298 14299 13804 0
14296 14298 13804 0
14300 13805 14299 0
13806 13805 14300 0
14301 13806 14300 0
13807 13806 14301 0
13807 14301 13790 0
13790 14301 14286 0
14303 14302 14304 0
13808 13795 14290 0
14302 13808 14290 0
14304 14302 14290 0
13810 13809 14305 0
14292 14306 14307 0
14292 13800 14306 0
13800 14305 14306 0
13810 14305 13800 0
14307 14293 14292 0
14308 14296 14297 0
14308 14298 14296 0
14309 13811 13812 0
14310 14309 13813 0
13813 14309 13812 0
13813 13814 14312 0
13813 14312 14311 0
13813 14311 14310 0
14312 13814 13815 0
14303 14312 13815 0
14302 14303 13815 0
13815 13808 14302 0
14314 13816 14313 0
13817 13816 14314 0
14315 13817 14314 0
13818 13817 14315 0
13818 14315 14316 0
13818 14316 14305 0
13818 14305 13809 0
14316 14306 14305 0
14317 13819 13811 0
14317 13811 14309 0
14317 14309 14318 0
14309 14319 14318 0
14310 14319 14309 0
14310 14311 14319 0
13816 14320 14313 0
13821 14320 13816 0
14321 13823 14322 0
14322 13823 13824 0
14322 13826 14323 0
13824 13826 14322 0
13819 14323 13826 0
14317 14323 13819 0
14326 14324 14325 0
14326 14327 13829 0
14324 14326 13829 0
13828 14324 13829 0
14328 13829 14327 0
13830 13829 14328 0
13834 13833 14329 0
13835 14329 14330 0
13834 14329 13835 0
14331 14320 13821 0
14331 13821 13835 0
14331 13835 14330 0
14332 13837 14333 0
14333 13837 13838 0
14333 13839 14334 0
13838 13839 14333 0
13823 14334 13839 0
14321 14334 13823 0
13840 14335 14325 0
13841 13840 14325 0
14324 13841 14325 0
14324 13828 13841 0
13842 14328 14336 0
13830 14328 13842 0
13833 13845 14337 0
14329 13833 14337 0
14338 14329 14337 0
14338 14339 14329 0
14329 14339 14330 0
14339 14331 14330 0
14341 14340 14342 0
14340 14343 14342 0
14342 14343 14344 0
14343 14345 14344 0
14344 14345 14346 0
14345 14347 14346 0
14346 14347 14348 0
13847 14349 14348 0
13847 14348 14347 0
13847 14347 13846 0
13837 14349 13847 0
14332 14349 13837 0
14351 13849 14350 0
13850 13849 14351 0
13850 14351 13840 0
13840 14351 14335 0
13851 14336 14352 0
13842 14336 13851 0
14354 13852 14353 0
13853 13852 14354 0
14355 13853 14354 0
13854 13853 14355 0
13854 14355 13845 0
13845 14355 14337 0
14341 14357 14340 0
14340 14357 14356 0
14343 14340 14356 0
13856 14343 14356 0
13855 13856 14356 0
13856 14345 14343 0
13857 14345 13856 0
13857 14347 14345 0
13858 14347 13857 0
13858 13846 14347 0
13860 13859 14358 0
14360 13861 13860 0
14359 14360 13860 0
14358 14359 13860 0
14361 13861 14360 0
13862 13861 14361 0
13849 14362 14350 0
13864 14362 13849 0
13865 14352 14363 0
13851 14352 13865 0
13852 14364 14353 0
13866 14364 13852 0
14357 14366 14356 0
14356 14366 14365 0
14356 13867 13855 0
14365 13867 14356 0
13859 13868 14367 0
14358 13859 14367 0
14368 14358 14367 0
14368 14359 14358 0
14369 13869 14361 0
14361 13869 13862 0
14370 13869 14369 0
13870 13869 14370 0
14371 13870 14370 0
13871 13870 14371 0
14372 13871 14371 0
13872 13871 14372 0
13872 14372 13864 0
13864 14372 14362 0
13873 14363 14373 0
13865 14363 13873 0
13866 14374 14364 0
13875 14374 13866 0
14366 14375 13876 0
14366 13876 13877 0
14366 13877 14365 0
13877 13867 14365 0
13879 13878 14376 0
14378 13880 13879 0
14377 14378 13879 0
14376 14377 13879 0
13880 14378 13868 0
13868 14378 14367 0
13881 14373 14379 0
13873 14373 13881 0
13875 14380 14374 0
13883 14380 13875 0
13884 14375 14381 0
13876 14375 13884 0
14382 13878 13885 0
14376 13878 14382 0
14376 14382 14377 0
14377 14382 14383 0
13886 14379 14384 0
13881 14379 13886 0
13888 13887 14385 0
14386 14380 13883 0
14386 13883 13888 0
14386 13888 14385 0
14387 13891 14388 0
14388 13891 13892 0
14388 13892 14389 0
14389 13892 13894 0
14390 13896 14391 0
14391 13896 13897 0
13884 14391 13897 0
14381 14391 13884 0
14392 13885 13898 0
14382 13885 14392 0
14382 14392 14383 0
14383 14392 14393 0
13899 14384 14394 0
13886 14384 13899 0
13887 13900 14395 0
14385 13887 14395 0
14396 14385 14395 0
14396 14386 14385 0
14397 13901 13902 0
13902 13903 14399 0
13902 14399 14398 0
13902 14398 14397 0
14399 13904 14400 0
13903 13904 14399 0
13891 14400 13904 0
14387 14400 13891 0
14389 13905 14401 0
13894 13905 14389 0
14401 13906 14402 0
13905 13906 14401 0
14402 13907 14403 0
13906 13907 14402 0
14403 13908 14404 0
13907 13908 14403 0
14404 13909 14405 0
13908 13909 14404 0
14405 13910 14406 0
13909 13910 14405 0
14408 14406 13910 0
14408 13910 13911 0
14408 13911 14407 0
14407 14409 14408 0
14408 14409 14410 0
13913 14411 14410 0
13913 14410 14409 0
13913 14409 13912 0
14411 13914 14412 0
13913 13914 14411 0
14412 13915 14413 0
13914 13915 14412 0
13896 14413 13915 0
14390 14413 13896 0
13898 13916 14414 0
14392 13898 14414 0
14415 14392 14414 0
14415 14393 14392 0
13917 14394 14416 0
13899 14394 13917 0
14419 14417 14418 0
14419 14420 13919 0
14417 14419 13919 0
13918 14417 13919 0
13919 14420 13900 0
13900 14420 14395 0
13920 13901 14397 0
14421 13921 13920 0
14421 13920 14397 0
14421 14397 14398 0
14422 13921 14421 0
13922 13921 14422 0
14423 13922 14422 0
13923 13922 14423 0
14424 13923 14423 0
13924 13923 14424 0
14425 13924 14424 0
13926 13924 14425 0
14407 13911 13927 0
13927 14409 14407 0
13928 14409 13927 0
13928 13912 14409 0
14414 13916 13930 0
14427 14414 13930 0
14426 14427 13930 0
14427 14426 14428 0
13931 14416 14429 0
13917 14416 13931 0
14417 14431 14418 0
14430 14431 14417 0
13918 13932 14417 0
14417 13932 14430 0
14432 13933 14425 0
14425 13933 13926 0
14433 13933 14432 0
13934 13933 14433 0
14434 13934 14433 0
13935 13934 14434 0
14435 13935 14434 0
13936 13935 14435 0
14426 13930 13937 0
13937 13938 14436 0
14426 13937 14436 0
14428 14426 14436 0
14436 13939 14437 0
13938 13939 14436 0
14437 13940 14438 0
13939 13940 14437 0
14438 13941 14439 0
13940 13941 14438 0
14439 13941 14440 0
14440 13941 13942 0
14441 13944 14429 0
14429 13944 13931 0
14442 13944 14441 0
13945 13944 14442 0
14431 14430 14443 0
13932 13946 14444 0
13932 14444 14443 0
13932 14443 14430 0
13948 14435 14445 0
13936 14435 13948 0
13942 14446 14440 0
13949 14446 13942 0
13951 14442 14447 0
13945 14442 13951 0
14444 13952 14448 0
13946 13952 14444 0
14448 13952 14449 0
14449 13952 13953 0
14450 13954 14445 0
14445 13954 13948 0
14451 13954 14450 0
13955 13954 14451 0
13949 14452 14446 0
13956 14452 13949 0
13957 14447 14453 0
13951 14447 13957 0
14449 13958 14454 0
13953 13958 14449 0
14454 13959 14455 0
13958 13959 14454 0
14455 13961 14456 0
13959 13961 14455 0
14456 13961 14457 0
14457 13961 13962 0
13963 14451 14458 0
13955 14451 13963 0
13956 14459 14452 0
13964 14459 13956 0
13965 14453 14460 0
13957 14453 13965 0
14462 13966 14461 0
13967 13966 14462 0
13967 14462 13962 0
13962 14462 14457 0
13968 14458 14463 0
13963 14458 13968 0
14459 13969 14464 0
13964 13969 14459 0
14464 13969 14465 0
14465 13969 13970 0
13971 14460 14466 0
13965 14460 13971 0
13973 13972 14467 0
14468 14461 13966 0
14468 13966 13973 0
14468 13973 14467 0
13974 14463 14469 0
13968 14463 13974 0
14471 13976 14470 0
13977 13976 14471 0
14472 13977 14471 0
13978 13977 14472 0
14473 13978 14472 0
13979 13978 14473 0
14474 13979 14473 0
13981 13979 14474 0
13970 14475 14465 0
13982 14475 13970 0
13983 14466 14476 0
13971 14466 13983 0
14477 13972 13984 0
14467 13972 14477 0
14467 14477 14468 0
14468 14477 14478 0
14479 13985 14469 0
14469 13985 13974 0
13985 14479 14481 0
13987 13985 14481 0
14480 13987 14481 0
14482 14480 14481 0
14484 13989 14483 0
13990 13989 14484 0
14485 13990 14484 0
13991 13990 14485 0
13991 14485 13976 0
13976 14485 14470 0
14486 13992 14474 0
14474 13992 13981 0
14487 13992 14486 0
13993 13992 14487 0
14488 13993 14487 0
13994 13993 14488 0
14489 13994 14488 0
13996 13994 14489 0
14475 13998 14490 0
13982 13998 14475 0
14490 13998 14491 0
14491 13998 13999 0
14492 14000 14476 0
14476 14000 13983 0
14493 14000 14492 0
14001 14000 14493 0
14477 13984 14002 0
14003 14494 14478 0
14003 14478 14477 0
14003 14477 14002 0
14004 13987 14480 0
14495 14005 14004 0
14495 14004 14480 0
14495 14480 14482 0
14496 14005 14495 0
14006 14005 14496 0
14498 14007 14497 0
14008 14007 14498 0
14499 14008 14498 0
14009 14008 14499 0
14500 14009 14499 0
14010 14009 14500 0
14501 14010 14500 0
14011 14010 14501 0
14502 14011 14501 0
14012 14011 14502 0
14503 14012 14502 0
14013 14012 14503 0
14504 14013 14503 0
14015 14013 14504 0
13989 14505 14483 0
14019 14505 13989 0
14506 14020 14489 0
14489 14020 13996 0
14507 14020 14506 0
14021 14020 14507 0
14510 14508 14509 0
14491 13999 14022 0
14491 14022 14508 0
14491 14508 14510 0
14023 14493 14511 0
14001 14493 14023 0
14513 14494 14003 0
14512 14513 14003 0
14025 14512 14003 0
14026 14512 14025 0
14514 14028 14496 0
14496 14028 14006 0
14515 14028 14514 0
14030 14028 14515 0
14030 14515 14007 0
14007 14515 14497 0
14516 14031 14504 0
14504 14031 14015 0
14517 14031 14516 0
14032 14031 14517 0
14518 14032 14517 0
14033 14032 14518 0
14519 14033 14518 0
14034 14033 14519 0
14520 14034 14519 0
14035 14034 14520 0
14521 14035 14520 0
14036 14035 14521 0
14036 14521 14019 0
14019 14521 14505 0
14038 14507 14522 0
14021 14507 14038 0
14508 14524 14509 0
14523 14524 14508 0
14022 14040 14508 0
14508 14040 14523 0
14041 14511 14525 0
14023 14511 14041 0
14513 14512 14526 0
14026 14042 14527 0
14026 14527 14526 0
14026 14526 14512 0
14044 14522 14528 0
14038 14522 14044 0
14524 14523 14529 0
14040 14046 14530 0
14040 14530 14529 0
14040 14529 14523 0
14047 14525 14531 0
14041 14525 14047 0
14527 14048 14532 0
14042 14048 14527 0
14532 14050 14533 0
14048 14050 14532 0
14533 14050 14534 0
14534 14050 14051 0
14535 14052 14528 0
14528 14052 14044 0
14536 14052 14535 0
14053 14052 14536 0
14053 14536 14046 0
14046 14536 14530 0
14054 14531 14537 0
14047 14531 14054 0
14534 14056 14538 0
14051 14056 14534 0
14538 14056 14539 0
14539 14056 14057 0
14058 14537 14540 0
14054 14537 14058 0
14539 14059 14541 0
14057 14059 14539 0
14541 14059 14060 0
14541 14060 14542 0
14541 14542 14543 0
14544 14542 14062 0
14062 14542 14060 0
14063 14544 14062 0
14064 14540 14545 0
14058 14540 14064 0
14543 14542 14546 0
14542 14547 14546 0
14544 14547 14542 0
14549 14547 14548 0
14547 14066 14548 0
14547 14544 14066 0
14544 14063 14066 0
14549 14548 14550 0
14067 14064 14545 0
14067 14545 14552 0
14067 14552 14551 0
14553 14551 14552 0
14554 14066 14069 0
14548 14066 14554 0
14548 14554 14555 0
14548 14555 14556 0
14548 14556 14550 0
14556 14555 14557 0
14070 14067 14558 0
14558 14067 14551 0
14553 14558 14551 0
14559 14558 14553 0
14554 14069 14072 0
14560 14555 14554 0
14073 14560 14554 0
14072 14073 14554 0
14555 14560 14557 0
14557 14560 14561 0
14074 14070 14562 0
14562 14070 14558 0
14559 14562 14558 0
14563 14562 14559 0
14564 14073 14075 0
14560 14073 14564 0
14560 14564 14561 0
14561 14564 14565 0
14567 14566 14077 0
14567 14077 14074 0
14568 14567 14074 0
14562 14568 14074 0
14563 14568 14562 0
14078 14077 14566 0
14564 14075 14079 0
14080 14569 14565 0
14080 14565 14564 0
14080 14564 14079 0
14571 14570 14572 0
14570 14567 14572 0
14570 14081 14567 0
14081 14566 14567 0
14082 14566 14081 0
14082 14078 14566 0
14080 14573 14569 0
14083 14573 14080 0
14571 14574 14084 0
14571 14084 14085 0
14571 14085 14570 0
14085 14081 14570 0
14573 14083 14086 0
14576 14573 14086 0
14575 14576 14086 0
14576 14575 14577 0
14087 14574 14578 0
14084 14574 14087 0
14575 14086 14088 0
14088 14089 14579 0
14575 14088 14579 0
14577 14575 14579 0
14581 14579 14089 0
14581 14089 14090 0
14581 14090 14580 0
14580 14582 14581 0
14581 14582 14583 0
14582 14584 14583 0
14583 14584 14585 0
14585 14584 14586 0
14588 14587 14589 0
14587 14590 14589 0
14589 14590 14591 0
14093 14592 14591 0
14093 14591 14590 0
14093 14590 14092 0
14592 14094 14593 0
14093 14094 14592 0
14593 14095 14594 0
14094 14095 14593 0
14594 14095 14096 0
14594 14096 14595 0
14594 14595 14596 0
14098 14595 14096 0
14099 14578 14597 0
14087 14578 14099 0
14580 14090 14100 0
14100 14582 14580 0
14101 14582 14100 0
14101 14584 14582 0
14102 14584 14101 0
14102 14104 14598 0
14584 14102 14598 0
14586 14584 14598 0
14598 14104 14599 0
14599 14104 14105 0
14601 14600 14602 0
14600 14603 14602 0
14602 14603 14604 0
14603 14605 14604 0
14604 14605 14606 0
14605 14607 14606 0
14606 14607 14608 0
14607 14609 14608 0
14608 14609 14610 0
14609 14611 14610 0
14610 14611 14612 0
14611 14613 14612 0
14612 14613 14614 0
14613 14588 14614 0
14613 14107 14588 0
14107 14587 14588 0
14108 14587 14107 0
14108 14590 14587 0
14109 14590 14108 0
14109 14092 14590 0
14595 14616 14596 0
14615 14616 14595 0
14098 14111 14595 0
14595 14111 14615 0
14617 14112 14618 0
14618 14112 14113 0
14099 14618 14113 0
14597 14618 14099 0
14599 14114 14619 0
14105 14114 14599 0
14619 14115 14620 0
14114 14115 14619 0
14620 14117 14621 0
14115 14117 14620 0
14621 14119 14622 0
14117 14119 14621 0
14622 14119 14623 0
14623 14119 14120 0
14625 14624 14626 0
14624 14627 14626 0
14626 14627 14628 0
14627 14629 14600 0
14627 14600 14601 0
14627 14601 14628 0
14629 14603 14600 0
14630 14603 14629 0
14605 14603 14630 0
14123 14605 14630 0
14122 14123 14630 0
14123 14607 14605 0
14125 14607 14123 0
14125 14609 14607 0
14127 14609 14125 0
14127 14611 14609 0
14128 14611 14127 0
14128 14613 14611 0
14129 14613 14128 0
14129 14107 14613 0
14616 14615 14631 0
14631 14632 14633 0
14631 14615 14632 0
14615 14130 14632 0
14111 14130 14615 0
14132 14632 14130 0
14634 14136 14635 0
14635 14136 14137 0
14635 14138 14636 0
14137 14138 14635 0
14112 14636 14138 0
14617 14636 14112 0
14623 14139 14637 0
14120 14139 14623 0
14637 14140 14638 0
14139 14140 14637 0
14638 14141 14639 0
14140 14141 14638 0
14639 14142 14640 0
14141 14142 14639 0
14640 14142 14143 0
14625 14640 14143 0
14624 14625 14143 0
14143 14627 14624 0
14144 14627 14143 0
14144 14629 14627 0
14145 14629 14144 0
14145 14630 14629 0
14146 14630 14145 0
14146 14122 14630 0
14632 14642 14633 0
14641 14642 14632 0
14132 14148 14632 0
14632 14148 14641 0
14643 14149 14644 0
14644 14149 14150 0
14644 14151 14645 0
14150 14151 14644 0
14645 14152 14646 0
14151 14152 14645 0
14646 14152 14153 0
14646 14153 14647 0
14646 14647 14648 0
14153 14154 14650 0
14153 14650 14649 0
14153 14649 14647 0
14136 14650 14154 0
14634 14650 14136 0
14642 14641 14651 0
14155 14652 14651 0
14148 14155 14651 0
14641 14148 14651 0
14652 14157 14653 0
14155 14157 14652 0
14653 14157 14654 0
14654 14157 14158 0
14160 14643 14655 0
14149 14643 14160 0
14648 14647 14656 0
14647 14649 14656 0
14654 14161 14657 0
14158 14161 14654 0
14160 14657 14161 0
14655 14657 14160 0
14173 14172 14658 0
14174 14658 14659 0
14173 14658 14174 0
14174 14659 14175 0
14661 14178 14660 0
14179 14178 14661 0
14662 14179 14661 0
14180 14179 14662 0
14180 14662 14663 0
14180 14663 14658 0
14180 14658 14172 0
14663 14664 14658 0
14658 14664 14659 0
14665 14181 14175 0
14664 14665 14175 0
14659 14664 14175 0
14183 14182 14666 0
14184 14666 14667 0
14183 14666 14184 0
14669 14185 14184 0
14668 14669 14184 0
14667 14668 14184 0
14670 14185 14669 0
14186 14185 14670 0
14186 14670 14178 0
14178 14670 14660 0
14187 14665 14671 0
14181 14665 14187 0
14182 14188 14672 0
14666 14182 14672 0
14673 14666 14672 0
14673 14674 14666 0
14666 14674 14667 0
14674 14668 14667 0
14189 14671 14675 0
14187 14671 14189 0
14677 14190 14676 0
14191 14190 14677 0
14191 14677 14188 0
14188 14677 14672 0
14192 14675 14678 0
14189 14675 14192 0
14680 14193 14679 0
14194 14193 14680 0
14194 14680 14190 0
14190 14680 14676 0
14195 14678 14681 0
14192 14678 14195 0
14683 14196 14682 0
14197 14196 14683 0
14197 14683 14193 0
14193 14683 14679 0
14198 14681 14684 0
14195 14681 14198 0
14686 14199 14685 0
14200 14199 14686 0
14200 14686 14196 0
14196 14686 14682 0
14201 14684 14687 0
14198 14684 14201 0
14203 14202 14688 0
14204 14688 14689 0
14203 14688 14204 0
14205 14689 14690 0
14204 14689 14205 0
14692 14206 14205 0
14691 14692 14205 0
14690 14691 14205 0
14693 14206 14692 0
14207 14206 14693 0
14207 14693 14199 0
14199 14693 14685 0
14208 14687 14694 0
14201 14687 14208 0
14211 14210 14695 0
14695 14696 14688 0
14211 14695 14688 0
14202 14211 14688 0
14689 14688 14696 0
14689 14696 14697 0
14689 14697 14698 0
14698 14699 14689 0
14689 14699 14690 0
14699 14691 14690 0
14212 14694 14700 0
14208 14694 14212 0
14210 14213 14701 0
14695 14210 14701 0
14702 14695 14701 0
14702 14703 14695 0
14695 14703 14696 0
14703 14697 14696 0
14214 14700 14704 0
14212 14700 14214 0
14706 14215 14705 0
14216 14215 14706 0
14707 14216 14706 0
14217 14216 14707 0
14217 14707 14213 0
14213 14707 14701 0
14708 14218 14219 0
14220 14708 14219 0
14710 14709 14711 0
14709 14712 14711 0
14711 14712 14713 0
14712 14714 14713 0
14713 14714 14715 0
14221 14214 14704 0
14714 14221 14704 0
14715 14714 14704 0
14224 14223 14716 0
14718 14225 14224 0
14717 14718 14224 0
14716 14717 14224 0
14225 14718 14215 0
14215 14718 14705 0
14719 14226 14227 0
14708 14720 14719 0
14708 14719 14227 0
14708 14227 14218 0
14220 14228 14708 0
14708 14228 14720 0
14710 14722 14709 0
14709 14722 14721 0
14721 14712 14709 0
14723 14712 14721 0
14723 14714 14712 0
14724 14714 14723 0
14714 14229 14221 0
14724 14229 14714 0
14223 14230 14725 0
14716 14223 14725 0
14726 14716 14725 0
14726 14717 14716 0
14727 14231 14232 0
14728 14727 14233 0
14233 14727 14232 0
14719 14729 14728 0
14719 14728 14233 0
14719 14233 14226 0
14730 14719 14720 0
14729 14719 14730 0
14228 14234 14720 0
14720 14234 14730 0
14732 14731 14733 0
14731 14734 14733 0
14733 14734 14735 0
14734 14736 14721 0
14734 14721 14722 0
14734 14722 14735 0
14736 14723 14721 0
14737 14723 14736 0
14737 14724 14723 0
14738 14724 14737 0
14724 14235 14229 0
14738 14235 14724 0
14740 14236 14739 0
14237 14236 14740 0
14741 14237 14740 0
14238 14237 14741 0
14742 14238 14741 0
14239 14238 14742 0
14743 14239 14742 0
14240 14239 14743 0
14744 14240 14743 0
14241 14240 14744 0
14241 14744 14230 0
14230 14744 14725 0
14745 14243 14746 0
14746 14243 14244 0
14746 14244 14748 0
14244 14747 14748 0
14244 14231 14747 0
14231 14727 14747 0
14749 14727 14728 0
14747 14727 14749 0
14750 14728 14729 0
14749 14728 14750 0
14751 14729 14730 0
14750 14729 14751 0
14234 14245 14730 0
14730 14245 14751 0
14732 14753 14731 0
14731 14753 14752 0
14752 14734 14731 0
14754 14734 14752 0
14754 14736 14734 0
14755 14736 14754 0
14755 14737 14736 0
14756 14737 14755 0
14756 14738 14737 0
14757 14738 14756 0
14738 14246 14235 0
14757 14246 14738 0
14236 14758 14739 0
14248 14758 14236 0
14249 14745 14759 0
14243 14745 14249 0
14747 14761 14748 0
14760 14761 14747 0
14762 14747 14749 0
14760 14747 14762 0
14763 14749 14750 0
14762 14749 14763 0
14764 14750 14751 0
14763 14750 14764 0
14245 14250 14751 0
14751 14250 14764 0
14753 14766 14752 0
14752 14766 14765 0
14754 14752 14765 0
14253 14754 14765 0
14252 14253 14765 0
14253 14755 14754 0
14255 14755 14253 0
14255 14756 14755 0
14257 14756 14255 0
14257 14757 14756 0
14258 14757 14257 0
14258 14246 14757 0
14769 14767 14768 0
14769 14770 14767 0
14771 14770 14769 0
14771 14772 14262 0
14770 14771 14262 0
14261 14770 14262 0
14773 14262 14772 0
14263 14262 14773 0
14263 14773 14248 0
14248 14773 14758 0
14774 14265 14775 0
14775 14265 14266 0
14249 14775 14266 0
14759 14775 14249 0
14761 14760 14776 0
14760 14777 14776 0
14762 14777 14760 0
14762 14778 14777 0
14763 14778 14762 0
14763 14779 14778 0
14764 14779 14763 0
14268 14780 14779 0
14250 14268 14779 0
14764 14250 14779 0
14780 14268 14270 0
14766 14780 14270 0
14765 14766 14270 0
14270 14252 14765 0
14782 14274 14781 0
14275 14274 14782 0
14783 14275 14782 0
14276 14275 14783 0
14784 14276 14783 0
14277 14276 14784 0
14278 14277 14784 0
14278 14784 14768 0
14278 14768 14767 0
14767 14770 14278 0
14278 14770 14279 0
14770 14261 14279 0
14785 14280 14786 0
14786 14280 14281 0
14265 14786 14281 0
14774 14786 14265 0
14284 14283 14787 0
14284 14787 14285 0
14287 14286 14788 0
14790 14288 14287 0
14789 14790 14287 0
14788 14789 14287 0
14791 14288 14790 0
14289 14288 14791 0
14289 14791 14274 0
14274 14791 14781 0
14290 14785 14792 0
14280 14785 14290 0
14787 14283 14291 0
14291 14285 14787 0
14794 14293 14793 0
14294 14293 14794 0
14795 14294 14794 0
14295 14294 14795 0
14796 14295 14795 0
14297 14295 14796 0
14798 14298 14797 0
14299 14298 14798 0
14799 14299 14798 0
14300 14299 14799 0
14800 14300 14799 0
14301 14300 14800 0
14301 14800 14801 0
14301 14801 14788 0
14301 14788 14286 0
14801 14789 14788 0
14803 14802 14804 0
14304 14805 14804 0
14304 14804 14802 0
14304 14802 14303 0
14290 14805 14304 0
14792 14805 14290 0
14307 14306 14806 0
14807 14793 14293 0
14807 14293 14307 0
14807 14307 14806 0
14808 14308 14796 0
14796 14308 14297 0
14308 14808 14298 0
14298 14808 14797 0
14803 14809 14311 0
14803 14311 14312 0
14803 14312 14802 0
14312 14303 14802 0
14811 14313 14810 0
14314 14313 14811 0
14812 14314 14811 0
14315 14314 14812 0
14813 14315 14812 0
14316 14315 14813 0
14316 14813 14814 0
14316 14814 14806 0
14316 14806 14306 0
14814 14807 14806 0
14816 14815 14817 0
14815 14818 14817 0
14817 14818 14819 0
14318 14820 14819 0
14318 14819 14818 0
14318 14818 14317 0
14820 14319 14821 0
14318 14319 14820 0
14311 14821 14319 0
14809 14821 14311 0
14313 14822 14810 0
14320 14822 14313 0
14824 14823 14825 0
14823 14816 14825 0
14823 14321 14816 0
14321 14815 14816 0
14322 14815 14321 0
14322 14818 14815 0
14323 14818 14322 0
14323 14317 14818 0
14326 14325 14826 0
14327 14826 14827 0
14326 14826 14327 0
14327 14827 14328 0
14320 14828 14822 0
14331 14828 14320 0
14829 14332 14830 0
14830 14332 14333 0
14830 14333 14334 0
14824 14830 14334 0
14823 14824 14334 0
14334 14321 14823 0
14325 14335 14831 0
14826 14325 14831 0
14832 14826 14831 0
14832 14833 14826 0
14826 14833 14827 0
14834 14336 14328 0
14833 14834 14328 0
14827 14833 14328 0
14837 14835 14836 0
14837 14838 14338 0
14835 14837 14338 0
14337 14835 14338 0
14839 14338 14838 0
14339 14338 14839 0
14339 14839 14331 0
14331 14839 14828 0
14840 14341 14841 0
14841 14341 14342 0
14841 14344 14842 0
14342 14344 14841 0
14842 14346 14843 0
14344 14346 14842 0
14843 14348 14844 0
14346 14348 14843 0
14844 14349 14845 0
14348 14349 14844 0
14332 14845 14349 0
14829 14845 14332 0
14847 14350 14846 0
14351 14350 14847 0
14351 14847 14335 0
14335 14847 14831 0
14352 14834 14848 0
14336 14834 14352 0
14354 14353 14849 0
14850 14836 14849 0
14836 14354 14849 0
14836 14835 14354 0
14835 14355 14354 0
14835 14337 14355 0
14357 14840 14851 0
14341 14840 14357 0
14853 14359 14852 0
14360 14359 14853 0
14854 14360 14853 0
14361 14360 14854 0
14350 14855 14846 0
14362 14855 14350 0
14363 14848 14856 0
14352 14848 14363 0
14859 14857 14858 0
14860 14857 14859 0
14861 14353 14364 0
14849 14353 14861 0
14849 14861 14850 0
14850 14861 14862 0
14366 14851 14863 0
14357 14851 14366 0
14865 14367 14864 0
14368 14367 14865 0
14368 14865 14359 0
14359 14865 14852 0
14866 14369 14854 0
14854 14369 14361 0
14867 14369 14866 0
14370 14369 14867 0
14868 14370 14867 0
14371 14370 14868 0
14869 14371 14868 0
14372 14371 14869 0
14372 14869 14362 0
14362 14869 14855 0
14373 14856 14870 0
14363 14856 14373 0
14857 14872 14858 0
14871 14872 14857 0
14860 14871 14857 0
14873 14871 14860 0
14874 14364 14374 0
14861 14364 14874 0
14861 14874 14862 0
14862 14874 14875 0
14375 14863 14876 0
14366 14863 14375 0
14378 14377 14877 0
14878 14864 14367 0
14878 14367 14378 0
14878 14378 14877 0
14379 14870 14879 0
14373 14870 14379 0
14872 14871 14880 0
14871 14873 14880 0
14374 14380 14881 0
14874 14374 14881 0
14882 14874 14881 0
14882 14875 14874 0
14381 14876 14883 0
14375 14876 14381 0
14884 14377 14383 0
14877 14377 14884 0
14877 14884 14878 0
14878 14884 14885 0
14384 14879 14886 0
14379 14879 14384 0
14380 14887 14881 0
14386 14887 14380 0
14889 14888 14890 0
14388 14891 14890 0
14388 14890 14888 0
14388 14888 14387 0
14893 14891 14388 0
14893 14388 14389 0
14893 14389 14892 0
14893 14892 14894 0
14896 14895 14897 0
14897 14895 14898 0
14900 14899 14901 0
14899 14902 14901 0
14901 14902 14903 0
14391 14904 14903 0
14391 14903 14902 0
14391 14902 14390 0
14381 14904 14391 0
14883 14904 14381 0
14905 14383 14393 0
14884 14383 14905 0
14884 14905 14885 0
14885 14905 14906 0
14394 14886 14907 0
14384 14886 14394 0
14909 14395 14908 0
14396 14395 14909 0
14396 14909 14386 0
14386 14909 14887 0
14910 14398 14911 0
14911 14398 14399 0
14911 14399 14400 0
14889 14911 14400 0
14888 14889 14400 0
14400 14387 14888 0
14892 14389 14401 0
14401 14402 14912 0
14892 14401 14912 0
14894 14892 14912 0
14912 14402 14403 0
14896 14912 14403 0
14895 14896 14403 0
14403 14404 14913 0
14895 14403 14913 0
14898 14895 14913 0
14913 14405 14914 0
14404 14405 14913 0
14914 14406 14915 0
14405 14406 14914 0
14915 14408 14916 0
14406 14408 14915 0
14916 14410 14917 0
14408 14410 14916 0
14917 14411 14918 0
14410 14411 14917 0
14918 14411 14412 0
14900 14918 14412 0
14899 14900 14412 0
14412 14902 14899 0
14413 14902 14412 0
14413 14390 14902 0
14415 14414 14919 0
14905 14920 14921 0
14905 14393 14920 0
14393 14919 14920 0
14415 14919 14393 0
14921 14906 14905 0
14416 14394 14907 0
14416 14907 14923 0
14416 14923 14922 0
