#!ascii version of
800 1596
29.000000  -15.000000  19.500000  0
28.000000  -15.000000  19.500000  0
27.000000  -15.000000  19.500000  0
26.000000  -15.000000  19.500000  0
25.000000  -15.000000  19.500000  0
24.000000  -15.000000  19.500000  0
27.500000  -14.000000  22.000000  0
27.000000  -14.000000  22.500000  0
26.000000  -14.000000  22.500000  0
25.000000  -14.000000  22.500000  0
24.000000  -14.000000  22.500000  0
23.000000  -14.500000  22.000000  0
23.000000  -14.000000  22.500000  0
22.500000  -14.000000  22.000000  0
31.000000  -14.500000  21.000000  0
31.500000  -14.000000  21.000000  0
31.000000  -14.000000  21.500000  0
30.000000  -14.500000  21.000000  0
30.000000  -14.000000  21.500000  0
29.000000  -14.000000  21.500000  0
28.000000  -14.000000  21.500000  0
22.000000  -14.000000  21.500000  0
21.500000  -14.000000  21.000000  0
31.000000  -14.500000  20.000000  0
31.500000  -14.000000  20.000000  0
30.000000  -14.500000  20.000000  0
25.000000  -14.500000  20.000000  0
25.500000  -14.000000  20.000000  0
25.000000  -14.000000  20.500000  0
24.000000  -14.500000  20.000000  0
24.000000  -14.000000  20.500000  0
23.000000  -14.000000  20.500000  0
22.000000  -14.000000  20.500000  0
31.000000  -14.000000  19.500000  0
30.000000  -14.000000  19.500000  0
29.000000  -14.000000  19.500000  0
28.000000  -14.000000  19.500000  0
27.000000  -14.000000  19.500000  0
26.000000  -14.000000  19.500000  0
29.000000  -13.500000  22.000000  0
29.500000  -13.000000  22.000000  0
29.000000  -13.000000  22.500000  0
28.000000  -13.500000  22.000000  0
28.000000  -13.000000  22.500000  0
27.000000  -13.000000  22.500000  0
26.000000  -13.000000  22.500000  0
25.000000  -13.000000  22.500000  0
24.000000  -13.000000  22.500000  0
23.000000  -13.000000  22.500000  0
22.000000  -13.500000  22.000000  0
22.000000  -13.000000  22.500000  0
21.500000  -13.000000  22.000000  0
31.500000  -13.000000  21.000000  0
31.000000  -13.000000  21.500000  0
30.000000  -13.000000  21.500000  0
21.500000  -13.000000  21.000000  0
31.500000  -13.000000  20.000000  0
25.500000  -13.000000  20.000000  0
25.000000  -13.000000  20.500000  0
24.000000  -13.000000  20.500000  0
23.000000  -13.000000  20.500000  0
22.000000  -13.000000  20.500000  0
31.000000  -13.000000  19.500000  0
30.000000  -13.500000  19.000000  0
30.500000  -13.000000  19.000000  0
29.000000  -13.500000  19.000000  0
28.500000  -13.000000  19.000000  0
28.000000  -13.000000  19.500000  0
27.000000  -13.000000  19.500000  0
26.000000  -13.000000  19.500000  0
30.000000  -13.000000  18.500000  0
29.000000  -13.000000  18.500000  0
29.000000  -12.500000  22.000000  0
28.500000  -12.000000  22.000000  0
28.000000  -12.000000  22.500000  0
27.000000  -12.000000  22.500000  0
26.000000  -12.000000  22.500000  0
25.000000  -12.000000  22.500000  0
24.000000  -12.000000  22.500000  0
23.000000  -12.000000  22.500000  0
22.000000  -12.000000  22.500000  0
21.500000  -12.000000  22.000000  0
31.000000  -12.500000  21.000000  0
30.500000  -12.000000  21.000000  0
30.000000  -12.000000  21.500000  0
29.000000  -12.000000  21.500000  0
21.500000  -12.000000  21.000000  0
31.500000  -12.000000  20.000000  0
31.000000  -12.000000  20.500000  0
25.000000  -12.500000  20.000000  0
24.500000  -12.000000  20.000000  0
24.000000  -12.000000  20.500000  0
23.000000  -12.500000  20.000000  0
23.500000  -12.000000  20.000000  0
22.000000  -12.500000  20.000000  0
21.500000  -12.000000  20.000000  0
32.000000  -12.500000  19.000000  0
32.500000  -12.000000  19.000000  0
32.000000  -12.000000  19.500000  0
31.000000  -12.500000  19.000000  0
28.500000  -12.000000  19.000000  0
28.000000  -12.000000  19.500000  0
27.000000  -12.000000  19.500000  0
26.000000  -12.000000  19.500000  0
25.000000  -12.000000  19.500000  0
23.000000  -12.500000  19.000000  0
23.500000  -12.000000  19.000000  0
22.500000  -12.000000  19.000000  0
22.000000  -12.000000  19.500000  0
32.000000  -12.000000  18.500000  0
31.000000  -12.000000  18.500000  0
30.000000  -12.000000  18.500000  0
29.000000  -12.000000  18.500000  0
23.000000  -12.000000  18.500000  0
22.000000  -11.500000  23.000000  0
22.500000  -11.000000  23.000000  0
22.000000  -11.000000  23.500000  0
21.500000  -11.000000  23.000000  0
28.500000  -11.000000  22.000000  0
28.000000  -11.000000  22.500000  0
27.000000  -11.000000  22.500000  0
26.000000  -11.000000  22.500000  0
25.000000  -11.000000  22.500000  0
24.000000  -11.000000  22.500000  0
23.000000  -11.000000  22.500000  0
21.500000  -11.000000  22.000000  0
30.000000  -11.500000  21.000000  0
29.000000  -11.500000  21.000000  0
28.500000  -11.000000  21.000000  0
21.500000  -11.000000  21.000000  0
31.500000  -11.000000  20.000000  0
31.000000  -11.000000  20.500000  0
30.000000  -11.000000  20.500000  0
29.000000  -11.000000  20.500000  0
24.000000  -11.500000  20.000000  0
22.000000  -11.500000  20.000000  0
22.500000  -11.000000  20.000000  0
22.000000  -11.000000  20.500000  0
32.500000  -11.000000  19.000000  0
32.000000  -11.000000  19.500000  0
28.500000  -11.000000  19.000000  0
28.000000  -11.000000  19.500000  0
27.000000  -11.000000  19.500000  0
26.000000  -11.000000  19.500000  0
25.000000  -11.000000  19.500000  0
24.000000  -11.500000  19.000000  0
24.500000  -11.000000  19.000000  0
22.000000  -11.500000  19.000000  0
22.000000  -11.000000  19.500000  0
21.500000  -11.000000  19.000000  0
32.000000  -11.000000  18.500000  0
31.000000  -11.500000  18.000000  0
31.500000  -11.000000  18.000000  0
30.000000  -11.500000  18.000000  0
29.000000  -11.500000  18.000000  0
28.500000  -11.000000  18.000000  0
24.000000  -11.000000  18.500000  0
23.000000  -11.500000  18.000000  0
23.500000  -11.000000  18.000000  0
22.000000  -11.500000  18.000000  0
21.500000  -11.000000  18.000000  0
31.000000  -11.000000  17.500000  0
30.000000  -11.000000  17.500000  0
29.000000  -11.000000  17.500000  0
23.000000  -11.000000  17.500000  0
22.000000  -11.000000  17.500000  0
40.000000  -11.500000  14.000000  0
40.500000  -11.000000  14.000000  0
40.000000  -11.000000  14.500000  0
39.000000  -11.500000  14.000000  0
39.000000  -11.000000  14.500000  0
38.000000  -11.500000  14.000000  0
38.000000  -11.000000  14.500000  0
37.500000  -11.000000  14.000000  0
40.000000  -11.500000  13.000000  0
40.500000  -11.000000  13.000000  0
39.000000  -11.500000  13.000000  0
38.000000  -11.500000  13.000000  0
37.500000  -11.000000  13.000000  0
40.000000  -11.500000  12.000000  0
40.500000  -11.000000  12.000000  0
39.000000  -11.500000  12.000000  0
38.000000  -11.500000  12.000000  0
37.500000  -11.000000  12.000000  0
40.000000  -11.000000  11.500000  0
39.000000  -11.500000  11.000000  0
39.500000  -11.000000  11.000000  0
38.000000  -11.500000  11.000000  0
37.500000  -11.000000  11.000000  0
39.000000  -11.000000  10.500000  0
38.000000  -11.500000  10.000000  0
38.500000  -11.000000  10.000000  0
37.500000  -11.000000  10.000000  0
38.000000  -11.000000  9.500000  0
22.000000  -10.500000  23.000000  0
28.000000  -10.500000  22.000000  0
27.000000  -10.500000  22.000000  0
26.000000  -10.500000  22.000000  0
25.000000  -10.500000  22.000000  0
24.000000  -10.500000  22.000000  0
23.000000  -10.500000  22.000000  0
22.000000  -10.500000  22.000000  0
28.000000  -10.500000  21.000000  0
27.000000  -10.500000  21.000000  0
26.000000  -10.500000  21.000000  0
25.000000  -10.500000  21.000000  0
24.000000  -10.500000  21.000000  0
23.000000  -10.500000  21.000000  0
22.000000  -10.500000  21.000000  0
31.000000  -10.500000  20.000000  0
30.500000  -10.000000  20.000000  0
30.000000  -10.000000  20.500000  0
29.000000  -10.000000  20.500000  0
28.000000  -10.000000  20.500000  0
27.000000  -10.000000  20.500000  0
26.000000  -10.000000  20.500000  0
25.000000  -10.000000  20.500000  0
24.000000  -10.500000  20.000000  0
24.500000  -10.000000  20.000000  0
23.000000  -10.500000  20.000000  0
32.500000  -10.000000  19.000000  0
32.000000  -10.000000  19.500000  0
31.000000  -10.000000  19.500000  0
28.000000  -10.500000  19.000000  0
27.000000  -10.500000  19.000000  0
26.000000  -10.500000  19.000000  0
25.000000  -10.500000  19.000000  0
24.000000  -10.000000  19.500000  0
23.000000  -10.000000  19.500000  0
22.000000  -10.000000  19.500000  0
21.500000  -10.000000  19.000000  0
32.000000  -10.500000  18.000000  0
32.500000  -10.000000  18.000000  0
28.000000  -10.500000  18.000000  0
27.500000  -10.000000  18.000000  0
27.000000  -10.000000  18.500000  0
26.000000  -10.000000  18.500000  0
25.000000  -10.000000  18.500000  0
24.000000  -10.000000  18.500000  0
23.500000  -10.000000  18.000000  0
21.000000  -10.500000  18.000000  0
21.000000  -10.000000  18.500000  0
20.500000  -10.000000  18.000000  0
32.000000  -10.000000  17.500000  0
31.000000  -10.000000  17.500000  0
30.000000  -10.500000  17.000000  0
30.500000  -10.000000  17.000000  0
29.000000  -10.500000  17.000000  0
28.500000  -10.000000  17.000000  0
28.000000  -10.000000  17.500000  0
23.000000  -10.000000  17.500000  0
22.000000  -10.000000  17.500000  0
21.000000  -10.000000  17.500000  0
30.000000  -10.000000  16.500000  0
29.000000  -10.000000  16.500000  0
40.500000  -10.000000  14.000000  0
40.000000  -10.000000  14.500000  0
39.000000  -10.000000  14.500000  0
38.000000  -10.000000  14.500000  0
37.500000  -10.000000  14.000000  0
40.500000  -10.000000  13.000000  0
37.500000  -10.000000  13.000000  0
40.500000  -10.000000  12.000000  0
37.500000  -10.000000  12.000000  0
40.000000  -10.000000  11.500000  0
39.500000  -10.000000  11.000000  0
37.500000  -10.000000  11.000000  0
39.000000  -10.000000  10.500000  0
38.500000  -10.000000  10.000000  0
37.500000  -10.000000  10.000000  0
38.000000  -10.000000  9.500000  0
30.000000  -9.500000  20.000000  0
29.000000  -9.500000  20.000000  0
28.000000  -9.500000  20.000000  0
27.000000  -9.500000  20.000000  0
26.000000  -9.500000  20.000000  0
25.000000  -9.500000  20.000000  0
32.000000  -9.500000  19.000000  0
31.000000  -9.500000  19.000000  0
30.500000  -9.000000  19.000000  0
30.000000  -9.000000  19.500000  0
29.000000  -9.000000  19.500000  0
28.000000  -9.000000  19.500000  0
27.000000  -9.000000  19.500000  0
26.000000  -9.000000  19.500000  0
25.000000  -9.500000  19.000000  0
25.500000  -9.000000  19.000000  0
24.000000  -9.500000  19.000000  0
23.000000  -9.500000  19.000000  0
22.000000  -9.500000  19.000000  0
32.500000  -9.000000  18.000000  0
32.000000  -9.000000  18.500000  0
31.000000  -9.000000  18.500000  0
27.000000  -9.500000  18.000000  0
26.000000  -9.500000  18.000000  0
25.500000  -9.000000  18.000000  0
23.000000  -9.500000  18.000000  0
22.000000  -9.500000  18.000000  0
21.000000  -9.500000  18.000000  0
33.000000  -9.500000  17.000000  0
33.500000  -9.000000  17.000000  0
33.000000  -9.000000  17.500000  0
32.000000  -9.500000  17.000000  0
31.000000  -9.500000  17.000000  0
28.000000  -9.500000  17.000000  0
27.500000  -9.000000  17.000000  0
27.000000  -9.000000  17.500000  0
26.000000  -9.000000  17.500000  0
34.000000  -9.500000  16.000000  0
34.500000  -9.000000  16.000000  0
34.000000  -9.000000  16.500000  0
33.000000  -9.500000  16.000000  0
32.500000  -9.000000  16.000000  0
32.000000  -9.000000  16.500000  0
31.000000  -9.000000  16.500000  0
30.000000  -9.500000  16.000000  0
30.500000  -9.000000  16.000000  0
29.000000  -9.500000  16.000000  0
28.500000  -9.000000  16.000000  0
28.000000  -9.000000  16.500000  0
34.000000  -9.000000  15.500000  0
33.000000  -9.000000  15.500000  0
30.000000  -9.000000  15.500000  0
29.000000  -9.000000  15.500000  0
40.000000  -9.500000  14.000000  0
39.000000  -9.500000  14.000000  0
38.000000  -9.500000  14.000000  0
37.000000  -9.500000  14.000000  0
37.500000  -9.000000  14.000000  0
37.000000  -9.000000  14.500000  0
36.500000  -9.000000  14.000000  0
40.000000  -9.500000  13.000000  0
39.500000  -9.000000  13.000000  0
39.000000  -9.000000  13.500000  0
38.000000  -9.000000  13.500000  0
37.000000  -9.500000  13.000000  0
36.500000  -9.000000  13.000000  0
40.000000  -9.500000  12.000000  0
39.500000  -9.000000  12.000000  0
37.000000  -9.500000  12.000000  0
36.500000  -9.000000  12.000000  0
39.500000  -9.000000  11.000000  0
37.000000  -9.500000  11.000000  0
36.500000  -9.000000  11.000000  0
39.000000  -9.500000  10.000000  0
39.500000  -9.000000  10.000000  0
37.000000  -9.500000  10.000000  0
36.000000  -9.500000  10.000000  0
36.000000  -9.000000  10.500000  0
35.500000  -9.000000  10.000000  0
39.000000  -9.000000  9.500000  0
38.000000  -9.500000  9.000000  0
38.500000  -9.000000  9.000000  0
37.000000  -9.500000  9.000000  0
36.000000  -9.500000  9.000000  0
35.500000  -9.000000  9.000000  0
38.000000  -9.000000  8.500000  0
37.000000  -9.500000  8.000000  0
37.500000  -9.000000  8.000000  0
36.000000  -9.500000  8.000000  0
35.000000  -9.500000  8.000000  0
35.000000  -9.000000  8.500000  0
34.000000  -9.500000  8.000000  0
34.000000  -9.000000  8.500000  0
33.500000  -9.000000  8.000000  0
37.000000  -9.000000  7.500000  0
36.000000  -9.500000  7.000000  0
36.500000  -9.000000  7.000000  0
35.000000  -9.500000  7.000000  0
34.000000  -9.500000  7.000000  0
33.500000  -9.000000  7.000000  0
36.000000  -9.000000  6.500000  0
35.000000  -9.000000  6.500000  0
34.000000  -9.000000  6.500000  0
30.000000  -8.500000  19.000000  0
29.000000  -8.500000  19.000000  0
28.000000  -8.500000  19.000000  0
27.000000  -8.500000  19.000000  0
26.000000  -8.500000  19.000000  0
32.500000  -8.000000  18.000000  0
32.000000  -8.000000  18.500000  0
31.000000  -8.000000  18.500000  0
30.000000  -8.000000  18.500000  0
29.000000  -8.000000  18.500000  0
28.000000  -8.000000  18.500000  0
27.000000  -8.500000  18.000000  0
27.500000  -8.000000  18.000000  0
26.000000  -8.500000  18.000000  0
33.500000  -8.000000  17.000000  0
33.000000  -8.000000  17.500000  0
27.500000  -8.000000  17.000000  0
34.500000  -8.000000  16.000000  0
34.000000  -8.000000  16.500000  0
32.000000  -8.500000  16.000000  0
31.000000  -8.500000  16.000000  0
28.000000  -8.500000  16.000000  0
27.500000  -8.000000  16.000000  0
36.000000  -8.500000  15.000000  0
36.500000  -8.000000  15.000000  0
36.000000  -8.000000  15.500000  0
35.000000  -8.500000  15.000000  0
35.000000  -8.000000  15.500000  0
34.000000  -8.500000  15.000000  0
33.000000  -8.500000  15.000000  0
32.500000  -8.000000  15.000000  0
32.000000  -8.000000  15.500000  0
31.000000  -8.000000  15.500000  0
30.000000  -8.500000  15.000000  0
30.500000  -8.000000  15.000000  0
29.000000  -8.500000  15.000000  0
28.500000  -8.000000  15.000000  0
28.000000  -8.000000  15.500000  0
37.500000  -8.000000  14.000000  0
37.000000  -8.000000  14.500000  0
36.000000  -8.500000  14.000000  0
35.000000  -8.500000  14.000000  0
34.500000  -8.000000  14.000000  0
34.000000  -8.000000  14.500000  0
33.000000  -8.000000  14.500000  0
30.000000  -8.000000  14.500000  0
29.000000  -8.000000  14.500000  0
39.500000  -8.000000  13.000000  0
39.000000  -8.000000  13.500000  0
38.000000  -8.000000  13.500000  0
36.000000  -8.500000  13.000000  0
35.000000  -8.500000  13.000000  0
34.500000  -8.000000  13.000000  0
39.500000  -8.000000  12.000000  0
36.000000  -8.500000  12.000000  0
35.500000  -8.000000  12.000000  0
35.000000  -8.000000  12.500000  0
39.500000  -8.000000  11.000000  0
36.000000  -8.500000  11.000000  0
35.500000  -8.000000  11.000000  0
39.500000  -8.000000  10.000000  0
35.500000  -8.000000  10.000000  0
39.000000  -8.000000  9.500000  0
38.500000  -8.000000  9.000000  0
35.000000  -8.500000  9.000000  0
35.000000  -8.000000  9.500000  0
34.500000  -8.000000  9.000000  0
38.000000  -8.000000  8.500000  0
37.500000  -8.000000  8.000000  0
34.000000  -8.000000  8.500000  0
33.500000  -8.000000  8.000000  0
37.000000  -8.500000  7.000000  0
37.500000  -8.000000  7.000000  0
33.500000  -8.000000  7.000000  0
37.000000  -8.000000  6.500000  0
36.000000  -8.000000  6.500000  0
35.000000  -8.000000  6.500000  0
34.000000  -8.000000  6.500000  0
32.000000  -7.500000  18.000000  0
31.000000  -7.500000  18.000000  0
30.000000  -7.500000  18.000000  0
29.000000  -7.500000  18.000000  0
28.000000  -7.500000  18.000000  0
33.000000  -7.500000  17.000000  0
32.500000  -7.000000  17.000000  0
32.000000  -7.000000  17.500000  0
31.000000  -7.000000  17.500000  0
30.000000  -7.000000  17.500000  0
29.000000  -7.500000  17.000000  0
29.500000  -7.000000  17.000000  0
28.000000  -7.500000  17.000000  0
34.000000  -7.500000  16.000000  0
33.500000  -7.000000  16.000000  0
33.000000  -7.000000  16.500000  0
29.000000  -7.000000  16.500000  0
28.000000  -7.500000  16.000000  0
28.500000  -7.000000  16.000000  0
36.000000  -7.500000  15.000000  0
35.500000  -7.000000  15.000000  0
35.000000  -7.000000  15.500000  0
34.000000  -7.000000  15.500000  0
32.000000  -7.500000  15.000000  0
31.000000  -7.500000  15.000000  0
28.500000  -7.000000  15.000000  0
37.000000  -7.500000  14.000000  0
36.500000  -7.000000  14.000000  0
36.000000  -7.000000  14.500000  0
34.000000  -7.500000  14.000000  0
33.000000  -7.500000  14.000000  0
32.500000  -7.000000  14.000000  0
32.000000  -7.000000  14.500000  0
31.000000  -7.000000  14.500000  0
30.000000  -7.000000  14.500000  0
29.000000  -7.500000  14.000000  0
29.500000  -7.000000  14.000000  0
28.500000  -7.000000  14.000000  0
39.000000  -7.500000  13.000000  0
38.500000  -7.000000  13.000000  0
38.000000  -7.000000  13.500000  0
37.000000  -7.000000  13.500000  0
34.000000  -7.500000  13.000000  0
33.500000  -7.000000  13.000000  0
33.000000  -7.000000  13.500000  0
29.000000  -7.000000  13.500000  0
39.500000  -7.000000  12.000000  0
39.000000  -7.000000  12.500000  0
35.000000  -7.500000  12.000000  0
34.500000  -7.000000  12.000000  0
34.000000  -7.000000  12.500000  0
39.500000  -7.000000  11.000000  0
35.000000  -7.500000  11.000000  0
34.500000  -7.000000  11.000000  0
39.500000  -7.000000  10.000000  0
35.000000  -7.500000  10.000000  0
34.500000  -7.000000  10.000000  0
39.000000  -7.500000  9.000000  0
39.500000  -7.000000  9.000000  0
34.500000  -7.000000  9.000000  0
39.000000  -7.000000  8.500000  0
38.000000  -7.500000  8.000000  0
38.500000  -7.000000  8.000000  0
34.000000  -7.000000  8.500000  0
33.500000  -7.000000  8.000000  0
38.000000  -7.000000  7.500000  0
37.500000  -7.000000  7.000000  0
33.500000  -7.000000  7.000000  0
37.000000  -7.000000  6.500000  0
36.000000  -7.000000  6.500000  0
35.000000  -7.000000  6.500000  0
34.000000  -7.000000  6.500000  0
32.000000  -6.500000  17.000000  0
31.000000  -6.500000  17.000000  0
30.000000  -6.500000  17.000000  0
33.500000  -6.000000  16.000000  0
33.000000  -6.000000  16.500000  0
32.000000  -6.000000  16.500000  0
31.000000  -6.500000  16.000000  0
31.500000  -6.000000  16.000000  0
30.000000  -6.500000  16.000000  0
29.000000  -6.500000  16.000000  0
35.000000  -6.500000  15.000000  0
34.500000  -6.000000  15.000000  0
34.000000  -6.000000  15.500000  0
31.000000  -6.500000  15.000000  0
31.500000  -6.000000  15.000000  0
30.000000  -6.500000  15.000000  0
29.000000  -6.500000  15.000000  0
36.000000  -6.500000  14.000000  0
35.500000  -6.000000  14.000000  0
35.000000  -6.000000  14.500000  0
32.000000  -6.500000  14.000000  0
31.500000  -6.000000  14.000000  0
29.000000  -6.500000  14.000000  0
38.000000  -6.500000  13.000000  0
37.500000  -6.000000  13.000000  0
37.000000  -6.000000  13.500000  0
36.000000  -6.000000  13.500000  0
33.000000  -6.500000  13.000000  0
32.500000  -6.000000  13.000000  0
32.000000  -6.000000  13.500000  0
39.000000  -6.500000  12.000000  0
38.500000  -6.000000  12.000000  0
38.000000  -6.000000  12.500000  0
34.000000  -6.500000  12.000000  0
33.500000  -6.000000  12.000000  0
33.000000  -6.000000  12.500000  0
39.500000  -6.000000  11.000000  0
39.000000  -6.000000  11.500000  0
34.000000  -6.500000  11.000000  0
33.500000  -6.000000  11.000000  0
39.500000  -6.000000  10.000000  0
34.000000  -6.500000  10.000000  0
33.500000  -6.000000  10.000000  0
39.500000  -6.000000  9.000000  0
34.000000  -6.500000  9.000000  0
33.500000  -6.000000  9.000000  0
39.000000  -6.000000  8.500000  0
38.500000  -6.000000  8.000000  0
33.000000  -6.500000  8.000000  0
33.000000  -6.000000  8.500000  0
32.500000  -6.000000  8.000000  0
38.000000  -6.000000  7.500000  0
37.500000  -6.000000  7.000000  0
33.000000  -6.500000  7.000000  0
32.500000  -6.000000  7.000000  0
37.000000  -6.000000  6.500000  0
36.000000  -6.000000  6.500000  0
35.000000  -6.000000  6.500000  0
34.000000  -6.000000  6.500000  0
33.000000  -6.000000  6.500000  0
33.000000  -5.500000  16.000000  0
32.000000  -5.500000  16.000000  0
34.000000  -5.500000  15.000000  0
33.000000  -5.500000  15.000000  0
32.000000  -5.500000  15.000000  0
35.000000  -5.500000  14.000000  0
34.500000  -5.000000  14.000000  0
34.000000  -5.000000  14.500000  0
33.000000  -5.000000  14.500000  0
32.000000  -5.500000  14.000000  0
32.500000  -5.000000  14.000000  0
37.000000  -5.500000  13.000000  0
36.000000  -5.500000  13.000000  0
35.500000  -5.000000  13.000000  0
35.000000  -5.000000  13.500000  0
32.500000  -5.000000  13.000000  0
38.000000  -5.500000  12.000000  0
37.500000  -5.000000  12.000000  0
37.000000  -5.000000  12.500000  0
36.000000  -5.000000  12.500000  0
33.000000  -5.500000  12.000000  0
32.500000  -5.000000  12.000000  0
39.000000  -5.500000  11.000000  0
38.500000  -5.000000  11.000000  0
38.000000  -5.000000  11.500000  0
33.000000  -5.500000  11.000000  0
32.500000  -5.000000  11.000000  0
39.000000  -5.500000  10.000000  0
38.500000  -5.000000  10.000000  0
33.000000  -5.500000  10.000000  0
32.000000  -5.500000  10.000000  0
32.000000  -5.000000  10.500000  0
31.500000  -5.000000  10.000000  0
39.000000  -5.500000  9.000000  0
38.500000  -5.000000  9.000000  0
33.000000  -5.500000  9.000000  0
32.000000  -5.500000  9.000000  0
31.000000  -5.500000  9.000000  0
31.000000  -5.000000  9.500000  0
30.500000  -5.000000  9.000000  0
38.500000  -5.000000  8.000000  0
32.000000  -5.500000  8.000000  0
31.000000  -5.500000  8.000000  0
30.500000  -5.000000  8.000000  0
38.000000  -5.000000  7.500000  0
37.500000  -5.000000  7.000000  0
32.000000  -5.500000  7.000000  0
31.000000  -5.500000  7.000000  0
30.500000  -5.000000  7.000000  0
37.000000  -5.000000  6.500000  0
36.000000  -5.000000  6.500000  0
35.000000  -5.000000  6.500000  0
34.000000  -5.000000  6.500000  0
33.000000  -5.000000  6.500000  0
32.000000  -5.000000  6.500000  0
31.000000  -5.000000  6.500000  0
34.000000  -4.500000  14.000000  0
33.000000  -4.500000  14.000000  0
35.000000  -4.500000  13.000000  0
34.000000  -4.500000  13.000000  0
33.000000  -4.500000  13.000000  0
37.000000  -4.500000  12.000000  0
36.000000  -4.500000  12.000000  0
35.500000  -4.000000  12.000000  0
35.000000  -4.000000  12.500000  0
34.000000  -4.000000  12.500000  0
33.000000  -4.500000  12.000000  0
33.500000  -4.000000  12.000000  0
38.000000  -4.500000  11.000000  0
37.500000  -4.000000  11.000000  0
37.000000  -4.000000  11.500000  0
36.000000  -4.000000  11.500000  0
33.000000  -4.000000  11.500000  0
32.500000  -4.000000  11.000000  0
38.500000  -4.000000  10.000000  0
38.000000  -4.000000  10.500000  0
32.000000  -4.000000  10.500000  0
31.000000  -4.500000  10.000000  0
31.000000  -4.000000  10.500000  0
30.500000  -4.000000  10.000000  0
38.500000  -4.000000  9.000000  0
30.000000  -4.500000  9.000000  0
30.000000  -4.000000  9.500000  0
29.500000  -4.000000  9.000000  0
38.500000  -4.000000  8.000000  0
30.000000  -4.500000  8.000000  0
29.000000  -4.500000  8.000000  0
29.000000  -4.000000  8.500000  0
28.500000  -4.000000  8.000000  0
38.000000  -4.000000  7.500000  0
37.000000  -4.500000  7.000000  0
37.000000  -4.000000  7.500000  0
36.500000  -4.000000  7.000000  0
30.000000  -4.500000  7.000000  0
29.000000  -4.500000  7.000000  0
28.500000  -4.000000  7.000000  0
36.000000  -4.000000  6.500000  0
35.000000  -4.000000  6.500000  0
34.000000  -4.000000  6.500000  0
33.000000  -4.000000  6.500000  0
32.000000  -4.000000  6.500000  0
31.000000  -4.000000  6.500000  0
30.000000  -4.000000  6.500000  0
29.000000  -4.000000  6.500000  0
35.000000  -3.500000  12.000000  0
34.000000  -3.500000  12.000000  0
37.000000  -3.500000  11.000000  0
36.000000  -3.500000  11.000000  0
35.000000  -3.500000  11.000000  0
34.000000  -3.500000  11.000000  0
33.000000  -3.500000  11.000000  0
38.000000  -3.500000  10.000000  0
37.000000  -3.500000  10.000000  0
36.500000  -3.000000  10.000000  0
36.000000  -3.000000  10.500000  0
35.000000  -3.000000  10.500000  0
34.000000  -3.000000  10.500000  0
33.000000  -3.000000  10.500000  0
32.000000  -3.500000  10.000000  0
32.500000  -3.000000  10.000000  0
31.000000  -3.500000  10.000000  0
38.000000  -3.500000  9.000000  0
37.500000  -3.000000  9.000000  0
37.000000  -3.000000  9.500000  0
32.000000  -3.000000  9.500000  0
31.000000  -3.500000  9.000000  0
31.500000  -3.000000  9.000000  0
30.000000  -3.500000  9.000000  0
38.000000  -3.500000  8.000000  0
37.500000  -3.000000  8.000000  0
31.000000  -3.000000  8.500000  0
30.000000  -3.500000  8.000000  0
30.500000  -3.000000  8.000000  0
29.000000  -3.500000  8.000000  0
37.000000  -3.000000  7.500000  0
36.500000  -3.000000  7.000000  0
30.000000  -3.500000  7.000000  0
30.500000  -3.000000  7.000000  0
29.000000  -3.500000  7.000000  0
36.000000  -3.000000  6.500000  0
35.000000  -3.000000  6.500000  0
34.000000  -3.000000  6.500000  0
33.000000  -3.000000  6.500000  0
32.000000  -3.000000  6.500000  0
31.000000  -3.000000  6.500000  0
36.000000  -2.500000  10.000000  0
35.000000  -2.500000  10.000000  0
34.000000  -2.500000  10.000000  0
33.000000  -2.500000  10.000000  0
37.000000  -2.500000  9.000000  0
36.000000  -2.500000  9.000000  0
35.000000  -2.500000  9.000000  0
34.000000  -2.500000  9.000000  0
33.000000  -2.500000  9.000000  0
32.000000  -2.500000  9.000000  0
37.000000  -2.500000  8.000000  0
36.000000  -2.500000  8.000000  0
35.000000  -2.500000  8.000000  0
34.000000  -2.500000  8.000000  0
33.000000  -2.500000  8.000000  0
32.000000  -2.500000  8.000000  0
31.000000  -2.500000  8.000000  0
36.000000  -2.500000  7.000000  0
35.000000  -2.500000  7.000000  0
34.000000  -2.500000  7.000000  0
33.000000  -2.500000  7.000000  0
32.000000  -2.500000  7.000000  0
31.000000  -2.500000  7.000000  0
2 0 1 0
2 3 0 0
4 3 2 0
4 5 3 0
6 5 4 0
7 5 6 0
1 0 8 0
0 3 9 0
8 0 9 0
10 8 9 0
11 3 5 0
9 3 11 0
12 11 5 0
13 12 5 0
7 13 5 0
14 12 13 0
9 16 10 0
15 16 9 0
17 9 11 0
15 9 17 0
17 11 12 0
18 17 12 0
19 18 12 0
12 14 19 0
16 15 20 0
15 21 20 0
17 21 15 0
17 18 21 0
24 22 23 0
24 25 2 0
22 24 2 0
1 22 2 0
26 2 25 0
4 2 26 0
27 4 26 0
6 4 27 0
28 6 27 0
7 6 28 0
31 29 30 0
31 32 29 0
33 32 31 0
22 34 32 0
23 22 32 0
33 23 32 0
35 34 22 0
35 22 1 0
35 1 8 0
10 35 8 0
36 13 28 0
28 13 7 0
13 36 38 0
14 13 38 0
37 14 38 0
39 37 38 0
29 41 30 0
40 41 29 0
42 29 32 0
40 29 42 0
43 32 34 0
42 32 43 0
44 34 35 0
43 34 44 0
10 16 35 0
35 16 44 0
45 18 46 0
46 18 19 0
47 46 19 0
37 47 19 0
14 37 19 0
37 39 47 0
41 40 48 0
40 49 48 0
42 49 40 0
42 50 49 0
43 50 42 0
43 51 50 0
44 51 43 0
20 52 51 0
16 20 51 0
44 16 51 0
52 21 53 0
20 21 52 0
18 53 21 0
45 53 18 0
55 23 54 0
24 23 55 0
56 24 55 0
25 24 56 0
57 25 56 0
26 25 57 0
58 26 57 0
27 26 58 0
27 58 60 0
28 27 60 0
59 28 60 0
61 59 60 0
64 62 63 0
64 65 62 0
66 65 64 0
66 67 31 0
65 66 31 0
30 65 31 0
68 31 67 0
33 31 68 0
33 68 23 0
23 68 54 0
36 28 59 0
69 38 36 0
69 36 59 0
69 59 61 0
70 38 69 0
39 38 70 0
62 72 63 0
71 72 62 0
73 62 65 0
71 62 73 0
30 41 65 0
65 41 73 0
75 74 76 0
74 77 76 0
76 77 78 0
46 79 78 0
46 78 77 0
46 77 45 0
79 47 80 0
46 47 79 0
39 80 47 0
70 80 39 0
72 71 81 0
71 82 81 0
73 82 71 0
48 83 82 0
41 48 82 0
73 41 82 0
83 49 84 0
48 49 83 0
84 50 85 0
49 50 84 0
85 51 86 0
50 51 85 0
86 51 52 0
75 86 52 0
74 75 52 0
52 77 74 0
53 77 52 0
53 45 77 0
89 87 88 0
89 90 87 0
91 90 89 0
91 92 55 0
90 91 55 0
54 90 55 0
93 55 92 0
56 55 93 0
94 56 93 0
57 56 94 0
95 57 94 0
58 57 95 0
96 58 95 0
60 58 96 0
60 96 98 0
61 60 98 0
97 61 98 0
99 97 98 0
101 63 100 0
64 63 101 0
102 64 101 0
66 64 102 0
67 66 102 0
67 102 88 0
67 88 87 0
87 90 67 0
67 90 68 0
90 54 68 0
69 61 97 0
99 103 70 0
97 99 70 0
69 97 70 0
63 104 100 0
72 104 63 0
105 75 106 0
106 75 76 0
106 78 107 0
76 78 106 0
107 79 108 0
78 79 107 0
108 80 109 0
79 80 108 0
70 109 80 0
103 109 70 0
104 81 110 0
72 81 104 0
110 81 82 0
110 82 111 0
110 111 112 0
113 111 83 0
83 111 82 0
83 84 115 0
83 115 114 0
83 114 113 0
115 85 116 0
84 85 115 0
116 86 117 0
85 86 116 0
75 117 86 0
105 117 75 0
112 111 118 0
111 119 118 0
113 119 111 0
113 114 119 0
89 88 120 0
122 91 89 0
121 122 89 0
120 121 89 0
123 91 122 0
92 91 123 0
124 92 123 0
93 92 124 0
125 93 124 0
94 93 125 0
126 94 125 0
95 94 126 0
127 95 126 0
96 95 127 0
128 96 127 0
98 96 128 0
129 98 128 0
99 98 129 0
101 100 130 0
132 102 101 0
131 132 101 0
130 131 101 0
102 132 133 0
102 133 120 0
102 120 88 0
133 121 120 0
103 129 134 0
99 129 103 0
100 104 135 0
130 100 135 0
136 130 135 0
136 131 130 0
137 105 106 0
106 107 139 0
106 139 138 0
106 138 137 0
139 107 108 0
139 108 140 0
139 140 141 0
142 140 109 0
109 140 108 0
103 134 143 0
109 103 143 0
142 109 143 0
146 144 145 0
135 104 146 0
104 144 146 0
104 110 144 0
110 147 144 0
112 147 110 0
148 114 149 0
149 114 115 0
149 116 150 0
115 116 149 0
150 117 151 0
116 117 150 0
152 151 117 0
137 152 117 0
105 137 117 0
137 138 152 0
140 154 141 0
153 154 140 0
153 140 142 0
155 153 142 0
156 155 142 0
142 143 156 0
145 144 157 0
144 158 157 0
147 158 144 0
118 159 158 0
112 118 158 0
147 112 158 0
159 119 160 0
118 119 159 0
114 160 119 0
148 160 114 0
154 153 161 0
153 155 161 0
164 162 163 0
165 162 164 0
167 121 166 0
122 121 167 0
168 122 167 0
123 122 168 0
169 123 168 0
124 123 169 0
170 124 169 0
125 124 170 0
171 125 170 0
126 125 171 0
172 126 171 0
127 126 172 0
128 127 172 0
128 172 163 0
128 163 162 0
165 173 129 0
162 165 129 0
128 162 129 0
132 131 174 0
133 174 175 0
132 174 133 0
176 166 121 0
176 121 133 0
176 133 175 0
134 173 177 0
129 173 134 0
179 135 178 0
136 135 179 0
136 179 180 0
136 180 174 0
136 174 131 0
180 181 174 0
174 181 175 0
181 176 175 0
182 138 139 0
141 182 139 0
184 183 185 0
143 134 177 0
183 143 177 0
185 183 177 0
187 145 186 0
146 145 187 0
146 187 135 0
135 187 178 0
188 148 189 0
189 148 149 0
189 150 190 0
149 150 189 0
190 151 191 0
150 151 190 0
191 152 192 0
151 152 191 0
192 152 194 0
152 193 194 0
152 138 193 0
138 182 193 0
141 154 182 0
182 154 193 0
184 196 195 0
184 195 155 0
183 184 155 0
156 183 155 0
197 195 196 0
143 183 156 0
186 157 198 0
145 157 186 0
198 157 158 0
198 158 199 0
198 199 200 0
201 199 159 0
159 199 158 0
202 201 160 0
160 201 159 0
148 188 203 0
160 148 203 0
202 160 203 0
194 193 204 0
204 205 206 0
204 193 205 0
193 161 205 0
154 161 193 0
195 207 205 0
195 205 161 0
195 161 155 0
197 207 195 0
208 207 197 0
200 199 209 0
199 210 209 0
201 210 199 0
201 211 210 0
202 211 201 0
202 203 211 0
206 205 212 0
205 213 212 0
207 213 205 0
207 208 213 0
216 214 215 0
216 217 214 0
218 217 216 0
218 219 217 0
220 219 218 0
221 219 220 0
214 223 215 0
222 223 214 0
224 214 217 0
222 214 224 0
225 217 219 0
224 217 225 0
221 225 219 0
226 225 221 0
222 228 223 0
227 228 222 0
229 222 224 0
227 222 229 0
230 224 225 0
229 224 230 0
226 230 225 0
231 230 226 0
228 227 232 0
227 229 233 0
232 227 233 0
234 232 233 0
235 229 230 0
233 229 235 0
231 235 230 0
236 235 231 0
234 233 237 0
233 235 238 0
237 233 238 0
239 237 238 0
236 238 235 0
240 238 236 0
239 238 241 0
238 240 241 0
164 163 242 0
164 242 165 0
167 166 243 0
168 243 244 0
167 243 168 0
169 244 245 0
168 244 169 0
170 245 246 0
169 245 170 0
171 246 247 0
170 246 171 0
172 247 248 0
171 247 172 0
248 249 242 0
172 248 242 0
163 172 242 0
242 173 165 0
249 173 242 0
250 166 176 0
243 166 250 0
250 244 243 0
251 244 250 0
251 245 244 0
252 245 251 0
252 246 245 0
253 246 252 0
253 247 246 0
254 247 253 0
254 248 247 0
255 248 254 0
255 249 248 0
256 249 255 0
249 177 173 0
256 177 249 0
179 178 257 0
259 180 179 0
258 259 179 0
257 258 179 0
260 180 259 0
181 180 260 0
181 260 261 0
181 261 250 0
181 250 176 0
261 262 250 0
250 262 251 0
262 263 251 0
251 263 252 0
263 264 252 0
252 264 253 0
265 254 253 0
265 253 264 0
265 264 266 0
265 255 254 0
267 255 265 0
256 255 267 0
185 256 267 0
184 185 267 0
185 177 256 0
269 186 268 0
187 186 269 0
187 269 270 0
187 270 257 0
187 257 178 0
270 258 257 0
271 188 189 0
272 271 190 0
190 271 189 0
273 272 191 0
191 272 190 0
274 273 192 0
192 273 191 0
275 265 266 0
192 194 274 0
275 276 265 0
265 276 267 0
276 277 196 0
276 196 184 0
276 184 267 0
278 196 277 0
197 196 278 0
280 268 186 0
279 280 186 0
198 279 186 0
200 279 198 0
203 188 281 0
281 188 271 0
281 271 272 0
282 281 272 0
283 282 272 0
272 284 283 0
273 284 272 0
273 285 284 0
274 285 273 0
204 286 285 0
194 204 285 0
274 194 285 0
286 204 287 0
287 204 206 0
208 197 278 0
208 278 289 0
208 289 288 0
290 288 289 0
280 279 291 0
209 292 291 0
200 209 291 0
279 200 291 0
292 209 210 0
292 210 293 0
292 293 294 0
295 293 211 0
211 293 210 0
296 281 297 0
296 295 281 0
295 203 281 0
211 203 295 0
281 282 297 0
287 212 298 0
206 212 287 0
298 213 299 0
212 213 298 0
300 299 213 0
288 300 213 0
208 288 213 0
288 290 300 0
294 293 301 0
293 302 301 0
295 302 293 0
295 296 302 0
304 215 303 0
216 215 304 0
305 216 304 0
218 216 305 0
306 218 305 0
220 218 306 0
307 220 306 0
221 220 307 0
215 308 303 0
223 308 215 0
226 307 309 0
221 307 226 0
223 310 308 0
228 310 223 0
231 309 311 0
226 309 231 0
310 232 312 0
228 232 310 0
312 232 313 0
313 232 234 0
236 311 314 0
231 311 236 0
313 237 315 0
234 237 313 0
315 237 316 0
316 237 239 0
240 314 317 0
236 314 240 0
316 241 318 0
239 241 316 0
240 318 241 0
317 318 240 0
259 258 319 0
260 319 320 0
259 319 260 0
261 320 321 0
260 320 261 0
262 321 322 0
261 321 262 0
263 322 323 0
262 322 263 0
264 323 324 0
263 323 264 0
264 324 266 0
269 268 325 0
270 325 326 0
269 325 270 0
319 327 328 0
319 258 327 0
258 326 327 0
270 326 258 0
328 329 319 0
319 329 320 0
329 330 320 0
320 330 321 0
330 331 321 0
321 331 322 0
331 332 322 0
322 332 323 0
333 324 323 0
333 323 332 0
333 332 334 0
324 333 335 0
266 324 335 0
275 266 335 0
276 335 336 0
275 335 276 0
277 336 337 0
276 336 277 0
277 337 278 0
268 280 338 0
325 268 338 0
339 325 338 0
339 340 325 0
325 340 326 0
340 327 326 0
341 282 283 0
342 341 284 0
284 341 283 0
334 343 333 0
343 285 333 0
343 342 285 0
342 284 285 0
285 335 333 0
286 335 285 0
344 336 335 0
287 344 335 0
286 287 335 0
344 337 336 0
345 337 344 0
337 345 346 0
278 337 346 0
289 278 346 0
289 346 290 0
349 347 348 0
338 280 349 0
280 347 349 0
280 291 347 0
291 350 347 0
351 350 292 0
292 350 291 0
294 351 292 0
352 296 297 0
353 341 354 0
353 352 341 0
352 282 341 0
297 282 352 0
341 355 354 0
342 355 341 0
342 343 355 0
344 287 298 0
298 345 344 0
299 345 298 0
299 346 345 0
300 346 299 0
300 290 346 0
358 356 357 0
347 359 356 0
348 347 356 0
358 348 356 0
359 347 350 0
360 359 350 0
361 360 350 0
350 362 361 0
351 362 350 0
362 363 364 0
362 351 363 0
351 301 363 0
294 301 351 0
365 363 302 0
302 363 301 0
366 352 367 0
366 365 352 0
365 296 352 0
302 296 365 0
352 353 367 0
357 356 368 0
356 369 368 0
359 369 356 0
359 360 369 0
364 363 370 0
363 371 370 0
365 371 363 0
365 366 371 0
304 303 372 0
305 372 373 0
304 372 305 0
306 373 374 0
305 373 306 0
377 375 376 0
306 374 307 0
378 375 377 0
379 303 308 0
372 303 379 0
373 372 379 0
373 379 380 0
373 380 381 0
381 382 373 0
373 382 374 0
309 382 383 0
309 307 382 0
307 374 382 0
383 382 375 0
375 382 376 0
378 383 375 0
384 383 378 0
385 308 310 0
379 308 385 0
379 385 380 0
380 385 386 0
311 309 387 0
387 309 383 0
384 387 383 0
388 387 384 0
385 310 312 0
313 389 386 0
313 386 385 0
313 385 312 0
314 311 390 0
390 311 387 0
388 390 387 0
391 390 388 0
393 389 313 0
392 393 313 0
315 392 313 0
316 392 315 0
317 314 394 0
394 314 390 0
395 394 390 0
396 395 390 0
391 396 390 0
397 395 396 0
393 392 398 0
398 399 400 0
398 392 399 0
392 318 399 0
316 318 392 0
394 401 399 0
394 399 318 0
394 318 317 0
402 394 395 0
401 394 402 0
397 402 395 0
403 402 397 0
400 399 404 0
399 401 405 0
404 399 405 0
406 404 405 0
407 401 402 0
405 401 407 0
408 407 402 0
409 408 402 0
403 409 402 0
409 410 408 0
411 410 409 0
412 410 411 0
406 405 413 0
405 407 414 0
413 405 414 0
415 413 414 0
416 407 408 0
414 407 416 0
417 408 410 0
416 408 417 0
412 417 410 0
418 417 412 0
415 414 419 0
414 420 419 0
416 420 414 0
416 421 420 0
417 421 416 0
417 418 421 0
328 327 422 0
329 422 423 0
328 422 329 0
330 423 424 0
329 423 330 0
331 424 425 0
330 424 331 0
332 425 426 0
331 425 332 0
332 426 334 0
428 338 427 0
339 338 428 0
429 339 428 0
340 339 429 0
340 429 430 0
340 430 422 0
340 422 327 0
430 431 422 0
422 431 423 0
431 432 423 0
423 432 424 0
433 425 424 0
433 424 432 0
433 432 434 0
433 426 425 0
435 426 433 0
426 343 334 0
435 343 426 0
437 348 436 0
349 348 437 0
349 437 338 0
338 437 427 0
434 438 353 0
434 353 354 0
434 354 433 0
354 435 433 0
355 435 354 0
355 343 435 0
440 357 439 0
358 357 440 0
358 440 348 0
348 440 436 0
441 360 361 0
442 441 362 0
362 441 361 0
364 442 362 0
443 366 367 0
353 438 444 0
367 353 444 0
443 367 444 0
447 445 446 0
447 448 445 0
449 448 447 0
439 357 449 0
357 448 449 0
357 368 448 0
368 450 448 0
451 450 369 0
369 450 368 0
452 441 453 0
452 451 441 0
451 360 441 0
369 360 451 0
441 454 453 0
442 454 441 0
454 455 456 0
454 442 455 0
442 370 455 0
364 370 442 0
457 455 371 0
371 455 370 0
458 443 459 0
458 457 443 0
457 366 443 0
371 366 457 0
443 444 459 0
461 376 460 0
377 376 461 0
462 446 445 0
462 461 446 0
378 461 462 0
377 461 378 0
463 445 448 0
462 445 463 0
463 448 450 0
464 463 450 0
465 464 450 0
450 466 465 0
451 466 450 0
451 452 466 0
456 455 467 0
455 468 467 0
457 468 455 0
457 458 468 0
470 380 469 0
381 380 470 0
471 381 470 0
382 381 471 0
382 471 376 0
376 471 460 0
384 378 472 0
472 378 462 0
473 462 463 0
472 462 473 0
464 473 463 0
474 473 464 0
380 475 469 0
386 475 380 0
388 384 476 0
476 384 472 0
476 472 473 0
477 476 473 0
478 477 473 0
473 474 478 0
386 479 475 0
389 479 386 0
391 388 480 0
480 388 476 0
477 480 476 0
481 480 477 0
389 482 479 0
393 482 389 0
396 391 480 0
481 483 397 0
480 481 397 0
396 480 397 0
482 398 484 0
393 398 482 0
484 398 485 0
485 398 400 0
403 397 483 0
403 483 487 0
403 487 486 0
488 486 487 0
485 404 489 0
400 404 485 0
489 404 490 0
490 404 406 0
409 403 486 0
491 411 409 0
491 409 486 0
491 486 488 0
492 411 491 0
412 411 492 0
494 490 406 0
493 494 406 0
413 493 406 0
415 493 413 0
418 492 495 0
412 492 418 0
494 493 496 0
419 497 496 0
415 419 496 0
493 415 496 0
497 420 498 0
419 420 497 0
498 421 499 0
420 421 498 0
418 499 421 0
495 499 418 0
428 427 500 0
429 500 501 0
428 500 429 0
430 501 502 0
429 501 430 0
431 502 503 0
430 502 431 0
432 503 504 0
431 503 432 0
432 504 434 0
437 436 505 0
500 506 507 0
500 427 506 0
427 505 506 0
437 505 427 0
507 508 500 0
500 508 501 0
508 509 501 0
501 509 502 0
510 503 502 0
510 502 509 0
510 509 511 0
510 504 503 0
512 504 510 0
504 438 434 0
512 438 504 0
440 439 513 0
505 514 515 0
505 436 514 0
436 513 514 0
440 513 436 0
515 506 505 0
516 510 511 0
517 512 510 0
517 510 516 0
517 516 518 0
512 444 438 0
517 444 512 0
447 446 519 0
521 449 447 0
520 521 447 0
519 520 447 0
449 521 522 0
449 522 513 0
449 513 439 0
522 514 513 0
523 452 453 0
524 523 454 0
454 523 453 0
456 524 454 0
518 525 458 0
518 458 459 0
518 459 517 0
459 444 517 0
461 460 526 0
519 527 528 0
519 446 527 0
446 526 527 0
461 526 446 0
528 520 519 0
529 464 465 0
530 529 466 0
466 529 465 0
531 523 532 0
531 530 523 0
530 452 523 0
466 452 530 0
523 533 532 0
524 533 523 0
467 534 533 0
456 467 533 0
524 456 533 0
534 467 468 0
534 468 535 0
534 535 536 0
458 525 537 0
468 458 537 0
535 468 537 0
470 469 538 0
540 471 470 0
539 540 470 0
538 539 470 0
471 540 541 0
471 541 526 0
471 526 460 0
541 527 526 0
474 464 542 0
542 464 529 0
542 529 530 0
543 542 530 0
544 543 530 0
530 531 544 0
536 535 545 0
535 537 545 0
469 475 546 0
538 469 546 0
547 538 546 0
547 539 538 0
548 477 478 0
549 542 550 0
549 548 542 0
548 474 542 0
478 474 548 0
542 543 550 0
475 551 546 0
479 551 475 0
481 477 552 0
552 477 548 0
549 552 548 0
553 552 549 0
479 554 551 0
482 554 479 0
483 481 555 0
555 481 552 0
553 555 552 0
556 555 553 0
558 554 482 0
557 558 482 0
484 557 482 0
485 557 484 0
487 483 555 0
556 559 488 0
555 556 488 0
487 555 488 0
558 557 560 0
560 561 562 0
560 557 561 0
557 489 561 0
485 489 557 0
490 561 489 0
563 491 559 0
559 491 488 0
564 491 563 0
492 491 564 0
562 561 565 0
490 494 566 0
490 566 565 0
490 565 561 0
495 564 567 0
492 564 495 0
566 496 568 0
494 496 566 0
568 497 569 0
496 497 568 0
569 498 570 0
497 498 569 0
570 499 571 0
498 499 570 0
495 571 499 0
567 571 495 0
507 506 572 0
508 572 573 0
507 572 508 0
509 573 574 0
508 573 509 0
509 574 511 0
576 514 575 0
515 514 576 0
515 576 577 0
515 577 572 0
515 572 506 0
578 573 572 0
578 572 577 0
578 577 579 0
578 574 573 0
580 574 578 0
574 580 581 0
511 574 581 0
516 511 581 0
516 581 518 0
521 520 582 0
584 522 521 0
583 584 521 0
582 583 521 0
522 584 514 0
514 584 575 0
579 586 578 0
578 586 585 0
585 580 578 0
587 580 585 0
587 581 580 0
588 581 587 0
581 525 518 0
588 525 581 0
528 527 589 0
582 590 591 0
582 520 590 0
520 589 590 0
528 589 520 0
591 583 582 0
592 531 532 0
586 593 585 0
593 533 585 0
593 592 533 0
592 532 533 0
533 587 585 0
534 587 533 0
594 588 587 0
536 594 587 0
534 536 587 0
588 537 525 0
594 537 588 0
540 539 595 0
597 541 540 0
596 597 540 0
595 596 540 0
541 597 598 0
541 598 589 0
541 589 527 0
598 590 589 0
599 543 544 0
600 592 601 0
600 599 592 0
599 531 592 0
544 531 599 0
592 593 601 0
594 536 545 0
545 537 594 0
547 546 602 0
595 603 604 0
595 539 603 0
539 602 603 0
547 602 539 0
604 596 595 0
605 549 550 0
606 599 607 0
606 605 599 0
605 543 599 0
550 543 605 0
599 600 607 0
546 551 608 0
602 546 608 0
609 602 608 0
609 603 602 0
553 549 610 0
610 549 605 0
606 610 605 0
611 610 606 0
551 612 608 0
554 612 551 0
556 553 613 0
613 553 610 0
611 613 610 0
614 613 611 0
554 615 612 0
558 615 554 0
559 556 616 0
616 556 613 0
614 616 613 0
617 616 614 0
615 560 618 0
558 560 615 0
618 560 619 0
619 560 562 0
563 559 616 0
621 616 617 0
621 620 616 0
620 563 616 0
564 563 620 0
622 620 621 0
619 565 623 0
562 565 619 0
623 565 624 0
624 565 566 0
567 564 625 0
625 564 620 0
622 625 620 0
626 625 622 0
624 568 627 0
566 568 624 0
627 569 628 0
568 569 627 0
628 570 629 0
569 570 628 0
629 571 630 0
570 571 629 0
631 630 571 0
625 631 571 0
567 625 571 0
625 626 631 0
576 575 632 0
577 632 633 0
576 632 577 0
577 633 579 0
584 583 634 0
634 635 632 0
584 634 632 0
575 584 632 0
635 633 632 0
636 633 635 0
633 586 579 0
636 586 633 0
591 590 637 0
634 638 639 0
634 583 638 0
583 637 638 0
591 637 583 0
639 640 634 0
634 640 635 0
641 636 635 0
641 635 640 0
641 640 642 0
636 593 586 0
641 593 636 0
597 596 643 0
598 643 644 0
597 643 598 0
637 645 646 0
637 590 645 0
590 644 645 0
598 644 590 0
646 638 637 0
642 647 600 0
642 600 601 0
642 601 641 0
601 593 641 0
604 603 648 0
643 649 650 0
643 596 649 0
596 648 649 0
604 648 596 0
650 651 643 0
643 651 644 0
651 645 644 0
652 606 607 0
600 647 653 0
607 600 653 0
652 607 653 0
609 608 654 0
648 655 656 0
648 603 655 0
603 654 655 0
609 654 603 0
656 649 648 0
611 606 657 0
657 606 652 0
653 657 652 0
658 657 653 0
659 608 612 0
654 608 659 0
654 659 655 0
655 659 660 0
614 611 661 0
661 611 657 0
662 661 657 0
663 662 657 0
658 663 657 0
664 662 663 0
665 612 615 0
659 612 665 0
659 665 660 0
660 665 666 0
617 614 667 0
667 614 661 0
668 661 662 0
667 661 668 0
669 668 662 0
670 669 662 0
664 670 662 0
671 669 670 0
665 615 618 0
619 672 666 0
619 666 665 0
619 665 618 0
621 617 667 0
667 668 673 0
667 673 622 0
667 622 621 0
674 668 669 0
673 668 674 0
671 674 669 0
675 674 671 0
672 623 676 0
619 623 672 0
676 623 677 0
677 623 624 0
626 622 678 0
678 622 673 0
679 673 674 0
678 673 679 0
675 679 674 0
680 679 675 0
677 627 681 0
624 627 677 0
681 628 682 0
627 628 681 0
682 629 683 0
628 629 682 0
683 630 684 0
629 630 683 0
684 631 685 0
630 631 684 0
686 685 631 0
678 686 631 0
626 678 631 0
678 687 686 0
679 687 678 0
679 680 687 0
639 638 688 0
640 688 689 0
639 688 640 0
640 689 642 0
646 645 690 0
690 691 688 0
646 690 688 0
638 646 688 0
691 689 688 0
692 689 691 0
689 647 642 0
692 647 689 0
650 649 693 0
651 693 694 0
650 693 651 0
690 695 696 0
690 645 695 0
645 694 695 0
651 694 645 0
696 697 690 0
690 697 691 0
698 692 691 0
698 691 697 0
698 697 699 0
692 653 647 0
698 653 692 0
656 655 700 0
693 701 702 0
693 649 701 0
649 700 701 0
656 700 649 0
702 703 693 0
693 703 694 0
703 695 694 0
704 698 699 0
705 658 653 0
704 705 653 0
698 704 653 0
655 660 706 0
700 655 706 0
707 700 706 0
707 701 700 0
708 663 705 0
705 663 658 0
663 708 710 0
664 663 710 0
709 664 710 0
711 709 710 0
660 712 706 0
666 712 660 0
670 664 709 0
714 709 711 0
714 713 709 0
713 670 709 0
671 670 713 0
715 713 714 0
666 716 712 0
672 716 666 0
675 671 717 0
717 671 713 0
718 717 713 0
719 718 713 0
715 719 713 0
720 718 719 0
716 676 721 0
672 676 716 0
723 721 676 0
723 676 677 0
723 677 722 0
723 722 724 0
680 675 725 0
725 675 717 0
726 717 718 0
725 717 726 0
720 726 718 0
727 726 720 0
722 677 681 0
681 682 728 0
722 681 728 0
724 722 728 0
728 683 729 0
682 683 728 0
729 684 730 0
683 684 729 0
730 685 731 0
684 685 730 0
731 686 732 0
685 686 731 0
732 687 733 0
686 687 732 0
734 733 687 0
725 734 687 0
680 725 687 0
725 735 734 0
726 735 725 0
726 727 735 0
696 695 736 0
697 736 737 0
696 736 697 0
697 737 699 0
702 701 738 0
703 738 739 0
702 738 703 0
739 740 736 0
703 739 736 0
695 703 736 0
740 737 736 0
741 737 740 0
737 741 742 0
699 737 742 0
704 699 742 0
704 742 705 0
707 706 743 0
743 744 738 0
707 743 738 0
701 707 738 0
739 738 744 0
739 744 745 0
739 745 746 0
746 747 739 0
739 747 740 0
747 748 740 0
740 748 741 0
748 749 741 0
741 749 742 0
749 705 742 0
749 751 705 0
751 708 705 0
750 708 751 0
710 750 752 0
708 750 710 0
710 752 711 0
753 706 712 0
743 706 753 0
744 743 753 0
744 753 754 0
744 754 755 0
755 745 744 0
756 750 751 0
757 752 750 0
757 750 756 0
757 756 758 0
752 757 759 0
711 752 759 0
714 711 759 0
714 759 715 0
760 712 716 0
753 712 760 0
753 760 754 0
754 760 761 0
762 757 758 0
763 759 757 0
763 757 762 0
763 762 764 0
759 763 765 0
715 759 765 0
719 715 765 0
719 765 720 0
760 716 721 0
721 723 766 0
760 721 766 0
761 760 766 0
766 723 767 0
767 723 724 0
764 769 763 0
763 769 768 0
768 765 763 0
770 765 768 0
765 727 720 0
770 727 765 0
767 728 771 0
724 728 767 0
771 729 772 0
728 729 771 0
772 730 773 0
729 730 772 0
773 731 774 0
730 731 773 0
774 732 775 0
731 732 774 0
775 733 776 0
732 733 775 0
776 733 734 0
769 776 734 0
768 769 734 0
734 770 768 0
735 770 734 0
735 727 770 0
746 745 777 0
747 777 778 0
746 777 747 0
748 778 779 0
747 778 748 0
749 779 780 0
748 779 749 0
749 780 751 0
755 754 781 0
781 782 777 0
755 781 777 0
745 755 777 0
782 778 777 0
783 778 782 0
783 779 778 0
784 779 783 0
784 780 779 0
785 780 784 0
780 785 786 0
751 780 786 0
756 751 786 0
756 786 758 0
787 754 761 0
781 754 787 0
787 782 781 0
788 782 787 0
788 783 782 0
789 783 788 0
789 784 783 0
790 784 789 0
790 785 784 0
791 785 790 0
791 786 785 0
792 786 791 0
786 792 793 0
758 786 793 0
762 758 793 0
762 793 764 0
787 761 766 0
794 788 787 0
767 794 787 0
766 767 787 0
794 789 788 0
795 789 794 0
795 790 789 0
796 790 795 0
796 791 790 0
797 791 796 0
797 792 791 0
798 792 797 0
798 793 792 0
799 793 798 0
793 769 764 0
799 769 793 0
794 767 771 0
