#!ascii version of
5078 10160
3466 3388 3384 0
3466 3384 3463 0
3466 3463 3467 0
3463 3464 3467 0
3386 3468 3465 0
3390 3468 3386 0
3392 3466 3469 0
3388 3466 3392 0
3468 3393 3470 0
3390 3393 3468 0
3470 3393 3471 0
3471 3393 3394 0
3396 3469 3472 0
3392 3469 3396 0
3394 3473 3471 0
3397 3473 3394 0
3474 3398 3399 0
3396 3472 3475 0
3399 3396 3475 0
3474 3399 3475 0
3397 3476 3473 0
3401 3476 3397 0
3402 3398 3477 0
3477 3398 3474 0
3475 3477 3474 0
3478 3477 3475 0
3401 3479 3476 0
3404 3479 3401 0
3405 3402 3480 0
3480 3402 3477 0
3478 3480 3477 0
3481 3480 3478 0
3479 3406 3482 0
3404 3406 3479 0
3482 3406 3407 0
3482 3407 3483 0
3482 3483 3484 0
3408 3483 3407 0
3485 3410 3405 0
3485 3405 3480 0
3485 3480 3486 0
3480 3481 3486 0
3484 3483 3487 0
3487 3488 3489 0
3487 3483 3488 0
3483 3411 3488 0
3408 3411 3483 0
3490 3488 3412 0
3412 3488 3411 0
3491 3490 3413 0
3413 3490 3412 0
3410 3485 3492 0
3413 3410 3492 0
3491 3413 3492 0
3489 3488 3493 0
3488 3494 3493 0
3490 3494 3488 0
3490 3495 3494 0
3491 3495 3490 0
3491 3492 3495 0
3415 3414 3496 0
3416 3496 3497 0
3415 3496 3416 0
3416 3497 3418 0
3496 3414 3419 0
3497 3496 3499 0
3496 3498 3499 0
3496 3419 3498 0
3419 3420 3498 0
3499 3500 3421 0
3499 3421 3418 0
3499 3418 3497 0
3501 3421 3500 0
3422 3421 3501 0
3502 3422 3501 0
3424 3422 3502 0
3498 3425 3503 0
3420 3425 3498 0
3503 3425 3504 0
3504 3425 3426 0
3505 3427 3502 0
3502 3427 3424 0
3506 3427 3505 0
3428 3427 3506 0
3507 3428 3506 0
3429 3428 3507 0
3508 3429 3507 0
3430 3429 3508 0
3504 3431 3509 0
3426 3431 3504 0
3509 3431 3510 0
3510 3431 3432 0
3511 3433 3508 0
3508 3433 3430 0
3512 3433 3511 0
3434 3433 3512 0
3435 3434 3512 0
3513 3435 3512 0
3514 3513 3512 0
3435 3513 3436 0
3510 3437 3515 0
3432 3437 3510 0
3515 3437 3516 0
3516 3437 3438 0
3517 3513 3514 0
3517 3518 3439 0
3517 3439 3436 0
3517 3436 3513 0
3519 3439 3518 0
3440 3439 3519 0
3520 3440 3519 0
3441 3440 3520 0
3516 3438 3442 0
3522 3516 3442 0
3521 3522 3442 0
3522 3521 3523 0
3524 3443 3520 0
3520 3443 3441 0
3525 3443 3524 0
3445 3443 3525 0
3521 3442 3446 0
3447 3526 3523 0
3447 3523 3521 0
3447 3521 3446 0
3527 3448 3525 0
3525 3448 3445 0
3528 3448 3527 0
3449 3448 3528 0
3526 3447 3450 0
3530 3526 3450 0
3529 3530 3450 0
3530 3529 3531 0
3451 3528 3532 0
3449 3528 3451 0
3533 3450 3452 0
3529 3450 3533 0
3529 3533 3531 0
3531 3533 3534 0
3453 3532 3535 0
3451 3532 3453 0
3533 3452 3455 0
3456 3536 3534 0
3456 3534 3533 0
3456 3533 3455 0
3457 3535 3537 0
3453 3535 3457 0
3456 3538 3536 0
3458 3538 3456 0
3459 3537 3539 0
3457 3537 3459 0
3538 3458 3460 0
3541 3538 3460 0
3540 3541 3460 0
3541 3540 3542 0
3461 3539 3543 0
3459 3539 3461 0
3544 3460 3462 0
3540 3460 3544 0
3540 3544 3542 0
3542 3544 3545 0
3464 3543 3546 0
3461 3543 3464 0
3547 3462 3465 0
3544 3462 3547 0
3544 3547 3545 0
3545 3547 3548 0
3549 3466 3467 0
3464 3546 3550 0
3467 3464 3550 0
3549 3467 3550 0
3551 3465 3468 0
3547 3465 3551 0
3547 3551 3548 0
3548 3551 3552 0
3553 3469 3466 0
3553 3466 3549 0
3553 3549 3554 0
3549 3550 3554 0
3551 3468 3470 0
3471 3555 3552 0
3471 3552 3551 0
3471 3551 3470 0
3472 3553 3556 0
3469 3553 3472 0
3471 3557 3555 0
3473 3557 3471 0
3475 3556 3558 0
3472 3556 3475 0
3473 3559 3557 0
3476 3559 3473 0
3478 3558 3560 0
3475 3558 3478 0
3476 3561 3559 0
3479 3561 3476 0
3481 3560 3562 0
3478 3560 3481 0
3564 3561 3479 0
3563 3564 3479 0
3482 3563 3479 0
3484 3563 3482 0
3565 3485 3566 0
3566 3485 3486 0
3481 3566 3486 0
3562 3566 3481 0
3564 3563 3567 0
3567 3568 3569 0
3567 3563 3568 0
3563 3487 3568 0
3484 3487 3563 0
3489 3568 3487 0
3492 3565 3570 0
3485 3565 3492 0
3569 3568 3571 0
3571 3572 3573 0
3571 3568 3572 0
3568 3493 3572 0
3489 3493 3568 0
3574 3572 3494 0
3494 3572 3493 0
3494 3495 3576 0
3494 3576 3575 0
3494 3575 3574 0
3492 3576 3495 0
3570 3576 3492 0
3573 3572 3577 0
3572 3578 3577 0
3574 3578 3572 0
3574 3575 3578 0
3580 3498 3579 0
3499 3498 3580 0
3581 3499 3580 0
3500 3499 3581 0
3501 3500 3581 0
3582 3501 3581 0
3583 3582 3581 0
3501 3582 3502 0
3579 3503 3584 0
3498 3503 3579 0
3584 3503 3585 0
3585 3503 3504 0
3586 3582 3583 0
3586 3587 3505 0
3586 3505 3502 0
3586 3502 3582 0
3588 3505 3587 0
3506 3505 3588 0
3507 3506 3588 0
3589 3507 3588 0
3590 3589 3588 0
3507 3589 3508 0
3585 3509 3591 0
3504 3509 3585 0
3591 3509 3592 0
3592 3509 3510 0
3593 3589 3590 0
3593 3508 3589 0
3593 3595 3508 0
3595 3511 3508 0
3594 3511 3595 0
3512 3594 3596 0
3511 3594 3512 0
3512 3596 3514 0
3592 3515 3597 0
3510 3515 3592 0
3597 3515 3598 0
3598 3515 3516 0
3599 3594 3595 0
3599 3600 3594 0
3594 3600 3596 0
3600 3601 3517 0
3600 3517 3514 0
3600 3514 3596 0
3602 3517 3601 0
3518 3517 3602 0
3519 3518 3602 0
3603 3519 3602 0
3604 3603 3602 0
3519 3603 3520 0
3598 3522 3605 0
3516 3522 3598 0
3605 3522 3606 0
3606 3522 3523 0
3607 3603 3604 0
3607 3608 3524 0
3607 3524 3520 0
3607 3520 3603 0
3609 3524 3608 0
3525 3524 3609 0
3523 3610 3606 0
3526 3610 3523 0
3611 3527 3609 0
3609 3527 3525 0
3612 3527 3611 0
3528 3527 3612 0
3610 3530 3613 0
3526 3530 3610 0
3613 3530 3614 0
3614 3530 3531 0
3532 3612 3615 0
3528 3612 3532 0
3531 3616 3614 0
3534 3616 3531 0
3535 3615 3617 0
3532 3615 3535 0
3534 3618 3616 0
3536 3618 3534 0
3537 3617 3619 0
3535 3617 3537 0
3618 3536 3538 0
3621 3618 3538 0
3620 3621 3538 0
3621 3620 3622 0
3539 3619 3623 0
3537 3619 3539 0
3620 3538 3541 0
3542 3624 3622 0
3542 3622 3620 0
3542 3620 3541 0
3543 3623 3625 0
3539 3623 3543 0
3542 3626 3624 0
3545 3626 3542 0
3546 3625 3627 0
3543 3625 3546 0
3545 3628 3626 0
3548 3628 3545 0
3550 3627 3629 0
3546 3627 3550 0
3548 3630 3628 0
3552 3630 3548 0
3631 3553 3554 0
3550 3629 3632 0
3554 3550 3632 0
3631 3554 3632 0
3552 3633 3630 0
3555 3633 3552 0
3556 3553 3634 0
3634 3553 3631 0
3632 3634 3631 0
3635 3634 3632 0
3555 3636 3633 0
3557 3636 3555 0
3637 3558 3556 0
3637 3556 3634 0
3637 3634 3638 0
3634 3635 3638 0
3557 3639 3636 0
3559 3639 3557 0
3560 3637 3640 0
3558 3637 3560 0
3559 3641 3639 0
3561 3641 3559 0
3562 3640 3642 0
3560 3640 3562 0
3561 3643 3641 0
3564 3643 3561 0
3644 3565 3645 0
3645 3565 3566 0
3562 3645 3566 0
3642 3645 3562 0
3643 3567 3646 0
3564 3567 3643 0
3646 3567 3647 0
3647 3567 3569 0
3570 3644 3648 0
3565 3644 3570 0
3650 3647 3569 0
3649 3650 3569 0
3571 3649 3569 0
3573 3649 3571 0
3651 3575 3576 0
3570 3648 3652 0
3576 3570 3652 0
3651 3576 3652 0
3650 3649 3653 0
3577 3654 3653 0
3573 3577 3653 0
3649 3573 3653 0
3654 3578 3655 0
3577 3578 3654 0
3656 3655 3578 0
3651 3656 3578 0
3575 3651 3578 0
3651 3652 3656 0
3658 3579 3657 0
3580 3579 3658 0
3659 3580 3658 0
3581 3580 3659 0
3660 3581 3659 0
3583 3581 3660 0
3662 3657 3579 0
3661 3662 3579 0
3584 3661 3579 0
3585 3661 3584 0
3663 3586 3660 0
3660 3586 3583 0
3664 3586 3663 0
3587 3586 3664 0
3665 3587 3664 0
3588 3587 3665 0
3666 3588 3665 0
3590 3588 3666 0
3662 3661 3667 0
3591 3668 3667 0
3585 3591 3667 0
3661 3585 3667 0
3668 3591 3669 0
3669 3591 3592 0
3670 3593 3666 0
3666 3593 3590 0
3671 3593 3670 0
3595 3593 3671 0
3669 3597 3672 0
3592 3597 3669 0
3672 3597 3673 0
3673 3597 3598 0
3674 3599 3671 0
3671 3599 3595 0
3675 3599 3674 0
3600 3599 3675 0
3676 3600 3675 0
3601 3600 3676 0
3602 3601 3676 0
3677 3602 3676 0
3678 3677 3676 0
3602 3677 3604 0
3680 3673 3598 0
3679 3680 3598 0
3605 3679 3598 0
3606 3679 3605 0
3681 3677 3678 0
3681 3682 3607 0
3681 3607 3604 0
3681 3604 3677 0
3683 3607 3682 0
3608 3607 3683 0
3684 3608 3683 0
3609 3608 3684 0
3680 3679 3685 0
3606 3610 3686 0
3606 3686 3685 0
3606 3685 3679 0
3687 3611 3684 0
3684 3611 3609 0
3688 3611 3687 0
3612 3611 3688 0
3686 3613 3689 0
3610 3613 3686 0
3689 3613 3690 0
3690 3613 3614 0
3615 3688 3691 0
3612 3688 3615 0
3614 3692 3690 0
3616 3692 3614 0
3617 3691 3693 0
3615 3691 3617 0
3616 3694 3692 0
3618 3694 3616 0
3619 3693 3695 0
3617 3693 3619 0
3694 3621 3696 0
3618 3621 3694 0
3696 3621 3697 0
3697 3621 3622 0
3623 3695 3698 0
3619 3695 3623 0
3622 3699 3697 0
3624 3699 3622 0
3625 3698 3700 0
3623 3698 3625 0
3624 3701 3699 0
3626 3701 3624 0
3627 3700 3702 0
3625 3700 3627 0
3626 3703 3701 0
3628 3703 3626 0
3629 3702 3704 0
3627 3702 3629 0
3628 3705 3703 0
3630 3705 3628 0
3632 3704 3706 0
3629 3704 3632 0
3630 3707 3705 0
3633 3707 3630 0
3635 3706 3708 0
3632 3706 3635 0
3633 3709 3707 0
3636 3709 3633 0
3710 3637 3711 0
3711 3637 3638 0
3635 3711 3638 0
3708 3711 3635 0
3636 3712 3709 0
3639 3712 3636 0
3640 3710 3713 0
3637 3710 3640 0
3639 3714 3712 0
3641 3714 3639 0
3642 3713 3715 0
3640 3713 3642 0
3641 3716 3714 0
3643 3716 3641 0
3717 3644 3718 0
3718 3644 3645 0
3642 3718 3645 0
3715 3718 3642 0
3716 3646 3719 0
3643 3646 3716 0
3719 3646 3720 0
3720 3646 3647 0
3648 3717 3721 0
3644 3717 3648 0
3647 3722 3720 0
3650 3722 3647 0
3652 3721 3723 0
3648 3721 3652 0
3722 3653 3724 0
3650 3653 3722 0
3724 3653 3654 0
3724 3654 3725 0
3724 3725 3726 0
3727 3725 3655 0
3655 3725 3654 0
3728 3727 3656 0
3656 3727 3655 0
3652 3723 3729 0
3656 3652 3729 0
3728 3656 3729 0
3726 3725 3730 0
3725 3731 3730 0
3727 3731 3725 0
3727 3732 3731 0
3728 3732 3727 0
3728 3729 3732 0
3658 3657 3733 0
3659 3733 3734 0
3658 3733 3659 0
3659 3734 3660 0
3657 3662 3735 0
3733 3657 3735 0
3736 3733 3735 0
3736 3737 3733 0
3733 3737 3734 0
3737 3738 3663 0
3737 3663 3660 0
3737 3660 3734 0
3664 3663 3738 0
3739 3664 3738 0
3740 3739 3738 0
3665 3739 3741 0
3664 3739 3665 0
3665 3741 3666 0
3735 3667 3742 0
3662 3667 3735 0
3742 3667 3668 0
3742 3668 3743 0
3742 3743 3744 0
3669 3743 3668 0
3745 3739 3740 0
3745 3746 3739 0
3739 3746 3741 0
3746 3666 3741 0
3746 3748 3666 0
3748 3670 3666 0
3747 3670 3748 0
3670 3747 3671 0
3744 3743 3749 0
3749 3750 3751 0
3749 3743 3750 0
3743 3672 3750 0
3669 3672 3743 0
3673 3750 3672 0
3752 3747 3748 0
3752 3753 3674 0
3752 3674 3671 0
3752 3671 3747 0
3754 3674 3753 0
3675 3674 3754 0
3676 3675 3754 0
3755 3676 3754 0
3756 3755 3754 0
3676 3755 3678 0
3751 3750 3757 0
3673 3680 3758 0
3673 3758 3757 0
3673 3757 3750 0
3759 3755 3756 0
3759 3760 3681 0
3759 3681 3678 0
3759 3678 3755 0
3761 3681 3760 0
3682 3681 3761 0
3683 3682 3761 0
3762 3683 3761 0
3763 3762 3761 0
3683 3762 3684 0
3758 3685 3764 0
3680 3685 3758 0
3764 3685 3765 0
3765 3685 3686 0
3766 3762 3763 0
3766 3684 3762 0
3766 3768 3684 0
3768 3687 3684 0
3767 3687 3768 0
3687 3767 3688 0
3765 3689 3769 0
3686 3689 3765 0
3769 3689 3770 0
3770 3689 3690 0
3771 3767 3768 0
3772 3691 3688 0
3771 3772 3688 0
3767 3771 3688 0
3690 3773 3770 0
3692 3773 3690 0
3693 3772 3774 0
3691 3772 3693 0
3773 3692 3694 0
3776 3773 3694 0
3775 3776 3694 0
3776 3775 3777 0
3695 3774 3778 0
3693 3774 3695 0
3775 3694 3696 0
3697 3779 3777 0
3697 3777 3775 0
3697 3775 3696 0
3698 3778 3780 0
3695 3778 3698 0
3697 3781 3779 0
3699 3781 3697 0
3700 3780 3782 0
3698 3780 3700 0
3699 3783 3781 0
3701 3783 3699 0
3702 3782 3784 0
3700 3782 3702 0
3701 3785 3783 0
3703 3785 3701 0
3704 3784 3786 0
3702 3784 3704 0
3703 3787 3785 0
3705 3787 3703 0
3706 3786 3788 0
3704 3786 3706 0
3787 3705 3707 0
3790 3787 3707 0
3789 3790 3707 0
3790 3789 3791 0
3708 3788 3792 0
3706 3788 3708 0
3793 3707 3709 0
3789 3707 3793 0
3789 3793 3791 0
3791 3793 3794 0
3795 3710 3711 0
3708 3792 3796 0
3711 3708 3796 0
3795 3711 3796 0
3797 3709 3712 0
3793 3709 3797 0
3793 3797 3794 0
3794 3797 3798 0
3713 3710 3799 0
3799 3710 3795 0
3796 3799 3795 0
3800 3799 3796 0
3801 3712 3714 0
3797 3712 3801 0
3797 3801 3798 0
3798 3801 3802 0
3803 3715 3713 0
3803 3713 3799 0
3803 3799 3804 0
3799 3800 3804 0
3805 3714 3716 0
3801 3714 3805 0
3801 3805 3802 0
3802 3805 3806 0
3807 3717 3718 0
3715 3803 3808 0
3718 3715 3808 0
3807 3718 3808 0
3805 3716 3719 0
3720 3809 3806 0
3720 3806 3805 0
3720 3805 3719 0
3810 3721 3717 0
3810 3717 3807 0
3810 3807 3811 0
3807 3808 3811 0
3720 3812 3809 0
3722 3812 3720 0
3723 3810 3813 0
3721 3810 3723 0
3812 3724 3814 0
3722 3724 3812 0
3814 3724 3815 0
3815 3724 3726 0
3729 3813 3816 0
3723 3813 3729 0
3815 3730 3817 0
3726 3730 3815 0
3817 3731 3818 0
3730 3731 3817 0
3818 3732 3819 0
3731 3732 3818 0
3729 3819 3732 0
3816 3819 3729 0
3821 3735 3820 0
3736 3735 3821 0
3822 3736 3821 0
3737 3736 3822 0
3823 3737 3822 0
3738 3737 3823 0
3824 3738 3823 0
3740 3738 3824 0
3820 3742 3825 0
3735 3742 3820 0
3825 3742 3826 0
3826 3742 3744 0
3827 3745 3824 0
3824 3745 3740 0
3828 3745 3827 0
3746 3745 3828 0
3829 3746 3828 0
3748 3746 3829 0
3826 3749 3830 0
3744 3749 3826 0
3830 3749 3831 0
3831 3749 3751 0
3832 3752 3829 0
3829 3752 3748 0
3833 3752 3832 0
3753 3752 3833 0
3834 3753 3833 0
3754 3753 3834 0
3835 3754 3834 0
3756 3754 3835 0
3831 3757 3836 0
3751 3757 3831 0
3836 3757 3837 0
3837 3757 3758 0
3838 3759 3835 0
3835 3759 3756 0
3839 3759 3838 0
3760 3759 3839 0
3840 3760 3839 0
3761 3760 3840 0
3841 3761 3840 0
3763 3761 3841 0
3837 3764 3842 0
3758 3764 3837 0
3842 3764 3843 0
3843 3764 3765 0
3844 3766 3841 0
3841 3766 3763 0
3845 3766 3844 0
3768 3766 3845 0
3843 3769 3846 0
3765 3769 3843 0
3846 3769 3847 0
3847 3769 3770 0
3848 3771 3845 0
3845 3771 3768 0
3849 3771 3848 0
3772 3771 3849 0
3770 3850 3847 0
3773 3850 3770 0
3774 3849 3851 0
3772 3849 3774 0
3850 3776 3852 0
3773 3776 3850 0
3852 3776 3853 0
3853 3776 3777 0
3778 3851 3854 0
3774 3851 3778 0
3777 3855 3853 0
3779 3855 3777 0
3780 3854 3856 0
3778 3854 3780 0
3779 3857 3855 0
3781 3857 3779 0
3782 3856 3858 0
3780 3856 3782 0
3781 3859 3857 0
3783 3859 3781 0
3784 3858 3860 0
3782 3858 3784 0
3783 3861 3859 0
3785 3861 3783 0
3786 3860 3862 0
3784 3860 3786 0
3861 3785 3787 0
3864 3861 3787 0
3863 3864 3787 0
3864 3863 3865 0
3788 3862 3866 0
3786 3862 3788 0
3863 3787 3790 0
3791 3867 3865 0
3791 3865 3863 0
3791 3863 3790 0
3792 3866 3868 0
3788 3866 3792 0
3791 3869 3867 0
3794 3869 3791 0
3796 3868 3870 0
3792 3868 3796 0
3794 3871 3869 0
3798 3871 3794 0
3800 3870 3872 0
3796 3870 3800 0
3798 3873 3871 0
3802 3873 3798 0
3874 3803 3875 0
3875 3803 3804 0
3800 3875 3804 0
3872 3875 3800 0
3802 3876 3873 0
3806 3876 3802 0
3808 3874 3877 0
3803 3874 3808 0
3876 3806 3809 0
3879 3876 3809 0
3878 3879 3809 0
3879 3878 3880 0
3881 3810 3882 0
3882 3810 3811 0
3808 3882 3811 0
3877 3882 3808 0
3883 3809 3812 0
3878 3809 3883 0
3878 3883 3880 0
3880 3883 3884 0
3813 3881 3885 0
3810 3881 3813 0
3883 3812 3814 0
3815 3886 3884 0
3815 3884 3883 0
3815 3883 3814 0
3888 3887 3889 0
3816 3813 3885 0
3887 3816 3885 0
3889 3887 3885 0
3886 3817 3890 0
3815 3817 3886 0
3890 3818 3891 0
3817 3818 3890 0
3891 3818 3819 0
3888 3891 3819 0
3887 3888 3819 0
3819 3816 3887 0
3821 3820 3892 0
3894 3822 3821 0
3893 3894 3821 0
3892 3893 3821 0
3895 3822 3894 0
3823 3822 3895 0
3896 3823 3895 0
3824 3823 3896 0
3892 3820 3825 0
3826 3897 3893 0
3826 3893 3892 0
3826 3892 3825 0
3898 3827 3896 0
3896 3827 3824 0
3899 3827 3898 0
3828 3827 3899 0
3900 3828 3899 0
3829 3828 3900 0
3897 3830 3901 0
3826 3830 3897 0
3901 3830 3902 0
3902 3830 3831 0
3903 3832 3900 0
3900 3832 3829 0
3904 3832 3903 0
3833 3832 3904 0
3834 3833 3904 0
3905 3834 3904 0
3906 3905 3904 0
3834 3905 3835 0
3902 3836 3907 0
3831 3836 3902 0
3907 3836 3908 0
3908 3836 3837 0
3909 3905 3906 0
3909 3910 3838 0
3909 3838 3835 0
3909 3835 3905 0
3839 3838 3910 0
3911 3839 3910 0
3912 3911 3910 0
3840 3911 3913 0
3839 3911 3840 0
3840 3913 3841 0
3908 3842 3914 0
3837 3842 3908 0
3914 3842 3915 0
3915 3842 3843 0
3916 3911 3912 0
3916 3917 3911 0
3911 3917 3913 0
3917 3841 3913 0
3917 3919 3841 0
3919 3844 3841 0
3918 3844 3919 0
3844 3918 3845 0
3915 3846 3920 0
3843 3846 3915 0
3920 3846 3921 0
3921 3846 3847 0
3922 3918 3919 0
3922 3923 3848 0
3922 3848 3845 0
3922 3845 3918 0
3924 3848 3923 0
3849 3848 3924 0
3847 3925 3921 0
3850 3925 3847 0
3851 3924 3926 0
3849 3924 3851 0
3925 3852 3927 0
3850 3852 3925 0
3927 3852 3928 0
3928 3852 3853 0
3854 3926 3929 0
3851 3926 3854 0
3853 3930 3928 0
3855 3930 3853 0
3856 3929 3931 0
3854 3929 3856 0
3855 3932 3930 0
3857 3932 3855 0
3858 3931 3933 0
3856 3931 3858 0
3857 3934 3932 0
3859 3934 3857 0
3860 3933 3935 0
3858 3933 3860 0
3934 3859 3861 0
3937 3934 3861 0
3936 3937 3861 0
3937 3936 3938 0
3862 3935 3939 0
3860 3935 3862 0
3936 3861 3864 0
3865 3940 3938 0
3865 3938 3936 0
3865 3936 3864 0
3866 3939 3941 0
3862 3939 3866 0
3865 3942 3940 0
3867 3942 3865 0
3868 3941 3943 0
3866 3941 3868 0
3867 3944 3942 0
3869 3944 3867 0
3870 3943 3945 0
3868 3943 3870 0
3869 3946 3944 0
3871 3946 3869 0
3872 3945 3947 0
3870 3945 3872 0
3946 3871 3873 0
3949 3946 3873 0
3948 3949 3873 0
3949 3948 3950 0
3951 3874 3952 0
3952 3874 3875 0
3872 3952 3875 0
3947 3952 3872 0
3953 3873 3876 0
3948 3873 3953 0
3948 3953 3950 0
3950 3953 3954 0
3877 3951 3955 0
3874 3951 3877 0
3953 3876 3879 0
3880 3956 3954 0
3880 3954 3953 0
3880 3953 3879 0
3957 3881 3958 0
3958 3881 3882 0
3877 3958 3882 0
3955 3958 3877 0
3880 3959 3956 0
3884 3959 3880 0
3885 3957 3960 0
3881 3957 3885 0
3959 3884 3886 0
3962 3959 3886 0
3961 3962 3886 0
3961 3963 3962 0
3962 3963 3964 0
3889 3965 3964 0
3889 3964 3963 0
3889 3963 3888 0
3885 3965 3889 0
3960 3965 3885 0
3961 3886 3890 0
3890 3963 3961 0
3891 3963 3890 0
3891 3888 3963 0
3894 3893 3966 0
3895 3966 3967 0
3894 3966 3895 0
3895 3967 3896 0
3893 3897 3968 0
3966 3893 3968 0
3969 3966 3968 0
3969 3970 3966 0
3966 3970 3967 0
3970 3971 3898 0
3970 3898 3896 0
3970 3896 3967 0
3899 3898 3971 0
3972 3899 3971 0
3973 3972 3971 0
3899 3972 3900 0
3975 3968 3897 0
3974 3975 3897 0
3901 3974 3897 0
3902 3974 3901 0
3976 3972 3973 0
3976 3900 3972 0
3976 3978 3900 0
3978 3903 3900 0
3977 3903 3978 0
3904 3977 3979 0
3903 3977 3904 0
3904 3979 3906 0
3975 3974 3980 0
3980 3981 3982 0
3980 3974 3981 0
3974 3907 3981 0
3902 3907 3974 0
3908 3981 3907 0
3983 3977 3978 0
3983 3984 3977 0
3977 3984 3979 0
3984 3985 3909 0
3984 3909 3906 0
3984 3906 3979 0
3910 3909 3985 0
3986 3910 3985 0
3987 3986 3985 0
3910 3986 3912 0
3982 3981 3988 0
3988 3989 3990 0
3988 3981 3989 0
3981 3914 3989 0
3908 3914 3981 0
3915 3989 3914 0
3991 3986 3987 0
3991 3992 3916 0
3991 3916 3912 0
3991 3912 3986 0
3917 3916 3992 0
3993 3917 3992 0
3994 3993 3992 0
3917 3993 3919 0
3990 3989 3995 0
3995 3996 3997 0
3995 3989 3996 0
3989 3920 3996 0
3915 3920 3989 0
3921 3996 3920 0
3998 3993 3994 0
3998 3999 3922 0
3998 3922 3919 0
3998 3919 3993 0
3923 3922 3999 0
4000 3923 3999 0
4001 4000 3999 0
3923 4000 3924 0
3997 3996 4002 0
3921 3925 4003 0
3921 4003 4002 0
3921 4002 3996 0
4001 4005 4000 0
4000 4005 4004 0
4000 3926 3924 0
4004 3926 4000 0
4003 3927 4006 0
3925 3927 4003 0
4006 3927 4007 0
4007 3927 3928 0
4008 4004 4005 0
4009 3929 3926 0
4008 4009 3926 0
4004 4008 3926 0
3928 4010 4007 0
3930 4010 3928 0
3931 4009 4011 0
3929 4009 3931 0
3930 4012 4010 0
3932 4012 3930 0
3933 4011 4013 0
3931 4011 3933 0
3932 4014 4012 0
3934 4014 3932 0
3935 4013 4015 0
3933 4013 3935 0
4014 3937 4016 0
3934 3937 4014 0
4016 3937 4017 0
4017 3937 3938 0
3939 4015 4018 0
3935 4015 3939 0
3938 4019 4017 0
3940 4019 3938 0
3941 4018 4020 0
3939 4018 3941 0
3940 4021 4019 0
3942 4021 3940 0
3943 4020 4022 0
3941 4020 3943 0
3942 4023 4021 0
3944 4023 3942 0
3945 4022 4024 0
3943 4022 3945 0
4023 3944 3946 0
4026 4023 3946 0
4025 4026 3946 0
4026 4025 4027 0
3947 4024 4028 0
3945 4024 3947 0
4025 3946 3949 0
3950 4029 4027 0
3950 4027 4025 0
3950 4025 3949 0
4030 3951 4031 0
4031 3951 3952 0
3947 4031 3952 0
4028 4031 3947 0
3950 4032 4029 0
3954 4032 3950 0
3955 4030 4033 0
3951 4030 3955 0
4032 3954 3956 0
4035 4032 3956 0
4034 4035 3956 0
4035 4034 4036 0
4037 3957 4038 0
4038 3957 3958 0
3955 4038 3958 0
4033 4038 3955 0
4039 3956 3959 0
4034 3956 4039 0
4034 4039 4040 0
4034 4040 4041 0
4034 4041 4036 0
4040 4042 4041 0
4041 4042 4043 0
3960 3957 4037 0
4042 3960 4037 0
4043 4042 4037 0
4039 3959 3962 0
3962 4040 4039 0
3964 4040 3962 0
3964 4042 4040 0
3965 4042 3964 0
3965 3960 4042 0
4046 4044 4045 0
4046 4047 3969 0
4044 4046 3969 0
3968 4044 3969 0
4048 3969 4047 0
3970 3969 4048 0
3971 3970 4048 0
4049 3971 4048 0
4050 4049 4048 0
3971 4049 3973 0
4044 4052 4045 0
4051 4052 4044 0
3968 3975 4044 0
4044 3975 4051 0
4053 4049 4050 0
4053 3973 4049 0
4053 4055 3973 0
4055 3976 3973 0
4054 3976 4055 0
3976 4054 3978 0
4052 4051 4056 0
3980 4057 4056 0
3975 3980 4056 0
4051 3975 4056 0
4057 3980 4058 0
4058 3980 3982 0
4059 4054 4055 0
4059 4060 3983 0
4059 3983 3978 0
4059 3978 4054 0
3984 3983 4060 0
4061 3984 4060 0
4062 4061 4060 0
3985 4061 4063 0
3984 4061 3985 0
3985 4063 3987 0
4058 3988 4064 0
3982 3988 4058 0
4064 3988 4065 0
4065 3988 3990 0
4066 4061 4062 0
4066 4067 4061 0
4061 4067 4063 0
4067 4068 3991 0
4067 3991 3987 0
4067 3987 4063 0
4069 3991 4068 0
3992 3991 4069 0
4070 3992 4069 0
3994 3992 4070 0
4065 3995 4071 0
3990 3995 4065 0
4071 3995 4072 0
4072 3995 3997 0
4073 3998 4070 0
4070 3998 3994 0
3999 3998 4073 0
4074 3999 4073 0
4075 4074 4073 0
3999 4074 4001 0
4072 4002 4076 0
3997 4002 4072 0
4076 4002 4077 0
4077 4002 4003 0
4078 4074 4075 0
4079 4005 4001 0
4078 4079 4001 0
4074 4078 4001 0
4077 4006 4080 0
4003 4006 4077 0
4080 4006 4081 0
4081 4006 4007 0
4082 4008 4079 0
4079 4008 4005 0
4083 4008 4082 0
4009 4008 4083 0
4007 4084 4081 0
4010 4084 4007 0
4011 4083 4085 0
4009 4083 4011 0
4010 4086 4084 0
4012 4086 4010 0
4013 4085 4087 0
4011 4085 4013 0
4086 4012 4014 0
4089 4086 4014 0
4088 4089 4014 0
4089 4088 4090 0
4015 4087 4091 0
4013 4087 4015 0
4088 4014 4016 0
4017 4092 4090 0
4017 4090 4088 0
4017 4088 4016 0
4018 4091 4093 0
4015 4091 4018 0
4017 4094 4092 0
4019 4094 4017 0
4020 4093 4095 0
4018 4093 4020 0
4019 4096 4094 0
4021 4096 4019 0
4022 4095 4097 0
4020 4095 4022 0
4096 4021 4023 0
4099 4096 4023 0
4098 4099 4023 0
4099 4098 4100 0
4024 4097 4101 0
4022 4097 4024 0
4098 4023 4026 0
4027 4102 4100 0
4027 4100 4098 0
4027 4098 4026 0
4028 4101 4103 0
4024 4101 4028 0
4027 4104 4102 0
4029 4104 4027 0
4105 4030 4106 0
4106 4030 4031 0
4028 4106 4031 0
4103 4106 4028 0
4029 4107 4104 0
4032 4107 4029 0
4109 4108 4110 0
4033 4030 4105 0
4108 4033 4105 0
4110 4108 4105 0
4107 4035 4111 0
4032 4035 4107 0
4113 4111 4035 0
4113 4035 4036 0
4113 4036 4112 0
4112 4114 4113 0
4113 4114 4115 0
4114 4109 4115 0
4114 4037 4109 0
4037 4108 4109 0
4038 4108 4037 0
4038 4033 4108 0
4112 4036 4041 0
4041 4114 4112 0
4043 4114 4041 0
4043 4037 4114 0
4117 4045 4116 0
4046 4045 4117 0
4118 4046 4117 0
4047 4046 4118 0
4048 4047 4118 0
4119 4048 4118 0
4120 4119 4118 0
4048 4119 4050 0
4045 4121 4116 0
4052 4121 4045 0
4122 4119 4120 0
4122 4050 4119 0
4122 4124 4050 0
4124 4053 4050 0
4123 4053 4124 0
4053 4123 4055 0
4121 4056 4125 0
4052 4056 4121 0
4125 4056 4057 0
4125 4057 4126 0
4125 4126 4127 0
4058 4126 4057 0
4128 4123 4124 0
4128 4129 4059 0
4128 4059 4055 0
4128 4055 4123 0
4060 4059 4129 0
4130 4060 4129 0
4131 4130 4129 0
4060 4130 4062 0
4127 4126 4132 0
4132 4133 4134 0
4132 4126 4133 0
4126 4064 4133 0
4058 4064 4126 0
4065 4133 4064 0
4135 4130 4131 0
4135 4136 4066 0
4135 4066 4062 0
4135 4062 4130 0
4137 4066 4136 0
4067 4066 4137 0
4068 4067 4137 0
4138 4068 4137 0
4139 4138 4137 0
4069 4138 4140 0
4068 4138 4069 0
4069 4140 4070 0
4134 4133 4141 0
4141 4142 4143 0
4141 4133 4142 0
4133 4071 4142 0
4065 4071 4133 0
4072 4142 4071 0
4144 4138 4139 0
4144 4145 4138 0
4138 4145 4140 0
4145 4070 4140 0
4145 4147 4070 0
4147 4073 4070 0
4146 4073 4147 0
4073 4146 4075 0
4143 4142 4148 0
4148 4149 4150 0
4148 4142 4149 0
4142 4076 4149 0
4072 4076 4142 0
4077 4149 4076 0
4151 4146 4147 0
4151 4075 4146 0
4151 4153 4075 0
4153 4078 4075 0
4152 4078 4153 0
4078 4152 4079 0
4150 4149 4154 0
4154 4155 4156 0
4154 4149 4155 0
4149 4080 4155 0
4077 4080 4149 0
4081 4155 4080 0
4157 4152 4153 0
4157 4158 4082 0
4157 4082 4079 0
4157 4079 4152 0
4159 4082 4158 0
4083 4082 4159 0
4156 4155 4160 0
4081 4084 4161 0
4081 4161 4160 0
4081 4160 4155 0
4085 4159 4162 0
4083 4159 4085 0
4084 4163 4161 0
4086 4163 4084 0
4087 4162 4164 0
4085 4162 4087 0
4163 4089 4165 0
4086 4089 4163 0
4165 4089 4166 0
4166 4089 4090 0
4091 4164 4167 0
4087 4164 4091 0
4090 4168 4166 0
4092 4168 4090 0
4093 4167 4169 0
4091 4167 4093 0
4092 4170 4168 0
4094 4170 4092 0
4095 4169 4171 0
4093 4169 4095 0
4094 4172 4170 0
4096 4172 4094 0
4097 4171 4173 0
4095 4171 4097 0
4172 4099 4174 0
4096 4099 4172 0
4174 4099 4175 0
4175 4099 4100 0
4101 4173 4176 0
4097 4173 4101 0
4100 4177 4175 0
4102 4177 4100 0
4179 4178 4180 0
4103 4101 4176 0
4178 4103 4176 0
4180 4178 4176 0
4102 4181 4177 0
4104 4181 4102 0
4179 4182 4105 0
4179 4105 4106 0
4179 4106 4178 0
4106 4103 4178 0
4104 4183 4181 0
4107 4183 4104 0
4184 4109 4185 0
4185 4109 4110 0
4105 4185 4110 0
4182 4185 4105 0
4183 4111 4186 0
4107 4111 4183 0
4186 4113 4187 0
4111 4113 4186 0
4187 4115 4188 0
4113 4115 4187 0
4109 4188 4115 0
4184 4188 4109 0
4117 4116 4189 0
4118 4189 4190 0
4117 4189 4118 0
4118 4190 4120 0
4193 4191 4192 0
4194 4191 4193 0
4194 4121 4191 0
4189 4121 4194 0
4116 4121 4189 0
4194 4195 4189 0
4189 4195 4190 0
4195 4196 4122 0
4195 4122 4120 0
4195 4120 4190 0
4197 4122 4196 0
4124 4122 4197 0
4192 4191 4198 0
4125 4199 4198 0
4121 4125 4198 0
4191 4121 4198 0
4199 4125 4200 0
4200 4125 4127 0
4201 4128 4197 0
4197 4128 4124 0
4202 4128 4201 0
4129 4128 4202 0
4203 4129 4202 0
4131 4129 4203 0
4200 4132 4204 0
4127 4132 4200 0
4204 4132 4205 0
4205 4132 4134 0
4206 4135 4203 0
4203 4135 4131 0
4136 4135 4206 0
4207 4136 4206 0
4208 4207 4206 0
4137 4207 4209 0
4136 4207 4137 0
4137 4209 4139 0
4205 4141 4210 0
4134 4141 4205 0
4210 4141 4211 0
4211 4141 4143 0
4212 4207 4208 0
4212 4213 4207 0
4207 4213 4209 0
4213 4139 4209 0
4213 4215 4139 0
4215 4144 4139 0
4214 4144 4215 0
4145 4214 4216 0
4144 4214 4145 0
4145 4216 4147 0
4211 4148 4217 0
4143 4148 4211 0
4217 4148 4218 0
4218 4148 4150 0
4219 4214 4215 0
4219 4220 4214 0
4214 4220 4216 0
4220 4147 4216 0
4220 4222 4147 0
4222 4151 4147 0
4221 4151 4222 0
4151 4221 4153 0
4218 4154 4223 0
4150 4154 4218 0
4223 4154 4224 0
4224 4154 4156 0
4225 4221 4222 0
4225 4153 4221 0
4225 4227 4153 0
4227 4157 4153 0
4226 4157 4227 0
4158 4226 4228 0
4157 4226 4158 0
4158 4228 4159 0
4230 4224 4156 0
4229 4230 4156 0
4160 4229 4156 0
4161 4229 4160 0
4231 4226 4227 0
4232 4228 4226 0
4232 4226 4231 0
4232 4231 4233 0
4228 4162 4159 0
4232 4162 4228 0
4230 4229 4234 0
4161 4163 4235 0
4161 4235 4234 0
4161 4234 4229 0
4236 4232 4233 0
4237 4164 4162 0
4236 4237 4162 0
4232 4236 4162 0
4239 4235 4163 0
4238 4239 4163 0
4165 4238 4163 0
4166 4238 4165 0
4167 4237 4240 0
4164 4237 4167 0
4239 4238 4241 0
4166 4168 4242 0
4166 4242 4241 0
4166 4241 4238 0
4169 4240 4243 0
4167 4240 4169 0
4168 4244 4242 0
4170 4244 4168 0
4171 4243 4245 0
4169 4243 4171 0
4170 4246 4244 0
4172 4246 4170 0
4173 4245 4247 0
4171 4245 4173 0
4249 4246 4172 0
4248 4249 4172 0
4174 4248 4172 0
4175 4248 4174 0
4251 4250 4252 0
4176 4173 4247 0
4250 4176 4247 0
4252 4250 4247 0
4249 4248 4253 0
4175 4177 4254 0
4175 4254 4253 0
4175 4253 4248 0
4251 4255 4179 0
4251 4179 4180 0
4251 4180 4250 0
4180 4176 4250 0
4177 4256 4254 0
4181 4256 4177 0
4258 4257 4259 0
4182 4179 4255 0
4257 4182 4255 0
4259 4257 4255 0
4181 4260 4256 0
4183 4260 4181 0
4258 4261 4184 0
4258 4184 4185 0
4258 4185 4257 0
4185 4182 4257 0
4260 4186 4262 0
4183 4186 4260 0
4262 4187 4263 0
4186 4187 4262 0
4263 4188 4264 0
4187 4188 4263 0
4184 4264 4188 0
4261 4264 4184 0
4266 4192 4265 0
4193 4192 4266 0
4267 4193 4266 0
4194 4193 4267 0
4268 4194 4267 0
4195 4194 4268 0
4196 4195 4268 0
4269 4196 4268 0
4270 4269 4268 0
4196 4269 4197 0
4272 4265 4192 0
4271 4272 4192 0
4198 4271 4192 0
4273 4271 4199 0
4199 4271 4198 0
4200 4273 4199 0
4274 4269 4270 0
4274 4197 4269 0
4274 4276 4197 0
4276 4201 4197 0
4275 4201 4276 0
4202 4275 4277 0
4201 4275 4202 0
4202 4277 4203 0
4272 4271 4278 0
4271 4279 4278 0
4273 4279 4271 0
4279 4280 4281 0
4279 4273 4280 0
4273 4204 4280 0
4200 4204 4273 0
4205 4280 4204 0
4282 4275 4276 0
4282 4283 4275 0
4275 4283 4277 0
4283 4203 4277 0
4283 4285 4203 0
4285 4206 4203 0
4284 4206 4285 0
4206 4284 4208 0
4281 4280 4286 0
4286 4287 4288 0
4286 4280 4287 0
4280 4210 4287 0
4205 4210 4280 0
4211 4287 4210 0
4289 4284 4285 0
4289 4208 4284 0
4289 4291 4208 0
4291 4212 4208 0
4290 4212 4291 0
4213 4290 4292 0
4212 4290 4213 0
4213 4292 4215 0
4288 4287 4293 0
4293 4294 4295 0
4293 4287 4294 0
4287 4217 4294 0
4211 4217 4287 0
4218 4294 4217 0
4296 4290 4291 0
4296 4297 4290 0
4290 4297 4292 0
4297 4215 4292 0
4297 4299 4215 0
4299 4219 4215 0
4298 4219 4299 0
4220 4298 4300 0
4219 4298 4220 0
4220 4300 4222 0
4295 4294 4301 0
4301 4302 4303 0
4301 4294 4302 0
4294 4223 4302 0
4218 4223 4294 0
4224 4302 4223 0
4304 4298 4299 0
4304 4305 4298 0
4298 4305 4300 0
4305 4306 4225 0
4305 4225 4222 0
4305 4222 4300 0
4307 4225 4306 0
4227 4225 4307 0
4303 4302 4308 0
4224 4230 4309 0
4224 4309 4308 0
4224 4308 4302 0
4227 4307 4311 0
4227 4311 4310 0
4227 4310 4231 0
4231 4310 4233 0
4309 4234 4312 0
4230 4234 4309 0
4312 4234 4313 0
4313 4234 4235 0
4314 4310 4311 0
4314 4233 4310 0
4314 4316 4233 0
4316 4236 4233 0
4315 4236 4316 0
4236 4315 4237 0
4235 4317 4313 0
4239 4317 4235 0
4316 4319 4315 0
4315 4319 4318 0
4315 4240 4237 0
4318 4240 4315 0
4321 4317 4239 0
4320 4321 4239 0
4241 4320 4239 0
4242 4320 4241 0
4319 4323 4318 0
4318 4323 4322 0
4318 4243 4240 0
4322 4243 4318 0
4321 4320 4324 0
4242 4244 4325 0
4242 4325 4324 0
4242 4324 4320 0
4323 4327 4322 0
4322 4327 4326 0
4322 4245 4243 0
4326 4245 4322 0
4244 4328 4325 0
4246 4328 4244 0
4327 4330 4326 0
4326 4330 4329 0
4326 4247 4245 0
4329 4247 4326 0
4246 4331 4328 0
4249 4331 4246 0
4330 4332 4251 0
4330 4251 4252 0
4330 4252 4329 0
4252 4247 4329 0
4334 4331 4249 0
4333 4334 4249 0
4253 4333 4249 0
4254 4333 4253 0
4336 4335 4337 0
4255 4251 4332 0
4335 4255 4332 0
4337 4335 4332 0
4334 4333 4338 0
4254 4256 4339 0
4254 4339 4338 0
4254 4338 4333 0
4341 4340 4342 0
4340 4336 4342 0
4340 4258 4336 0
4258 4335 4336 0
4259 4335 4258 0
4259 4255 4335 0
4256 4343 4339 0
4260 4343 4256 0
4341 4345 4340 0
4340 4345 4344 0
4340 4261 4258 0
4344 4261 4340 0
4343 4262 4346 0
4260 4262 4343 0
4346 4263 4347 0
4262 4263 4346 0
4347 4263 4264 0
4345 4347 4264 0
4344 4345 4264 0
4264 4261 4344 0
4266 4265 4348 0
4267 4348 4349 0
4266 4348 4267 0
4268 4349 4350 0
4267 4349 4268 0
4268 4350 4270 0
4265 4272 4351 0
4348 4265 4351 0
4352 4348 4351 0
4352 4353 4348 0
4348 4353 4349 0
4353 4354 4349 0
4349 4354 4350 0
4354 4270 4350 0
4354 4356 4270 0
4356 4274 4270 0
4355 4274 4356 0
4274 4355 4276 0
4351 4278 4357 0
4272 4278 4351 0
4357 4278 4279 0
4357 4279 4358 0
4357 4358 4359 0
4281 4358 4279 0
4360 4355 4356 0
4360 4361 4282 0
4360 4282 4276 0
4360 4276 4355 0
4283 4282 4361 0
4362 4283 4361 0
4363 4362 4361 0
4283 4362 4285 0
4359 4358 4364 0
4364 4365 4366 0
4364 4358 4365 0
4358 4286 4365 0
4281 4286 4358 0
4288 4365 4286 0
4367 4362 4363 0
4367 4285 4362 0
4367 4369 4285 0
4369 4289 4285 0
4368 4289 4369 0
4289 4368 4291 0
4366 4365 4370 0
4370 4371 4372 0
4370 4365 4371 0
4365 4293 4371 0
4288 4293 4365 0
4295 4371 4293 0
4373 4368 4369 0
4373 4374 4296 0
4373 4296 4291 0
4373 4291 4368 0
4297 4296 4374 0
4375 4297 4374 0
4376 4375 4374 0
4297 4375 4299 0
4372 4371 4377 0
4377 4378 4379 0
4377 4371 4378 0
4371 4301 4378 0
4295 4301 4371 0
4303 4378 4301 0
4380 4375 4376 0
4380 4381 4304 0
4380 4304 4299 0
4380 4299 4375 0
4305 4304 4381 0
4382 4305 4381 0
4383 4382 4381 0
4306 4382 4384 0
4305 4382 4306 0
4306 4384 4307 0
4379 4378 4385 0
4385 4386 4387 0
4385 4378 4386 0
4378 4308 4386 0
4303 4308 4378 0
4309 4386 4308 0
4388 4382 4383 0
4389 4384 4382 0
4389 4382 4388 0
4389 4388 4390 0
4384 4311 4307 0
4389 4311 4384 0
4387 4386 4391 0
4391 4392 4393 0
4391 4386 4392 0
4386 4312 4392 0
4309 4312 4386 0
4313 4392 4312 0
4394 4389 4390 0
4394 4311 4389 0
4394 4396 4311 0
4396 4314 4311 0
4395 4314 4396 0
4314 4395 4316 0
4392 4398 4393 0
4397 4398 4392 0
4313 4317 4392 0
4392 4317 4397 0
4396 4400 4395 0
4395 4400 4399 0
4395 4319 4316 0
4399 4319 4395 0
4398 4397 4401 0
4317 4321 4402 0
4317 4402 4401 0
4317 4401 4397 0
4400 4404 4399 0
4399 4404 4403 0
4399 4323 4319 0
4403 4323 4399 0
4406 4402 4321 0
4405 4406 4321 0
4324 4405 4321 0
4325 4405 4324 0
4404 4408 4403 0
4403 4408 4407 0
4403 4327 4323 0
4407 4327 4403 0
4406 4405 4409 0
4325 4328 4410 0
4325 4410 4409 0
4325 4409 4405 0
4408 4412 4407 0
4407 4412 4411 0
4407 4330 4327 0
4411 4330 4407 0
4328 4413 4410 0
4331 4413 4328 0
4412 4415 4411 0
4411 4415 4414 0
4411 4332 4330 0
4414 4332 4411 0
4331 4416 4413 0
4334 4416 4331 0
4418 4417 4419 0
4417 4415 4419 0
4417 4336 4415 0
4336 4414 4415 0
4337 4414 4336 0
4337 4332 4414 0
4421 4416 4334 0
4420 4421 4334 0
4338 4420 4334 0
4339 4420 4338 0
4423 4422 4424 0
4422 4418 4424 0
4422 4341 4418 0
4341 4417 4418 0
4342 4417 4341 0
4342 4336 4417 0
4420 4426 4421 0
4425 4426 4420 0
4339 4343 4420 0
4420 4343 4425 0
4423 4428 4422 0
4422 4428 4427 0
4422 4345 4341 0
4427 4345 4422 0
4426 4425 4429 0
4346 4430 4429 0
4343 4346 4429 0
4425 4343 4429 0
4430 4346 4347 0
4428 4430 4347 0
4427 4428 4347 0
4347 4345 4427 0
4432 4351 4431 0
4352 4351 4432 0
4433 4352 4432 0
4353 4352 4433 0
4354 4353 4433 0
4434 4354 4433 0
4435 4434 4433 0
4354 4434 4356 0
4437 4431 4351 0
4436 4437 4351 0
4357 4436 4351 0
4359 4436 4357 0
4438 4434 4435 0
4438 4439 4360 0
4438 4360 4356 0
4438 4356 4434 0
4361 4360 4439 0
4440 4361 4439 0
4441 4440 4439 0
4361 4440 4363 0
4437 4436 4442 0
4442 4443 4444 0
4442 4436 4443 0
4436 4364 4443 0
4359 4364 4436 0
4366 4443 4364 0
4445 4440 4441 0
4445 4363 4440 0
4445 4447 4363 0
4447 4367 4363 0
4446 4367 4447 0
4367 4446 4369 0
4444 4443 4448 0
4448 4449 4450 0
4448 4443 4449 0
4443 4370 4449 0
4366 4370 4443 0
4372 4449 4370 0
4451 4446 4447 0
4451 4452 4373 0
4451 4373 4369 0
4451 4369 4446 0
4374 4373 4452 0
4453 4374 4452 0
4454 4453 4452 0
4374 4453 4376 0
4450 4449 4455 0
4377 4456 4455 0
4372 4377 4455 0
4449 4372 4455 0
4456 4377 4457 0
4457 4377 4379 0
4458 4453 4454 0
4458 4376 4453 0
4458 4460 4376 0
4460 4380 4376 0
4459 4380 4460 0
4381 4459 4461 0
4380 4459 4381 0
4381 4461 4383 0
4457 4385 4462 0
4379 4385 4457 0
4462 4385 4463 0
4463 4385 4387 0
4464 4459 4460 0
4465 4461 4459 0
4465 4459 4464 0
4465 4464 4466 0
4461 4465 4467 0
4383 4461 4467 0
4388 4383 4467 0
4388 4467 4390 0
4469 4463 4387 0
4468 4469 4387 0
4391 4468 4387 0
4393 4468 4391 0
4470 4465 4466 0
4470 4471 4465 0
4465 4471 4467 0
4471 4390 4467 0
4471 4473 4390 0
4473 4394 4390 0
4472 4394 4473 0
4394 4472 4396 0
4469 4468 4474 0
4393 4398 4475 0
4393 4475 4474 0
4393 4474 4468 0
4476 4472 4473 0
4477 4400 4396 0
4476 4477 4396 0
4472 4476 4396 0
4475 4401 4478 0
4398 4401 4475 0
4478 4401 4479 0
4479 4401 4402 0
4404 4477 4480 0
4400 4477 4404 0
4402 4481 4479 0
4406 4481 4402 0
4483 4482 4484 0
4408 4404 4480 0
4482 4408 4480 0
4484 4482 4480 0
4486 4481 4406 0
4485 4486 4406 0
4409 4485 4406 0
4410 4485 4409 0
4483 4488 4482 0
4482 4488 4487 0
4482 4412 4408 0
4487 4412 4482 0
4485 4490 4486 0
4489 4490 4485 0
4410 4413 4485 0
4485 4413 4489 0
4492 4491 4493 0
4491 4494 4487 0
4491 4487 4488 0
4491 4488 4493 0
4487 4415 4412 0
4494 4415 4487 0
4490 4489 4495 0
4413 4416 4496 0
4413 4496 4495 0
4413 4495 4489 0
4492 4498 4491 0
4491 4498 4497 0
4494 4491 4497 0
4419 4494 4497 0
4418 4419 4497 0
4419 4415 4494 0
4416 4499 4496 0
4421 4499 4416 0
4498 4500 4423 0
4498 4423 4424 0
4498 4424 4497 0
4424 4418 4497 0
4421 4501 4499 0
4426 4501 4421 0
4503 4502 4504 0
4428 4423 4500 0
4502 4428 4500 0
4504 4502 4500 0
4501 4429 4505 0
4426 4429 4501 0
4505 4429 4430 0
4503 4505 4430 0
4502 4503 4430 0
4430 4428 4502 0
4507 4431 4506 0
4432 4431 4507 0
4433 4432 4507 0
4508 4433 4507 0
4509 4508 4507 0
4433 4508 4435 0
4512 4510 4511 0
4506 4431 4437 0
4506 4437 4510 0
4506 4510 4512 0
4513 4508 4509 0
4513 4435 4508 0
4513 4515 4435 0
4515 4438 4435 0
4514 4438 4515 0
4439 4514 4516 0
4438 4514 4439 0
4439 4516 4441 0
4510 4518 4511 0
4517 4518 4510 0
4519 4517 4510 0
4519 4510 4437 0
4519 4437 4442 0
4444 4519 4442 0
4520 4514 4515 0
4520 4521 4514 0
4514 4521 4516 0
4521 4441 4516 0
4521 4523 4441 0
4523 4445 4441 0
4522 4445 4523 0
4445 4522 4447 0
4518 4517 4524 0
4517 4525 4524 0
4519 4525 4517 0
4525 4526 4527 0
4525 4519 4526 0
4519 4448 4526 0
4444 4448 4519 0
4450 4526 4448 0
4528 4522 4523 0
4528 4447 4522 0
4528 4530 4447 0
4530 4451 4447 0
4529 4451 4530 0
4452 4529 4531 0
4451 4529 4452 0
4452 4531 4454 0
4527 4526 4532 0
4455 4533 4532 0
4450 4455 4532 0
4526 4450 4532 0
4533 4455 4456 0
4533 4456 4534 0
4533 4534 4535 0
4457 4534 4456 0
4536 4529 4530 0
4536 4537 4529 0
4529 4537 4531 0
4537 4454 4531 0
4537 4539 4454 0
4539 4458 4454 0
4538 4458 4539 0
4458 4538 4460 0
4535 4534 4540 0
4540 4541 4542 0
4540 4534 4541 0
4534 4462 4541 0
4457 4462 4534 0
4463 4541 4462 0
4543 4538 4539 0
4543 4460 4538 0
4543 4545 4460 0
4545 4464 4460 0
4544 4464 4545 0
4464 4544 4466 0
4541 4547 4542 0
4546 4547 4541 0
4463 4469 4541 0
4541 4469 4546 0
4548 4544 4545 0
4548 4466 4544 0
4548 4550 4466 0
4550 4470 4466 0
4549 4470 4550 0
4471 4549 4551 0
4470 4549 4471 0
4471 4551 4473 0
4547 4546 4552 0
4552 4553 4554 0
4552 4546 4553 0
4546 4474 4553 0
4469 4474 4546 0
4475 4553 4474 0
4555 4549 4550 0
4556 4551 4549 0
4556 4549 4555 0
4556 4555 4557 0
4551 4556 4558 0
4473 4551 4558 0
4476 4473 4558 0
4476 4558 4477 0
4554 4553 4559 0
4559 4560 4561 0
4559 4553 4560 0
4553 4478 4560 0
4475 4478 4553 0
4479 4560 4478 0
4557 4563 4556 0
4556 4563 4562 0
4562 4558 4556 0
4564 4558 4562 0
4558 4480 4477 0
4564 4480 4558 0
4560 4566 4561 0
4565 4566 4560 0
4479 4481 4560 0
4560 4481 4565 0
4563 4568 4562 0
4562 4568 4567 0
4564 4562 4567 0
4484 4564 4567 0
4483 4484 4567 0
4484 4480 4564 0
4566 4565 4569 0
4481 4486 4570 0
4481 4570 4569 0
4481 4569 4565 0
4568 4572 4567 0
4567 4572 4571 0
4567 4488 4483 0
4571 4488 4567 0
4486 4573 4570 0
4490 4573 4486 0
4575 4574 4576 0
4574 4572 4576 0
4574 4492 4572 0
4492 4571 4572 0
4493 4571 4492 0
4493 4488 4571 0
4578 4573 4490 0
4577 4578 4490 0
4495 4577 4490 0
4496 4577 4495 0
4575 4580 4574 0
4574 4580 4579 0
4574 4498 4492 0
4579 4498 4574 0
4578 4577 4581 0
4496 4499 4582 0
4496 4582 4581 0
4496 4581 4577 0
4580 4584 4579 0
4579 4584 4583 0
4579 4500 4498 0
4583 4500 4579 0
4582 4499 4501 0
4586 4582 4501 0
4585 4586 4501 0
4585 4584 4586 0
4585 4503 4584 0
4503 4583 4584 0
4504 4583 4503 0
4504 4500 4583 0
4585 4501 4505 0
4505 4503 4585 0
4507 4506 4587 0
4507 4587 4509 0
4589 4511 4588 0
4512 4511 4589 0
4512 4589 4590 0
4512 4590 4587 0
4512 4587 4506 0
4590 4509 4587 0
4590 4592 4509 0
4592 4513 4509 0
4591 4513 4592 0
4513 4591 4515 0
4511 4593 4588 0
4518 4593 4511 0
4594 4591 4592 0
4594 4595 4520 0
4594 4520 4515 0
4594 4515 4591 0
4521 4520 4595 0
4596 4521 4595 0
4597 4596 4595 0
4521 4596 4523 0
4593 4524 4598 0
4518 4524 4593 0
4598 4524 4525 0
4598 4525 4599 0
4598 4599 4600 0
4527 4599 4525 0
4601 4596 4597 0
4601 4523 4596 0
4601 4603 4523 0
4603 4528 4523 0
4602 4528 4603 0
4528 4602 4530 0
4600 4599 4604 0
4604 4605 4606 0
4604 4599 4605 0
4599 4532 4605 0
4527 4532 4599 0
4607 4605 4533 0
4533 4605 4532 0
4535 4607 4533 0
4608 4602 4603 0
4608 4609 4536 0
4608 4536 4530 0
4608 4530 4602 0
4537 4536 4609 0
4610 4537 4609 0
4611 4610 4609 0
4537 4610 4539 0
4606 4605 4612 0
4605 4607 4613 0
4612 4605 4613 0
4614 4612 4613 0
4615 4613 4607 0
4615 4607 4535 0
4615 4535 4540 0
4542 4615 4540 0
4616 4610 4611 0
4616 4539 4610 0
4616 4618 4539 0
4618 4543 4539 0
4617 4543 4618 0
4543 4617 4545 0
4614 4613 4619 0
4613 4615 4620 0
4619 4613 4620 0
4621 4619 4620 0
4542 4547 4615 0
4615 4547 4620 0
4622 4617 4618 0
4622 4545 4617 0
4622 4624 4545 0
4624 4548 4545 0
4623 4548 4624 0
4548 4623 4550 0
4620 4626 4621 0
4625 4626 4620 0
4627 4625 4620 0
4627 4620 4547 0
4627 4547 4552 0
4554 4627 4552 0
4628 4623 4624 0
4628 4550 4623 0
4628 4630 4550 0
4630 4555 4550 0
4629 4555 4630 0
4555 4629 4557 0
4626 4625 4631 0
4625 4627 4632 0
4631 4625 4632 0
4633 4631 4632 0
4634 4632 4627 0
4634 4627 4554 0
4634 4554 4559 0
4561 4634 4559 0
4630 4636 4629 0
4629 4636 4635 0
4629 4563 4557 0
4635 4563 4629 0
4633 4632 4637 0
4632 4634 4638 0
4637 4632 4638 0
4639 4637 4638 0
4561 4566 4634 0
4634 4566 4638 0
4636 4641 4635 0
4635 4641 4640 0
4635 4568 4563 0
4640 4568 4635 0
4639 4638 4642 0
4642 4643 4644 0
4642 4638 4643 0
4638 4569 4643 0
4566 4569 4638 0
4570 4643 4569 0
4646 4645 4647 0
4645 4648 4640 0
4645 4640 4641 0
4645 4641 4647 0
4640 4572 4568 0
4648 4572 4640 0
4643 4650 4644 0
4649 4650 4643 0
4570 4573 4643 0
4643 4573 4649 0
4646 4652 4645 0
4645 4652 4651 0
4648 4645 4651 0
4576 4648 4651 0
4575 4576 4651 0
4576 4572 4648 0
4649 4654 4650 0
4653 4654 4649 0
4573 4578 4649 0
4649 4578 4653 0
4652 4656 4651 0
4651 4656 4655 0
4651 4580 4575 0
4655 4580 4651 0
4654 4653 4657 0
4581 4658 4657 0
4578 4581 4657 0
4653 4578 4657 0
4581 4656 4658 0
4581 4655 4656 0
4582 4655 4581 0
4659 4655 4582 0
4655 4584 4580 0
4659 4584 4655 0
4659 4582 4586 0
4586 4584 4659 0
4661 4588 4660 0
4589 4588 4661 0
4662 4589 4661 0
4590 4589 4662 0
4663 4590 4662 0
4592 4590 4663 0
4588 4664 4660 0
4593 4664 4588 0
4665 4594 4663 0
4663 4594 4592 0
4595 4594 4665 0
4666 4595 4665 0
4667 4666 4665 0
4595 4666 4597 0
4669 4664 4593 0
4668 4669 4593 0
4598 4668 4593 0
4600 4668 4598 0
4670 4666 4667 0
4670 4597 4666 0
4670 4672 4597 0
4672 4601 4597 0
4671 4601 4672 0
4601 4671 4603 0
4668 4674 4669 0
4673 4674 4668 0
4675 4673 4668 0
4675 4668 4600 0
4675 4600 4604 0
4606 4675 4604 0
4676 4671 4672 0
4676 4677 4608 0
4676 4608 4603 0
4676 4603 4671 0
4609 4608 4677 0
4678 4609 4677 0
4679 4678 4677 0
4609 4678 4611 0
4674 4673 4680 0
4673 4675 4681 0
4680 4673 4681 0
4682 4680 4681 0
4683 4681 4675 0
4683 4675 4606 0
4683 4606 4612 0
4614 4683 4612 0
4684 4678 4679 0
4684 4611 4678 0
4684 4686 4611 0
4686 4616 4611 0
4685 4616 4686 0
4616 4685 4618 0
4682 4681 4687 0
4681 4688 4687 0
4683 4688 4681 0
4688 4689 4690 0
4688 4683 4689 0
4683 4619 4689 0
4614 4619 4683 0
4621 4689 4619 0
4691 4685 4686 0
4691 4618 4685 0
4691 4693 4618 0
4693 4622 4618 0
4692 4622 4693 0
4622 4692 4624 0
4690 4689 4694 0
4621 4626 4695 0
4621 4695 4694 0
4621 4694 4689 0
4696 4692 4693 0
4696 4624 4692 0
4696 4698 4624 0
4698 4628 4624 0
4697 4628 4698 0
4628 4697 4630 0
4695 4631 4699 0
4626 4631 4695 0
4699 4631 4700 0
4700 4631 4633 0
4698 4702 4697 0
4697 4702 4701 0
4697 4636 4630 0
4701 4636 4697 0
4704 4700 4633 0
4703 4704 4633 0
4637 4703 4633 0
4639 4703 4637 0
4702 4706 4701 0
4701 4706 4705 0
4701 4641 4636 0
4705 4641 4701 0
4704 4703 4707 0
4707 4708 4709 0
4707 4703 4708 0
4703 4642 4708 0
4639 4642 4703 0
4644 4708 4642 0
4706 4710 4646 0
4706 4646 4647 0
4706 4647 4705 0
4647 4641 4705 0
4708 4712 4709 0
4711 4712 4708 0
4644 4650 4708 0
4708 4650 4711 0
4714 4713 4715 0
4652 4646 4710 0
4713 4652 4710 0
4715 4713 4710 0
4711 4717 4712 0
4716 4717 4711 0
4650 4654 4711 0
4711 4654 4716 0
4714 4719 4713 0
4713 4719 4718 0
4713 4656 4652 0
4718 4656 4713 0
4717 4716 4720 0
4657 4721 4720 0
4654 4657 4720 0
4716 4654 4720 0
4721 4657 4658 0
4719 4721 4658 0
4718 4719 4658 0
4658 4656 4718 0
4661 4660 4722 0
4662 4722 4723 0
4661 4722 4662 0
4662 4723 4663 0
4660 4664 4724 0
4722 4660 4724 0
4725 4722 4724 0
4725 4726 4722 0
4722 4726 4723 0
4726 4663 4723 0
4726 4728 4663 0
4728 4665 4663 0
4727 4665 4728 0
4665 4727 4667 0
4731 4729 4730 0
4724 4664 4669 0
4724 4669 4729 0
4724 4729 4731 0
4732 4727 4728 0
4732 4667 4727 0
4732 4734 4667 0
4734 4670 4667 0
4733 4670 4734 0
4670 4733 4672 0
4729 4736 4730 0
4735 4736 4729 0
4669 4674 4729 0
4729 4674 4735 0
4737 4733 4734 0
4737 4672 4733 0
4737 4739 4672 0
4739 4676 4672 0
4738 4676 4739 0
4677 4738 4740 0
4676 4738 4677 0
4677 4740 4679 0
4736 4735 4741 0
4741 4742 4743 0
4741 4735 4742 0
4735 4680 4742 0
4674 4680 4735 0
4682 4742 4680 0
4744 4738 4739 0
4744 4745 4738 0
4738 4745 4740 0
4745 4679 4740 0
4745 4747 4679 0
4747 4684 4679 0
4746 4684 4747 0
4684 4746 4686 0
4743 4742 4748 0
4687 4749 4748 0
4682 4687 4748 0
4742 4682 4748 0
4749 4687 4688 0
4749 4688 4750 0
4749 4750 4751 0
4690 4750 4688 0
4752 4746 4747 0
4752 4686 4746 0
4752 4754 4686 0
4754 4691 4686 0
4753 4691 4754 0
4691 4753 4693 0
4751 4750 4755 0
4755 4756 4757 0
4755 4750 4756 0
4750 4694 4756 0
4690 4694 4750 0
4695 4756 4694 0
4754 4759 4753 0
4753 4759 4758 0
4753 4758 4760 0
4693 4753 4760 0
4696 4693 4760 0
4696 4760 4698 0
4757 4756 4761 0
4761 4762 4763 0
4761 4756 4762 0
4756 4699 4762 0
4695 4699 4756 0
4700 4762 4699 0
4759 4765 4758 0
4758 4765 4764 0
4764 4760 4758 0
4766 4760 4764 0
4760 4702 4698 0
4766 4702 4760 0
4762 4768 4763 0
4767 4768 4762 0
4700 4704 4762 0
4762 4704 4767 0
4765 4770 4764 0
4764 4770 4769 0
4769 4766 4764 0
4771 4766 4769 0
4766 4706 4702 0
4771 4706 4766 0
4768 4767 4772 0
4772 4773 4774 0
4772 4767 4773 0
4767 4707 4773 0
4704 4707 4767 0
4709 4773 4707 0
4770 4776 4769 0
4769 4776 4775 0
4775 4771 4769 0
4777 4771 4775 0
4771 4710 4706 0
4777 4710 4771 0
4773 4779 4774 0
4778 4779 4773 0
4709 4712 4773 0
4773 4712 4778 0
4776 4781 4775 0
4775 4781 4780 0
4777 4775 4780 0
4715 4777 4780 0
4714 4715 4780 0
4715 4710 4777 0
4778 4783 4779 0
4782 4783 4778 0
4712 4717 4778 0
4778 4717 4782 0
4781 4785 4780 0
4780 4785 4784 0
4780 4719 4714 0
4784 4719 4780 0
4783 4782 4786 0
4720 4787 4786 0
4717 4720 4786 0
4782 4717 4786 0
4787 4720 4721 0
4785 4787 4721 0
4784 4785 4721 0
4721 4719 4784 0
4725 4724 4788 0
4726 4788 4789 0
4725 4788 4726 0
4726 4789 4728 0
4731 4730 4790 0
4788 4791 4792 0
4788 4724 4791 0
4724 4790 4791 0
4731 4790 4724 0
4792 4793 4788 0
4788 4793 4789 0
4793 4728 4789 0
4793 4795 4728 0
4795 4732 4728 0
4794 4732 4795 0
4732 4794 4734 0
4730 4736 4796 0
4790 4730 4796 0
4797 4790 4796 0
4797 4791 4790 0
4798 4794 4795 0
4798 4734 4794 0
4798 4800 4734 0
4800 4737 4734 0
4799 4737 4800 0
4737 4799 4739 0
4802 4796 4736 0
4801 4802 4736 0
4741 4801 4736 0
4743 4801 4741 0
4803 4799 4800 0
4803 4739 4799 0
4803 4805 4739 0
4805 4744 4739 0
4804 4744 4805 0
4745 4804 4806 0
4744 4804 4745 0
4745 4806 4747 0
4801 4808 4802 0
4807 4808 4801 0
4809 4807 4801 0
4809 4801 4743 0
4809 4743 4748 0
4810 4809 4749 0
4749 4809 4748 0
4751 4810 4749 0
4811 4804 4805 0
4812 4806 4804 0
4812 4804 4811 0
4812 4811 4813 0
4806 4812 4814 0
4747 4806 4814 0
4752 4747 4814 0
4752 4814 4754 0
4808 4807 4815 0
4807 4816 4815 0
4809 4816 4807 0
4809 4810 4817 0
4816 4809 4817 0
4818 4816 4817 0
4819 4817 4810 0
4819 4810 4751 0
4819 4751 4755 0
4757 4819 4755 0
4813 4821 4812 0
4812 4821 4820 0
4820 4814 4812 0
4822 4814 4820 0
4814 4759 4754 0
4822 4759 4814 0
4818 4817 4823 0
4817 4819 4824 0
4823 4817 4824 0
4825 4823 4824 0
4826 4824 4819 0
4826 4819 4757 0
4826 4757 4761 0
4763 4826 4761 0
4827 4820 4821 0
4828 4822 4820 0
4828 4820 4827 0
4828 4827 4829 0
4822 4765 4759 0
4828 4765 4822 0
4825 4824 4830 0
4824 4826 4831 0
4830 4824 4831 0
4832 4830 4831 0
4763 4768 4826 0
4826 4768 4831 0
4829 4834 4828 0
4828 4834 4833 0
4828 4770 4765 0
4833 4770 4828 0
4832 4831 4835 0
4835 4836 4837 0
4835 4831 4836 0
4831 4772 4836 0
4768 4772 4831 0
4774 4836 4772 0
4834 4839 4833 0
4833 4839 4838 0
4833 4776 4770 0
4838 4776 4833 0
4836 4841 4837 0
4840 4841 4836 0
4774 4779 4836 0
4836 4779 4840 0
4839 4843 4838 0
4838 4843 4842 0
4838 4781 4776 0
4842 4781 4838 0
4840 4845 4841 0
4844 4845 4840 0
4779 4783 4840 0
4840 4783 4844 0
4843 4847 4842 0
4842 4847 4846 0
4842 4785 4781 0
4846 4785 4842 0
4844 4849 4845 0
4848 4849 4844 0
4850 4848 4844 0
4850 4844 4783 0
4850 4783 4786 0
4847 4851 4846 0
4851 4787 4846 0
4851 4850 4787 0
4850 4786 4787 0
4787 4785 4846 0
4849 4848 4852 0
4848 4853 4852 0
4850 4853 4848 0
4850 4851 4853 0
4792 4791 4854 0
4793 4854 4855 0
4792 4854 4793 0
4793 4855 4795 0
4858 4856 4857 0
4858 4859 4797 0
4856 4858 4797 0
4796 4856 4797 0
4797 4859 4860 0
4797 4860 4854 0
4797 4854 4791 0
