#!ascii version of
3234 6468
19.000000  -23.000000  28.500000  0
18.000000  -23.000000  28.500000  0
17.000000  -23.000000  28.500000  0
16.000000  -23.000000  28.500000  0
15.000000  -23.000000  28.500000  0
14.000000  -23.500000  28.000000  0
14.000000  -23.000000  28.500000  0
13.000000  -23.500000  28.000000  0
13.000000  -23.000000  28.500000  0
12.500000  -23.000000  28.000000  0
8.500000  -23.000000  28.000000  0
8.000000  -23.000000  28.500000  0
7.000000  -23.000000  28.500000  0
6.000000  -23.000000  28.500000  0
5.000000  -23.000000  28.500000  0
4.500000  -23.000000  28.000000  0
29.500000  -23.000000  27.000000  0
12.000000  -23.000000  27.500000  0
11.000000  -23.000000  27.500000  0
10.000000  -23.000000  27.500000  0
9.000000  -23.000000  27.500000  0
4.500000  -23.000000  27.000000  0
29.500000  -23.000000  26.000000  0
4.000000  -23.000000  26.500000  0
3.000000  -23.500000  26.000000  0
3.000000  -23.000000  26.500000  0
2.500000  -23.000000  26.000000  0
29.500000  -23.000000  25.000000  0
2.500000  -23.000000  25.000000  0
29.500000  -23.000000  24.000000  0
2.500000  -23.000000  24.000000  0
31.000000  -23.500000  23.000000  0
31.500000  -23.000000  23.000000  0
31.000000  -23.000000  23.500000  0
30.000000  -23.500000  23.000000  0
30.000000  -23.000000  23.500000  0
24.000000  -23.500000  23.000000  0
23.000000  -23.500000  23.000000  0
22.000000  -23.500000  23.000000  0
2.500000  -23.000000  23.000000  0
31.000000  -23.000000  22.500000  0
30.000000  -23.000000  22.500000  0
29.000000  -23.000000  22.500000  0
28.000000  -23.000000  22.500000  0
27.000000  -23.000000  22.500000  0
26.000000  -23.000000  22.500000  0
25.000000  -23.000000  22.500000  0
24.000000  -23.000000  22.500000  0
23.000000  -23.000000  22.500000  0
22.000000  -23.000000  22.500000  0
21.000000  -23.000000  22.500000  0
20.000000  -23.500000  22.000000  0
20.000000  -23.000000  22.500000  0
19.000000  -23.500000  22.000000  0
19.000000  -23.000000  22.500000  0
18.000000  -23.500000  22.000000  0
18.000000  -23.000000  22.500000  0
17.000000  -23.500000  22.000000  0
17.000000  -23.000000  22.500000  0
16.000000  -23.500000  22.000000  0
16.000000  -23.000000  22.500000  0
15.500000  -23.000000  22.000000  0
2.500000  -23.000000  22.000000  0
15.500000  -23.000000  21.000000  0
2.500000  -23.000000  21.000000  0
15.000000  -23.000000  20.500000  0
14.000000  -23.000000  20.500000  0
13.000000  -23.000000  20.500000  0
12.000000  -23.000000  20.500000  0
11.000000  -23.000000  20.500000  0
10.000000  -23.000000  20.500000  0
9.000000  -23.000000  20.500000  0
8.000000  -23.000000  20.500000  0
7.000000  -23.500000  20.000000  0
7.500000  -23.000000  20.000000  0
6.000000  -23.500000  20.000000  0
5.000000  -23.500000  20.000000  0
4.000000  -23.500000  20.000000  0
3.000000  -23.500000  20.000000  0
2.500000  -23.000000  20.000000  0
7.000000  -23.000000  19.500000  0
6.000000  -23.000000  19.500000  0
5.000000  -23.500000  19.000000  0
5.500000  -23.000000  19.000000  0
4.000000  -23.500000  19.000000  0
3.000000  -23.500000  19.000000  0
2.500000  -23.000000  19.000000  0
5.000000  -23.000000  18.500000  0
4.000000  -23.000000  18.500000  0
3.000000  -23.000000  18.500000  0
25.000000  -22.500000  30.000000  0
24.000000  -22.500000  30.000000  0
23.000000  -22.500000  30.000000  0
22.000000  -22.500000  30.000000  0
25.000000  -22.500000  29.000000  0
24.000000  -22.500000  29.000000  0
23.000000  -22.500000  29.000000  0
22.000000  -22.500000  29.000000  0
5.000000  -22.500000  29.000000  0
5.500000  -22.000000  29.000000  0
5.000000  -22.000000  29.500000  0
4.500000  -22.000000  29.000000  0
29.000000  -22.500000  28.000000  0
28.000000  -22.500000  28.000000  0
27.000000  -22.500000  28.000000  0
26.000000  -22.500000  28.000000  0
25.000000  -22.500000  28.000000  0
24.000000  -22.500000  28.000000  0
23.000000  -22.500000  28.000000  0
22.000000  -22.500000  28.000000  0
21.000000  -22.500000  28.000000  0
20.000000  -22.500000  28.000000  0
19.000000  -22.500000  28.000000  0
18.500000  -22.000000  28.000000  0
18.000000  -22.000000  28.500000  0
17.000000  -22.000000  28.500000  0
16.000000  -22.000000  28.500000  0
15.000000  -22.000000  28.500000  0
14.000000  -22.000000  28.500000  0
13.000000  -22.000000  28.500000  0
12.000000  -22.500000  28.000000  0
12.000000  -22.000000  28.500000  0
11.500000  -22.000000  28.000000  0
8.500000  -22.000000  28.000000  0
8.000000  -22.000000  28.500000  0
7.000000  -22.000000  28.500000  0
6.000000  -22.000000  28.500000  0
4.500000  -22.000000  28.000000  0
29.500000  -22.000000  27.000000  0
29.000000  -22.000000  27.500000  0
28.000000  -22.000000  27.500000  0
27.000000  -22.000000  27.500000  0
26.000000  -22.000000  27.500000  0
25.000000  -22.500000  27.000000  0
25.500000  -22.000000  27.000000  0
24.000000  -22.500000  27.000000  0
23.000000  -22.500000  27.000000  0
22.000000  -22.500000  27.000000  0
21.000000  -22.500000  27.000000  0
20.000000  -22.500000  27.000000  0
19.000000  -22.500000  27.000000  0
18.500000  -22.000000  27.000000  0
11.000000  -22.000000  27.500000  0
10.000000  -22.000000  27.500000  0
9.000000  -22.000000  27.500000  0
4.000000  -22.500000  27.000000  0
4.000000  -22.000000  27.500000  0
3.500000  -22.000000  27.000000  0
29.500000  -22.000000  26.000000  0
25.000000  -22.000000  26.500000  0
24.000000  -22.000000  26.500000  0
23.000000  -22.000000  26.500000  0
22.000000  -22.000000  26.500000  0
21.000000  -22.000000  26.500000  0
20.000000  -22.000000  26.500000  0
19.000000  -22.000000  26.500000  0
3.000000  -22.000000  26.500000  0
2.500000  -22.000000  26.000000  0
30.000000  -22.500000  25.000000  0
30.500000  -22.000000  25.000000  0
30.000000  -22.000000  25.500000  0
2.500000  -22.000000  25.000000  0
30.000000  -22.500000  24.000000  0
30.500000  -22.000000  24.000000  0
2.500000  -22.000000  24.000000  0
31.000000  -22.500000  23.000000  0
30.500000  -22.000000  23.000000  0
2.500000  -22.000000  23.000000  0
30.000000  -22.000000  22.500000  0
29.000000  -22.000000  22.500000  0
28.000000  -22.000000  22.500000  0
27.000000  -22.000000  22.500000  0
26.000000  -22.000000  22.500000  0
25.000000  -22.000000  22.500000  0
24.000000  -22.000000  22.500000  0
23.000000  -22.000000  22.500000  0
22.000000  -22.500000  22.000000  0
22.500000  -22.000000  22.000000  0
21.500000  -22.000000  22.000000  0
21.000000  -22.000000  22.500000  0
20.000000  -22.000000  22.500000  0
19.000000  -22.000000  22.500000  0
18.000000  -22.000000  22.500000  0
17.000000  -22.000000  22.500000  0
16.000000  -22.000000  22.500000  0
15.500000  -22.000000  22.000000  0
2.500000  -22.000000  22.000000  0
22.000000  -22.000000  21.500000  0
15.500000  -22.000000  21.000000  0
2.500000  -22.000000  21.000000  0
21.000000  -22.500000  20.000000  0
21.500000  -22.000000  20.000000  0
21.000000  -22.000000  20.500000  0
20.500000  -22.000000  20.000000  0
15.000000  -22.500000  20.000000  0
15.500000  -22.000000  20.000000  0
14.000000  -22.500000  20.000000  0
13.000000  -22.500000  20.000000  0
12.000000  -22.500000  20.000000  0
11.000000  -22.500000  20.000000  0
10.000000  -22.500000  20.000000  0
9.000000  -22.500000  20.000000  0
8.000000  -22.500000  20.000000  0
2.500000  -22.000000  20.000000  0
21.000000  -22.000000  19.500000  0
15.000000  -22.500000  19.000000  0
15.500000  -22.000000  19.000000  0
14.000000  -22.500000  19.000000  0
13.000000  -22.500000  19.000000  0
12.000000  -22.500000  19.000000  0
11.000000  -22.500000  19.000000  0
10.000000  -22.500000  19.000000  0
9.000000  -22.500000  19.000000  0
8.000000  -22.500000  19.000000  0
7.000000  -22.500000  19.000000  0
6.000000  -22.500000  19.000000  0
2.500000  -22.000000  19.000000  0
18.000000  -22.500000  18.000000  0
18.500000  -22.000000  18.000000  0
18.000000  -22.000000  18.500000  0
17.500000  -22.000000  18.000000  0
15.000000  -22.500000  18.000000  0
15.500000  -22.000000  18.000000  0
14.000000  -22.500000  18.000000  0
13.000000  -22.500000  18.000000  0
12.000000  -22.500000  18.000000  0
11.000000  -22.500000  18.000000  0
10.000000  -22.500000  18.000000  0
9.500000  -22.000000  18.000000  0
9.000000  -22.000000  18.500000  0
8.000000  -22.000000  18.500000  0
7.000000  -22.000000  18.500000  0
6.000000  -22.000000  18.500000  0
5.000000  -22.000000  18.500000  0
4.000000  -22.000000  18.500000  0
3.000000  -22.000000  18.500000  0
18.000000  -22.500000  17.000000  0
18.500000  -22.000000  17.000000  0
17.500000  -22.000000  17.000000  0
15.000000  -22.500000  17.000000  0
15.500000  -22.000000  17.000000  0
14.000000  -22.500000  17.000000  0
13.000000  -22.500000  17.000000  0
12.000000  -22.500000  17.000000  0
11.000000  -22.500000  17.000000  0
10.000000  -22.500000  17.000000  0
9.500000  -22.000000  17.000000  0
18.000000  -22.000000  16.500000  0
15.000000  -22.000000  16.500000  0
14.000000  -22.000000  16.500000  0
13.000000  -22.000000  16.500000  0
12.000000  -22.000000  16.500000  0
11.000000  -22.000000  16.500000  0
10.000000  -22.000000  16.500000  0
5.000000  -21.500000  29.000000  0
18.000000  -21.500000  28.000000  0
17.500000  -21.000000  28.000000  0
17.000000  -21.000000  28.500000  0
16.000000  -21.000000  28.500000  0
15.000000  -21.000000  28.500000  0
14.000000  -21.000000  28.500000  0
13.000000  -21.000000  28.500000  0
12.000000  -21.000000  28.500000  0
11.000000  -21.500000  28.000000  0
11.000000  -21.000000  28.500000  0
10.000000  -21.500000  28.000000  0
10.000000  -21.000000  28.500000  0
9.500000  -21.000000  28.000000  0
8.500000  -21.000000  28.000000  0
8.000000  -21.000000  28.500000  0
7.000000  -21.000000  28.500000  0
6.000000  -21.000000  28.500000  0
5.000000  -21.000000  28.500000  0
4.500000  -21.000000  28.000000  0
29.000000  -21.500000  27.000000  0
28.500000  -21.000000  27.000000  0
28.000000  -21.000000  27.500000  0
27.000000  -21.000000  27.500000  0
26.000000  -21.000000  27.500000  0
25.000000  -21.500000  27.000000  0
25.000000  -21.000000  27.500000  0
24.500000  -21.000000  27.000000  0
18.500000  -21.000000  27.000000  0
18.000000  -21.000000  27.500000  0
9.000000  -21.000000  27.500000  0
4.000000  -21.000000  27.500000  0
3.500000  -21.000000  27.000000  0
29.000000  -21.500000  26.000000  0
28.500000  -21.000000  26.000000  0
24.000000  -21.500000  26.000000  0
24.500000  -21.000000  26.000000  0
23.000000  -21.500000  26.000000  0
22.000000  -21.500000  26.000000  0
21.000000  -21.500000  26.000000  0
20.000000  -21.500000  26.000000  0
19.000000  -21.500000  26.000000  0
18.500000  -21.000000  26.000000  0
3.000000  -21.000000  26.500000  0
2.500000  -21.000000  26.000000  0
30.500000  -21.000000  25.000000  0
30.000000  -21.000000  25.500000  0
29.000000  -21.000000  25.500000  0
24.000000  -21.000000  25.500000  0
23.000000  -21.000000  25.500000  0
22.000000  -21.500000  25.000000  0
22.500000  -21.000000  25.000000  0
21.000000  -21.500000  25.000000  0
20.000000  -21.500000  25.000000  0
19.000000  -21.500000  25.000000  0
18.500000  -21.000000  25.000000  0
2.500000  -21.000000  25.000000  0
30.500000  -21.000000  24.000000  0
22.000000  -21.500000  24.000000  0
22.500000  -21.000000  24.000000  0
21.000000  -21.500000  24.000000  0
20.000000  -21.500000  24.000000  0
19.000000  -21.500000  24.000000  0
18.000000  -21.500000  24.000000  0
18.000000  -21.000000  24.500000  0
17.000000  -21.500000  24.000000  0
17.000000  -21.000000  24.500000  0
16.500000  -21.000000  24.000000  0
2.500000  -21.000000  24.000000  0
30.500000  -21.000000  23.000000  0
22.000000  -21.500000  23.000000  0
22.500000  -21.000000  23.000000  0
21.000000  -21.500000  23.000000  0
20.000000  -21.500000  23.000000  0
19.000000  -21.500000  23.000000  0
18.000000  -21.500000  23.000000  0
17.000000  -21.500000  23.000000  0
16.500000  -21.000000  23.000000  0
2.500000  -21.000000  23.000000  0
30.000000  -21.000000  22.500000  0
29.000000  -21.000000  22.500000  0
28.000000  -21.500000  22.000000  0
28.500000  -21.000000  22.000000  0
27.000000  -21.500000  22.000000  0
26.000000  -21.500000  22.000000  0
25.000000  -21.500000  22.000000  0
24.000000  -21.500000  22.000000  0
23.000000  -21.500000  22.000000  0
22.000000  -21.500000  22.000000  0
22.500000  -21.000000  22.000000  0
16.000000  -21.500000  22.000000  0
16.500000  -21.000000  22.000000  0
2.500000  -21.000000  22.000000  0
28.000000  -21.000000  21.500000  0
27.000000  -21.000000  21.500000  0
26.000000  -21.000000  21.500000  0
25.000000  -21.000000  21.500000  0
24.000000  -21.500000  21.000000  0
24.500000  -21.000000  21.000000  0
23.000000  -21.500000  21.000000  0
22.500000  -21.000000  21.000000  0
16.000000  -21.000000  21.500000  0
15.500000  -21.000000  21.000000  0
2.500000  -21.000000  21.000000  0
24.000000  -21.000000  20.500000  0
23.000000  -21.000000  20.500000  0
22.000000  -21.500000  20.000000  0
22.500000  -21.000000  20.000000  0
22.000000  -21.000000  20.500000  0
21.000000  -21.000000  20.500000  0
20.500000  -21.000000  20.000000  0
15.500000  -21.000000  20.000000  0
2.500000  -21.000000  20.000000  0
22.000000  -21.000000  19.500000  0
21.000000  -21.500000  19.000000  0
21.500000  -21.000000  19.000000  0
20.500000  -21.000000  19.000000  0
15.500000  -21.000000  19.000000  0
2.500000  -21.000000  19.000000  0
21.000000  -21.000000  18.500000  0
20.000000  -21.500000  18.000000  0
20.500000  -21.000000  18.000000  0
20.000000  -21.000000  18.500000  0
19.000000  -21.500000  18.000000  0
19.000000  -21.000000  18.500000  0
18.000000  -21.000000  18.500000  0
17.500000  -21.000000  18.000000  0
15.500000  -21.000000  18.000000  0
9.500000  -21.000000  18.000000  0
9.000000  -21.000000  18.500000  0
8.000000  -21.000000  18.500000  0
7.000000  -21.000000  18.500000  0
6.000000  -21.000000  18.500000  0
5.000000  -21.000000  18.500000  0
4.000000  -21.500000  18.000000  0
4.500000  -21.000000  18.000000  0
3.000000  -21.500000  18.000000  0
2.500000  -21.000000  18.000000  0
20.000000  -21.500000  17.000000  0
20.500000  -21.000000  17.000000  0
19.000000  -21.500000  17.000000  0
17.500000  -21.000000  17.000000  0
15.500000  -21.000000  17.000000  0
9.500000  -21.000000  17.000000  0
4.000000  -21.000000  17.500000  0
3.000000  -21.000000  17.500000  0
20.000000  -21.000000  16.500000  0
19.000000  -21.000000  16.500000  0
18.000000  -21.000000  16.500000  0
15.000000  -21.000000  16.500000  0
14.000000  -21.000000  16.500000  0
13.000000  -21.500000  16.000000  0
13.500000  -21.000000  16.000000  0
12.000000  -21.500000  16.000000  0
11.000000  -21.500000  16.000000  0
10.000000  -21.500000  16.000000  0
9.500000  -21.000000  16.000000  0
13.000000  -21.000000  15.500000  0
12.000000  -21.000000  15.500000  0
11.000000  -21.000000  15.500000  0
10.000000  -21.000000  15.500000  0
18.000000  -20.500000  28.000000  0
18.500000  -20.000000  28.000000  0
18.000000  -20.000000  28.500000  0
17.000000  -20.000000  28.500000  0
16.000000  -20.000000  28.500000  0
15.000000  -20.000000  28.500000  0
14.000000  -20.000000  28.500000  0
13.000000  -20.000000  28.500000  0
12.000000  -20.000000  28.500000  0
11.000000  -20.000000  28.500000  0
10.000000  -20.000000  28.500000  0
9.000000  -20.500000  28.000000  0
9.000000  -20.000000  28.500000  0
8.000000  -20.000000  28.500000  0
7.000000  -20.000000  28.500000  0
6.000000  -20.000000  28.500000  0
5.000000  -20.000000  28.500000  0
4.500000  -20.000000  28.000000  0
28.000000  -20.500000  27.000000  0
27.000000  -20.500000  27.000000  0
26.000000  -20.500000  27.000000  0
25.000000  -20.500000  27.000000  0
18.500000  -20.000000  27.000000  0
4.000000  -20.000000  27.500000  0
3.500000  -20.000000  27.000000  0
28.000000  -20.500000  26.000000  0
27.000000  -20.500000  26.000000  0
26.000000  -20.500000  26.000000  0
25.000000  -20.500000  26.000000  0
18.500000  -20.000000  26.000000  0
3.000000  -20.000000  26.500000  0
2.500000  -20.000000  26.000000  0
30.500000  -20.000000  25.000000  0
30.000000  -20.000000  25.500000  0
29.000000  -20.000000  25.500000  0
28.000000  -20.000000  25.500000  0
27.000000  -20.000000  25.500000  0
26.000000  -20.000000  25.500000  0
25.000000  -20.000000  25.500000  0
24.000000  -20.500000  25.000000  0
24.500000  -20.000000  25.000000  0
23.000000  -20.500000  25.000000  0
18.500000  -20.000000  25.000000  0
2.500000  -20.000000  25.000000  0
30.500000  -20.000000  24.000000  0
24.000000  -20.500000  24.000000  0
24.500000  -20.000000  24.000000  0
23.000000  -20.500000  24.000000  0
18.000000  -20.500000  24.000000  0
18.500000  -20.000000  24.000000  0
17.000000  -20.500000  24.000000  0
2.500000  -20.000000  24.000000  0
30.500000  -20.000000  23.000000  0
24.000000  -20.500000  23.000000  0
24.500000  -20.000000  23.000000  0
23.000000  -20.500000  23.000000  0
18.000000  -20.500000  23.000000  0
18.500000  -20.000000  23.000000  0
17.000000  -20.500000  23.000000  0
2.500000  -20.000000  23.000000  0
30.000000  -20.000000  22.500000  0
29.000000  -20.000000  22.500000  0
28.500000  -20.000000  22.000000  0
24.000000  -20.000000  22.500000  0
23.000000  -20.500000  22.000000  0
23.500000  -20.000000  22.000000  0
18.000000  -20.500000  22.000000  0
18.500000  -20.000000  22.000000  0
17.000000  -20.500000  22.000000  0
2.500000  -20.000000  22.000000  0
28.000000  -20.000000  21.500000  0
27.000000  -20.000000  21.500000  0
26.000000  -20.000000  21.500000  0
25.000000  -20.000000  21.500000  0
24.000000  -20.500000  21.000000  0
24.000000  -20.000000  21.500000  0
23.000000  -20.500000  21.000000  0
18.000000  -20.500000  21.000000  0
18.500000  -20.000000  21.000000  0
17.000000  -20.500000  21.000000  0
16.000000  -20.500000  21.000000  0
2.500000  -20.000000  21.000000  0
22.500000  -20.000000  20.000000  0
22.000000  -20.000000  20.500000  0
21.000000  -20.000000  20.500000  0
20.500000  -20.000000  20.000000  0
18.000000  -20.500000  20.000000  0
18.500000  -20.000000  20.000000  0
17.000000  -20.500000  20.000000  0
16.000000  -20.500000  20.000000  0
2.500000  -20.000000  20.000000  0
22.000000  -20.000000  19.500000  0
21.500000  -20.000000  19.000000  0
20.500000  -20.000000  19.000000  0
18.000000  -20.500000  19.000000  0
18.500000  -20.000000  19.000000  0
17.000000  -20.500000  19.000000  0
16.000000  -20.500000  19.000000  0
2.500000  -20.000000  19.000000  0
21.000000  -20.000000  18.500000  0
20.500000  -20.000000  18.000000  0
20.000000  -20.000000  18.500000  0
19.000000  -20.000000  18.500000  0
17.000000  -20.500000  18.000000  0
16.000000  -20.500000  18.000000  0
9.000000  -20.500000  18.000000  0
8.000000  -20.500000  18.000000  0
7.000000  -20.500000  18.000000  0
6.000000  -20.500000  18.000000  0
5.000000  -20.500000  18.000000  0
2.500000  -20.000000  18.000000  0
20.500000  -20.000000  17.000000  0
17.000000  -20.500000  17.000000  0
16.000000  -20.500000  17.000000  0
9.000000  -20.500000  17.000000  0
8.000000  -20.500000  17.000000  0
7.000000  -20.500000  17.000000  0
6.000000  -20.500000  17.000000  0
5.000000  -20.500000  17.000000  0
4.000000  -20.500000  17.000000  0
3.000000  -20.500000  17.000000  0
2.500000  -20.000000  17.000000  0
20.000000  -20.000000  16.500000  0
19.000000  -20.000000  16.500000  0
18.000000  -20.500000  16.000000  0
18.500000  -20.000000  16.000000  0
17.000000  -20.500000  16.000000  0
16.000000  -20.500000  16.000000  0
15.000000  -20.500000  16.000000  0
14.000000  -20.500000  16.000000  0
9.000000  -20.500000  16.000000  0
8.000000  -20.500000  16.000000  0
7.000000  -20.500000  16.000000  0
6.000000  -20.500000  16.000000  0
5.000000  -20.500000  16.000000  0
4.000000  -20.500000  16.000000  0
3.000000  -20.500000  16.000000  0
2.500000  -20.000000  16.000000  0
18.000000  -20.000000  15.500000  0
17.000000  -20.500000  15.000000  0
17.500000  -20.000000  15.000000  0
16.500000  -20.000000  15.000000  0
16.000000  -20.000000  15.500000  0
15.000000  -20.000000  15.500000  0
14.000000  -20.500000  15.000000  0
14.500000  -20.000000  15.000000  0
13.000000  -20.500000  15.000000  0
12.000000  -20.500000  15.000000  0
11.000000  -20.500000  15.000000  0
10.000000  -20.500000  15.000000  0
9.500000  -20.000000  15.000000  0
9.000000  -20.000000  15.500000  0
8.000000  -20.000000  15.500000  0
7.000000  -20.000000  15.500000  0
6.000000  -20.000000  15.500000  0
5.000000  -20.000000  15.500000  0
4.000000  -20.000000  15.500000  0
3.000000  -20.000000  15.500000  0
17.000000  -20.000000  14.500000  0
14.000000  -20.500000  14.000000  0
14.500000  -20.000000  14.000000  0
13.000000  -20.500000  14.000000  0
12.500000  -20.000000  14.000000  0
12.000000  -20.000000  14.500000  0
11.000000  -20.000000  14.500000  0
10.000000  -20.000000  14.500000  0
14.000000  -20.000000  13.500000  0
13.000000  -20.000000  13.500000  0
18.500000  -19.000000  28.000000  0
18.000000  -19.000000  28.500000  0
17.000000  -19.000000  28.500000  0
16.000000  -19.000000  28.500000  0
15.000000  -19.000000  28.500000  0
14.000000  -19.000000  28.500000  0
13.000000  -19.000000  28.500000  0
12.000000  -19.000000  28.500000  0
11.000000  -19.000000  28.500000  0
10.000000  -19.000000  28.500000  0
9.000000  -19.000000  28.500000  0
8.000000  -19.000000  28.500000  0
7.000000  -19.000000  28.500000  0
6.000000  -19.000000  28.500000  0
5.000000  -19.000000  28.500000  0
4.000000  -19.500000  28.000000  0
4.000000  -19.000000  28.500000  0
3.500000  -19.000000  28.000000  0
18.500000  -19.000000  27.000000  0
3.500000  -19.000000  27.000000  0
18.500000  -19.000000  26.000000  0
3.000000  -19.000000  26.500000  0
2.500000  -19.000000  26.000000  0
30.500000  -19.000000  25.000000  0
30.000000  -19.000000  25.500000  0
29.000000  -19.000000  25.500000  0
28.000000  -19.000000  25.500000  0
27.000000  -19.000000  25.500000  0
26.000000  -19.000000  25.500000  0
25.000000  -19.000000  25.500000  0
24.500000  -19.000000  25.000000  0
18.500000  -19.000000  25.000000  0
2.500000  -19.000000  25.000000  0
30.500000  -19.000000  24.000000  0
24.500000  -19.000000  24.000000  0
18.500000  -19.000000  24.000000  0
2.500000  -19.000000  24.000000  0
30.500000  -19.000000  23.000000  0
24.500000  -19.000000  23.000000  0
18.500000  -19.000000  23.000000  0
2.500000  -19.000000  23.000000  0
30.000000  -19.000000  22.500000  0
29.000000  -19.000000  22.500000  0
28.000000  -19.500000  22.000000  0
28.000000  -19.000000  22.500000  0
27.500000  -19.000000  22.000000  0
24.000000  -19.000000  22.500000  0
23.500000  -19.000000  22.000000  0
18.500000  -19.000000  22.000000  0
2.500000  -19.000000  22.000000  0
27.000000  -19.000000  21.500000  0
26.000000  -19.000000  21.500000  0
25.000000  -19.000000  21.500000  0
24.000000  -19.000000  21.500000  0
23.000000  -19.500000  21.000000  0
23.500000  -19.000000  21.000000  0
23.000000  -19.000000  21.500000  0
22.000000  -19.500000  21.000000  0
22.000000  -19.000000  21.500000  0
21.000000  -19.500000  21.000000  0
21.000000  -19.000000  21.500000  0
20.500000  -19.000000  21.000000  0
18.500000  -19.000000  21.000000  0
2.500000  -19.000000  21.000000  0
23.000000  -19.000000  20.500000  0
22.500000  -19.000000  20.000000  0
20.500000  -19.000000  20.000000  0
18.500000  -19.000000  20.000000  0
2.500000  -19.000000  20.000000  0
22.000000  -19.000000  19.500000  0
21.500000  -19.000000  19.000000  0
20.000000  -19.500000  19.000000  0
20.000000  -19.000000  19.500000  0
19.000000  -19.500000  19.000000  0
19.000000  -19.000000  19.500000  0
2.500000  -19.000000  19.000000  0
21.000000  -19.000000  18.500000  0
20.000000  -19.500000  18.000000  0
20.000000  -19.000000  18.500000  0
19.500000  -19.000000  18.000000  0
2.500000  -19.000000  18.000000  0
20.000000  -19.500000  17.000000  0
19.500000  -19.000000  17.000000  0
2.500000  -19.000000  17.000000  0
19.000000  -19.000000  16.500000  0
18.500000  -19.000000  16.000000  0
3.000000  -19.500000  16.000000  0
3.500000  -19.000000  16.000000  0
3.000000  -19.000000  16.500000  0
18.000000  -19.000000  15.500000  0
17.500000  -19.000000  15.000000  0
16.000000  -19.500000  15.000000  0
15.000000  -19.500000  15.000000  0
9.500000  -19.000000  15.000000  0
9.000000  -19.000000  15.500000  0
8.000000  -19.000000  15.500000  0
7.000000  -19.000000  15.500000  0
6.000000  -19.000000  15.500000  0
5.000000  -19.000000  15.500000  0
4.000000  -19.000000  15.500000  0
17.000000  -19.000000  14.500000  0
16.000000  -19.500000  14.000000  0
16.500000  -19.000000  14.000000  0
15.000000  -19.500000  14.000000  0
12.500000  -19.000000  14.000000  0
12.000000  -19.000000  14.500000  0
11.000000  -19.000000  14.500000  0
10.000000  -19.000000  14.500000  0
16.000000  -19.000000  13.500000  0
15.000000  -19.000000  13.500000  0
14.000000  -19.000000  13.500000  0
13.000000  -19.000000  13.500000  0
16.000000  -18.500000  29.000000  0
16.500000  -18.000000  29.000000  0
16.000000  -18.000000  29.500000  0
15.000000  -18.500000  29.000000  0
15.000000  -18.000000  29.500000  0
14.000000  -18.500000  29.000000  0
14.000000  -18.000000  29.500000  0
13.000000  -18.500000  29.000000  0
13.000000  -18.000000  29.500000  0
12.000000  -18.500000  29.000000  0
12.000000  -18.000000  29.500000  0
11.500000  -18.000000  29.000000  0
18.000000  -18.500000  28.000000  0
17.000000  -18.500000  28.000000  0
16.500000  -18.000000  28.000000  0
11.000000  -18.000000  28.500000  0
10.000000  -18.000000  28.500000  0
9.000000  -18.000000  28.500000  0
8.000000  -18.000000  28.500000  0
7.000000  -18.000000  28.500000  0
6.000000  -18.000000  28.500000  0
5.000000  -18.000000  28.500000  0
4.000000  -18.000000  28.500000  0
3.500000  -18.000000  28.000000  0
18.000000  -18.500000  27.000000  0
17.000000  -18.500000  27.000000  0
16.500000  -18.000000  27.000000  0
3.500000  -18.000000  27.000000  0
20.000000  -18.500000  26.000000  0
20.500000  -18.000000  26.000000  0
20.000000  -18.000000  26.500000  0
19.000000  -18.500000  26.000000  0
19.000000  -18.000000  26.500000  0
18.000000  -18.000000  26.500000  0
17.000000  -18.000000  26.500000  0
3.000000  -18.000000  26.500000  0
2.500000  -18.000000  26.000000  0
30.000000  -18.500000  25.000000  0
29.500000  -18.000000  25.000000  0
29.000000  -18.000000  25.500000  0
28.000000  -18.000000  25.500000  0
27.000000  -18.000000  25.500000  0
26.000000  -18.000000  25.500000  0
25.000000  -18.000000  25.500000  0
24.000000  -18.500000  25.000000  0
24.000000  -18.000000  25.500000  0
23.000000  -18.500000  25.000000  0
23.000000  -18.000000  25.500000  0
22.000000  -18.500000  25.000000  0
22.000000  -18.000000  25.500000  0
21.000000  -18.500000  25.000000  0
21.000000  -18.000000  25.500000  0
20.000000  -18.500000  25.000000  0
19.000000  -18.500000  25.000000  0
2.500000  -18.000000  25.000000  0
30.000000  -18.500000  24.000000  0
29.500000  -18.000000  24.000000  0
24.000000  -18.500000  24.000000  0
23.000000  -18.500000  24.000000  0
22.000000  -18.500000  24.000000  0
21.000000  -18.500000  24.000000  0
20.000000  -18.500000  24.000000  0
19.000000  -18.500000  24.000000  0
2.000000  -18.500000  24.000000  0
2.000000  -18.000000  24.500000  0
1.500000  -18.000000  24.000000  0
30.500000  -18.000000  23.000000  0
30.000000  -18.000000  23.500000  0
24.000000  -18.500000  23.000000  0
23.000000  -18.500000  23.000000  0
22.000000  -18.500000  23.000000  0
21.000000  -18.500000  23.000000  0
20.000000  -18.500000  23.000000  0
19.000000  -18.500000  23.000000  0
2.000000  -18.500000  23.000000  0
1.500000  -18.000000  23.000000  0
30.000000  -18.000000  22.500000  0
29.000000  -18.000000  22.500000  0
28.000000  -18.500000  22.000000  0
28.500000  -18.000000  22.000000  0
23.000000  -18.500000  22.000000  0
22.000000  -18.500000  22.000000  0
21.000000  -18.500000  22.000000  0
20.000000  -18.500000  22.000000  0
19.000000  -18.500000  22.000000  0
2.000000  -18.500000  22.000000  0
1.500000  -18.000000  22.000000  0
28.000000  -18.000000  21.500000  0
27.000000  -18.000000  21.500000  0
26.000000  -18.000000  21.500000  0
25.000000  -18.000000  21.500000  0
24.000000  -18.000000  21.500000  0
23.500000  -18.000000  21.000000  0
20.000000  -18.500000  21.000000  0
19.000000  -18.500000  21.000000  0
2.500000  -18.000000  21.000000  0
2.000000  -18.000000  21.500000  0
23.000000  -18.500000  20.000000  0
23.500000  -18.000000  20.000000  0
20.000000  -18.500000  20.000000  0
19.000000  -18.500000  20.000000  0
2.500000  -18.000000  20.000000  0
23.000000  -18.000000  19.500000  0
22.000000  -18.000000  19.500000  0
21.000000  -18.500000  19.000000  0
21.000000  -18.000000  19.500000  0
20.500000  -18.000000  19.000000  0
2.500000  -18.000000  19.000000  0
20.000000  -18.000000  18.500000  0
19.500000  -18.000000  18.000000  0
3.000000  -18.500000  18.000000  0
3.500000  -18.000000  18.000000  0
3.000000  -18.000000  18.500000  0
19.500000  -18.000000  17.000000  0
3.000000  -18.500000  17.000000  0
3.500000  -18.000000  17.000000  0
19.000000  -18.500000  16.000000  0
19.500000  -18.000000  16.000000  0
4.000000  -18.500000  16.000000  0
4.500000  -18.000000  16.000000  0
4.000000  -18.000000  16.500000  0
19.000000  -18.000000  15.500000  0
18.000000  -18.500000  15.000000  0
18.500000  -18.000000  15.000000  0
9.500000  -18.000000  15.000000  0
9.000000  -18.000000  15.500000  0
8.000000  -18.000000  15.500000  0
7.000000  -18.000000  15.500000  0
6.000000  -18.000000  15.500000  0
5.000000  -18.000000  15.500000  0
18.000000  -18.000000  14.500000  0
17.000000  -18.000000  14.500000  0
16.500000  -18.000000  14.000000  0
12.000000  -18.500000  14.000000  0
11.500000  -18.000000  14.000000  0
11.000000  -18.000000  14.500000  0
10.000000  -18.000000  14.500000  0
16.000000  -18.000000  13.500000  0
15.000000  -18.000000  13.500000  0
14.000000  -18.000000  13.500000  0
13.000000  -18.000000  13.500000  0
12.000000  -18.000000  13.500000  0
16.000000  -17.500000  29.000000  0
15.000000  -17.500000  29.000000  0
14.000000  -17.500000  29.000000  0
13.000000  -17.500000  29.000000  0
12.500000  -17.000000  29.000000  0
12.000000  -17.000000  29.500000  0
11.000000  -17.500000  29.000000  0
11.000000  -17.000000  29.500000  0
10.000000  -17.500000  29.000000  0
10.000000  -17.000000  29.500000  0
9.500000  -17.000000  29.000000  0
16.000000  -17.500000  28.000000  0
15.000000  -17.500000  28.000000  0
14.000000  -17.500000  28.000000  0
13.000000  -17.500000  28.000000  0
12.500000  -17.000000  28.000000  0
9.000000  -17.000000  28.500000  0
8.000000  -17.000000  28.500000  0
7.000000  -17.000000  28.500000  0
6.000000  -17.000000  28.500000  0
5.000000  -17.000000  28.500000  0
4.000000  -17.500000  28.000000  0
4.500000  -17.000000  28.000000  0
16.000000  -17.500000  27.000000  0
15.000000  -17.500000  27.000000  0
14.000000  -17.500000  27.000000  0
13.000000  -17.500000  27.000000  0
12.500000  -17.000000  27.000000  0
4.000000  -17.000000  27.500000  0
3.500000  -17.000000  27.000000  0
24.000000  -17.500000  26.000000  0
24.500000  -17.000000  26.000000  0
24.000000  -17.000000  26.500000  0
23.000000  -17.500000  26.000000  0
23.000000  -17.000000  26.500000  0
22.000000  -17.500000  26.000000  0
22.000000  -17.000000  26.500000  0
21.000000  -17.500000  26.000000  0
21.000000  -17.000000  26.500000  0
20.000000  -17.000000  26.500000  0
19.000000  -17.000000  26.500000  0
18.000000  -17.000000  26.500000  0
17.000000  -17.000000  26.500000  0
16.000000  -17.000000  26.500000  0
15.000000  -17.000000  26.500000  0
14.000000  -17.000000  26.500000  0
13.000000  -17.000000  26.500000  0
3.000000  -17.000000  26.500000  0
2.500000  -17.000000  26.000000  0
29.000000  -17.500000  25.000000  0
28.500000  -17.000000  25.000000  0
28.000000  -17.000000  25.500000  0
27.000000  -17.000000  25.500000  0
26.000000  -17.000000  25.500000  0
25.000000  -17.000000  25.500000  0
2.000000  -17.500000  25.000000  0
2.000000  -17.000000  25.500000  0
1.500000  -17.000000  25.000000  0
29.500000  -17.000000  24.000000  0
29.000000  -17.000000  24.500000  0
1.500000  -17.000000  24.000000  0
30.500000  -17.000000  23.000000  0
30.000000  -17.000000  23.500000  0
1.500000  -17.000000  23.000000  0
30.000000  -17.500000  22.000000  0
30.500000  -17.000000  22.000000  0
29.000000  -17.500000  22.000000  0
1.500000  -17.000000  22.000000  0
30.000000  -17.000000  21.500000  0
29.000000  -17.000000  21.500000  0
28.000000  -17.000000  21.500000  0
27.000000  -17.000000  21.500000  0
26.000000  -17.000000  21.500000  0
25.000000  -17.000000  21.500000  0
24.000000  -17.000000  21.500000  0
23.500000  -17.000000  21.000000  0
2.500000  -17.000000  21.000000  0
2.000000  -17.000000  21.500000  0
23.500000  -17.000000  20.000000  0
2.500000  -17.000000  20.000000  0
23.000000  -17.000000  19.500000  0
22.000000  -17.000000  19.500000  0
21.000000  -17.000000  19.500000  0
20.500000  -17.000000  19.000000  0
3.000000  -17.500000  19.000000  0
3.500000  -17.000000  19.000000  0
3.000000  -17.000000  19.500000  0
20.000000  -17.000000  18.500000  0
19.500000  -17.000000  18.000000  0
3.500000  -17.000000  18.000000  0
19.500000  -17.000000  17.000000  0
4.000000  -17.500000  17.000000  0
4.500000  -17.000000  17.000000  0
4.000000  -17.000000  17.500000  0
19.500000  -17.000000  16.000000  0
4.500000  -17.000000  16.000000  0
19.000000  -17.000000  15.500000  0
18.500000  -17.000000  15.000000  0
9.000000  -17.500000  15.000000  0
8.500000  -17.000000  15.000000  0
8.000000  -17.000000  15.500000  0
7.000000  -17.000000  15.500000  0
6.000000  -17.000000  15.500000  0
5.000000  -17.000000  15.500000  0
18.000000  -17.000000  14.500000  0
17.000000  -17.000000  14.500000  0
16.500000  -17.000000  14.000000  0
11.000000  -17.500000  14.000000  0
10.500000  -17.000000  14.000000  0
10.000000  -17.000000  14.500000  0
9.000000  -17.000000  14.500000  0
16.000000  -17.000000  13.500000  0
15.000000  -17.000000  13.500000  0
14.000000  -17.000000  13.500000  0
13.000000  -17.000000  13.500000  0
12.000000  -17.000000  13.500000  0
11.000000  -17.000000  13.500000  0
12.500000  -16.000000  29.000000  0
12.000000  -16.000000  29.500000  0
11.000000  -16.000000  29.500000  0
10.000000  -16.000000  29.500000  0
9.000000  -16.500000  29.000000  0
9.000000  -16.000000  29.500000  0
8.000000  -16.500000  29.000000  0
8.000000  -16.000000  29.500000  0
7.500000  -16.000000  29.000000  0
12.500000  -16.000000  28.000000  0
7.000000  -16.000000  28.500000  0
6.000000  -16.000000  28.500000  0
5.000000  -16.000000  28.500000  0
4.500000  -16.000000  28.000000  0
12.500000  -16.000000  27.000000  0
4.000000  -16.000000  27.500000  0
3.500000  -16.000000  27.000000  0
24.500000  -16.000000  26.000000  0
24.000000  -16.000000  26.500000  0
23.000000  -16.000000  26.500000  0
22.000000  -16.000000  26.500000  0
21.000000  -16.000000  26.500000  0
20.000000  -16.000000  26.500000  0
19.000000  -16.000000  26.500000  0
18.000000  -16.000000  26.500000  0
17.000000  -16.000000  26.500000  0
16.000000  -16.000000  26.500000  0
15.000000  -16.000000  26.500000  0
14.000000  -16.000000  26.500000  0
13.000000  -16.000000  26.500000  0
3.000000  -16.000000  26.500000  0
2.500000  -16.000000  26.000000  0
28.500000  -16.000000  25.000000  0
28.000000  -16.000000  25.500000  0
27.000000  -16.000000  25.500000  0
26.000000  -16.000000  25.500000  0
25.000000  -16.000000  25.500000  0
2.000000  -16.000000  25.500000  0
1.500000  -16.000000  25.000000  0
29.000000  -16.500000  24.000000  0
28.500000  -16.000000  24.000000  0
1.500000  -16.000000  24.000000  0
30.000000  -16.500000  23.000000  0
29.000000  -16.500000  23.000000  0
28.500000  -16.000000  23.000000  0
1.500000  -16.000000  23.000000  0
30.500000  -16.000000  22.000000  0
30.000000  -16.000000  22.500000  0
29.000000  -16.500000  22.000000  0
29.500000  -16.000000  22.000000  0
28.500000  -16.000000  22.000000  0
26.000000  -16.500000  22.000000  0
26.500000  -16.000000  22.000000  0
26.000000  -16.000000  22.500000  0
25.000000  -16.500000  22.000000  0
25.000000  -16.000000  22.500000  0
24.000000  -16.500000  22.000000  0
24.000000  -16.000000  22.500000  0
23.500000  -16.000000  22.000000  0
2.000000  -16.500000  22.000000  0
2.500000  -16.000000  22.000000  0
2.000000  -16.000000  22.500000  0
30.000000  -16.000000  21.500000  0
28.000000  -16.000000  21.500000  0
27.000000  -16.000000  21.500000  0
23.000000  -16.500000  21.000000  0
23.000000  -16.000000  21.500000  0
22.500000  -16.000000  21.000000  0
2.500000  -16.000000  21.000000  0
23.000000  -16.500000  20.000000  0
22.000000  -16.500000  20.000000  0
22.000000  -16.000000  20.500000  0
21.000000  -16.500000  20.000000  0
21.000000  -16.000000  20.500000  0
20.500000  -16.000000  20.000000  0
3.000000  -16.500000  20.000000  0
3.500000  -16.000000  20.000000  0
3.000000  -16.000000  20.500000  0
20.500000  -16.000000  19.000000  0
3.500000  -16.000000  19.000000  0
20.000000  -16.000000  18.500000  0
19.500000  -16.000000  18.000000  0
4.000000  -16.500000  18.000000  0
4.500000  -16.000000  18.000000  0
4.000000  -16.000000  18.500000  0
19.500000  -16.000000  17.000000  0
4.500000  -16.000000  17.000000  0
19.500000  -16.000000  16.000000  0
4.500000  -16.000000  16.000000  0
19.000000  -16.000000  15.500000  0
18.500000  -16.000000  15.000000  0
8.500000  -16.000000  15.000000  0
8.000000  -16.000000  15.500000  0
7.000000  -16.000000  15.500000  0
6.000000  -16.000000  15.500000  0
5.000000  -16.000000  15.500000  0
18.000000  -16.000000  14.500000  0
17.000000  -16.000000  14.500000  0
16.500000  -16.000000  14.000000  0
10.500000  -16.000000  14.000000  0
10.000000  -16.000000  14.500000  0
9.000000  -16.000000  14.500000  0
16.000000  -16.000000  13.500000  0
15.000000  -16.000000  13.500000  0
14.000000  -16.000000  13.500000  0
13.000000  -16.000000  13.500000  0
12.000000  -16.000000  13.500000  0
11.000000  -16.000000  13.500000  0
12.500000  -15.000000  29.000000  0
12.000000  -15.000000  29.500000  0
11.000000  -15.000000  29.500000  0
10.000000  -15.000000  29.500000  0
9.000000  -15.000000  29.500000  0
8.000000  -15.000000  29.500000  0
7.000000  -15.500000  29.000000  0
7.000000  -15.000000  29.500000  0
6.000000  -15.500000  29.000000  0
6.000000  -15.000000  29.500000  0
5.000000  -15.500000  29.000000  0
5.000000  -15.000000  29.500000  0
4.500000  -15.000000  29.000000  0
12.500000  -15.000000  28.000000  0
4.500000  -15.000000  28.000000  0
12.500000  -15.000000  27.000000  0
4.000000  -15.000000  27.500000  0
3.500000  -15.000000  27.000000  0
24.500000  -15.000000  26.000000  0
24.000000  -15.000000  26.500000  0
23.000000  -15.000000  26.500000  0
22.000000  -15.000000  26.500000  0
21.000000  -15.000000  26.500000  0
20.000000  -15.000000  26.500000  0
19.000000  -15.000000  26.500000  0
18.000000  -15.500000  26.000000  0
18.500000  -15.000000  26.000000  0
17.000000  -15.500000  26.000000  0
16.000000  -15.500000  26.000000  0
15.000000  -15.500000  26.000000  0
14.000000  -15.500000  26.000000  0
13.000000  -15.500000  26.000000  0
12.500000  -15.000000  26.000000  0
3.000000  -15.500000  26.000000  0
3.500000  -15.000000  26.000000  0
28.000000  -15.500000  25.000000  0
27.500000  -15.000000  25.000000  0
27.000000  -15.000000  25.500000  0
26.000000  -15.000000  25.500000  0
25.000000  -15.000000  25.500000  0
18.000000  -15.000000  25.500000  0
17.000000  -15.500000  25.000000  0
17.500000  -15.000000  25.000000  0
16.000000  -15.500000  25.000000  0
15.500000  -15.000000  25.000000  0
15.000000  -15.000000  25.500000  0
14.000000  -15.000000  25.500000  0
13.000000  -15.000000  25.500000  0
3.000000  -15.000000  25.500000  0
2.000000  -15.000000  25.500000  0
1.500000  -15.000000  25.000000  0
28.500000  -15.000000  24.000000  0
28.000000  -15.000000  24.500000  0
17.000000  -15.000000  24.500000  0
16.000000  -15.000000  24.500000  0
1.500000  -15.000000  24.000000  0
28.500000  -15.000000  23.000000  0
2.000000  -15.500000  23.000000  0
2.500000  -15.000000  23.000000  0
2.000000  -15.000000  23.500000  0
30.000000  -15.500000  22.000000  0
28.500000  -15.000000  22.000000  0
27.000000  -15.500000  22.000000  0
27.500000  -15.000000  22.000000  0
27.000000  -15.000000  22.500000  0
26.000000  -15.000000  22.500000  0
25.000000  -15.000000  22.500000  0
24.000000  -15.000000  22.500000  0
23.500000  -15.000000  22.000000  0
2.500000  -15.000000  22.000000  0
28.000000  -15.000000  21.500000  0
23.000000  -15.000000  21.500000  0
22.000000  -15.500000  21.000000  0
22.000000  -15.000000  21.500000  0
21.500000  -15.000000  21.000000  0
3.000000  -15.500000  21.000000  0
3.500000  -15.000000  21.000000  0
3.000000  -15.000000  21.500000  0
21.000000  -15.000000  20.500000  0
20.500000  -15.000000  20.000000  0
3.500000  -15.000000  20.000000  0
20.000000  -15.500000  19.000000  0
20.000000  -15.000000  19.500000  0
19.500000  -15.000000  19.000000  0
4.000000  -15.500000  19.000000  0
4.500000  -15.000000  19.000000  0
4.000000  -15.000000  19.500000  0
19.500000  -15.000000  18.000000  0
4.500000  -15.000000  18.000000  0
19.000000  -15.500000  17.000000  0
19.000000  -15.000000  17.500000  0
18.500000  -15.000000  17.000000  0
4.500000  -15.000000  17.000000  0
19.000000  -15.500000  16.000000  0
18.500000  -15.000000  16.000000  0
4.500000  -15.000000  16.000000  0
18.000000  -15.500000  15.000000  0
18.000000  -15.000000  15.500000  0
17.500000  -15.000000  15.000000  0
8.500000  -15.000000  15.000000  0
8.000000  -15.000000  15.500000  0
7.000000  -15.000000  15.500000  0
6.000000  -15.000000  15.500000  0
5.000000  -15.000000  15.500000  0
17.000000  -15.000000  14.500000  0
16.500000  -15.000000  14.000000  0
10.500000  -15.000000  14.000000  0
10.000000  -15.000000  14.500000  0
9.000000  -15.000000  14.500000  0
16.000000  -15.000000  13.500000  0
15.000000  -15.000000  13.500000  0
14.000000  -15.000000  13.500000  0
13.000000  -15.000000  13.500000  0
12.000000  -15.000000  13.500000  0
11.000000  -15.000000  13.500000  0
12.000000  -14.500000  30.000000  0
12.500000  -14.000000  30.000000  0
12.000000  -14.000000  30.500000  0
11.500000  -14.000000  30.000000  0
12.500000  -14.000000  29.000000  0
11.000000  -14.000000  29.500000  0
10.000000  -14.000000  29.500000  0
9.000000  -14.000000  29.500000  0
8.000000  -14.000000  29.500000  0
7.000000  -14.000000  29.500000  0
6.000000  -14.000000  29.500000  0
5.000000  -14.000000  29.500000  0
4.500000  -14.000000  29.000000  0
12.500000  -14.000000  28.000000  0
4.500000  -14.000000  28.000000  0
12.500000  -14.000000  27.000000  0
4.000000  -14.000000  27.500000  0
3.500000  -14.000000  27.000000  0
24.000000  -14.500000  26.000000  0
23.000000  -14.500000  26.000000  0
22.000000  -14.500000  26.000000  0
21.000000  -14.500000  26.000000  0
20.000000  -14.500000  26.000000  0
19.000000  -14.500000  26.000000  0
12.500000  -14.000000  26.000000  0
3.500000  -14.000000  26.000000  0
27.000000  -14.500000  25.000000  0
26.000000  -14.500000  25.000000  0
25.000000  -14.500000  25.000000  0
24.000000  -14.500000  25.000000  0
23.000000  -14.500000  25.000000  0
22.000000  -14.500000  25.000000  0
21.000000  -14.500000  25.000000  0
20.000000  -14.500000  25.000000  0
19.000000  -14.500000  25.000000  0
18.000000  -14.500000  25.000000  0
15.000000  -14.500000  25.000000  0
14.000000  -14.500000  25.000000  0
13.000000  -14.500000  25.000000  0
12.500000  -14.000000  25.000000  0
3.000000  -14.000000  25.500000  0
2.000000  -14.000000  25.500000  0
1.500000  -14.000000  25.000000  0
28.500000  -14.000000  24.000000  0
28.000000  -14.000000  24.500000  0
27.000000  -14.000000  24.500000  0
26.000000  -14.000000  24.500000  0
25.000000  -14.000000  24.500000  0
24.000000  -14.000000  24.500000  0
23.000000  -14.000000  24.500000  0
22.000000  -14.000000  24.500000  0
21.000000  -14.000000  24.500000  0
20.000000  -14.000000  24.500000  0
19.000000  -14.000000  24.500000  0
18.000000  -14.000000  24.500000  0
17.000000  -14.000000  24.500000  0
16.000000  -14.000000  24.500000  0
15.000000  -14.000000  24.500000  0
14.000000  -14.000000  24.500000  0
13.000000  -14.000000  24.500000  0
1.500000  -14.000000  24.000000  0
28.500000  -14.000000  23.000000  0
3.000000  -14.500000  23.000000  0
3.500000  -14.000000  23.000000  0
3.000000  -14.000000  23.500000  0
2.000000  -14.000000  23.500000  0
28.500000  -14.000000  22.000000  0
27.500000  -14.000000  22.000000  0
27.000000  -14.000000  22.500000  0
26.000000  -14.000000  22.500000  0
25.000000  -14.000000  22.500000  0
24.000000  -14.000000  22.500000  0
23.000000  -14.500000  22.000000  0
23.000000  -14.000000  22.500000  0
22.500000  -14.000000  22.000000  0
3.000000  -14.500000  22.000000  0
3.500000  -14.000000  22.000000  0
28.000000  -14.000000  21.500000  0
22.000000  -14.000000  21.500000  0
21.500000  -14.000000  21.000000  0
4.000000  -14.500000  21.000000  0
4.500000  -14.000000  21.000000  0
4.000000  -14.000000  21.500000  0
21.000000  -14.000000  20.500000  0
20.000000  -14.500000  20.000000  0
20.000000  -14.000000  20.500000  0
19.500000  -14.000000  20.000000  0
4.000000  -14.500000  20.000000  0
4.500000  -14.000000  20.000000  0
19.500000  -14.000000  19.000000  0
4.500000  -14.000000  19.000000  0
19.000000  -14.500000  18.000000  0
19.000000  -14.000000  18.500000  0
18.000000  -14.500000  18.000000  0
18.000000  -14.000000  18.500000  0
17.500000  -14.000000  18.000000  0
4.500000  -14.000000  18.000000  0
18.000000  -14.500000  17.000000  0
17.500000  -14.000000  17.000000  0
4.500000  -14.000000  17.000000  0
18.000000  -14.500000  16.000000  0
17.500000  -14.000000  16.000000  0
4.500000  -14.000000  16.000000  0
17.000000  -14.500000  15.000000  0
17.000000  -14.000000  15.500000  0
16.000000  -14.500000  15.000000  0
16.000000  -14.000000  15.500000  0
15.500000  -14.000000  15.000000  0
8.500000  -14.000000  15.000000  0
8.000000  -14.000000  15.500000  0
7.000000  -14.000000  15.500000  0
6.000000  -14.000000  15.500000  0
5.000000  -14.000000  15.500000  0
16.000000  -14.500000  14.000000  0
15.500000  -14.000000  14.000000  0
10.500000  -14.000000  14.000000  0
10.000000  -14.000000  14.500000  0
9.000000  -14.000000  14.500000  0
15.000000  -14.000000  13.500000  0
14.000000  -14.000000  13.500000  0
13.000000  -14.000000  13.500000  0
12.000000  -14.000000  13.500000  0
11.000000  -14.000000  13.500000  0
12.500000  -13.000000  30.000000  0
12.000000  -13.000000  30.500000  0
11.000000  -13.500000  30.000000  0
11.000000  -13.000000  30.500000  0
10.000000  -13.500000  30.000000  0
10.000000  -13.000000  30.500000  0
9.000000  -13.500000  30.000000  0
9.000000  -13.000000  30.500000  0
8.500000  -13.000000  30.000000  0
12.500000  -13.000000  29.000000  0
8.000000  -13.000000  29.500000  0
7.000000  -13.000000  29.500000  0
6.000000  -13.000000  29.500000  0
5.000000  -13.000000  29.500000  0
4.500000  -13.000000  29.000000  0
12.500000  -13.000000  28.000000  0
4.500000  -13.000000  28.000000  0
12.500000  -13.000000  27.000000  0
4.000000  -13.000000  27.500000  0
3.500000  -13.000000  27.000000  0
12.500000  -13.000000  26.000000  0
3.500000  -13.000000  26.000000  0
12.500000  -13.000000  25.000000  0
3.000000  -13.000000  25.500000  0
2.000000  -13.500000  25.000000  0
2.500000  -13.000000  25.000000  0
28.500000  -13.000000  24.000000  0
28.000000  -13.000000  24.500000  0
27.000000  -13.000000  24.500000  0
26.000000  -13.000000  24.500000  0
25.000000  -13.000000  24.500000  0
24.000000  -13.000000  24.500000  0
23.000000  -13.000000  24.500000  0
22.000000  -13.000000  24.500000  0
21.000000  -13.000000  24.500000  0
20.000000  -13.000000  24.500000  0
19.000000  -13.000000  24.500000  0
18.000000  -13.000000  24.500000  0
17.000000  -13.000000  24.500000  0
16.000000  -13.000000  24.500000  0
15.000000  -13.000000  24.500000  0
14.000000  -13.000000  24.500000  0
13.000000  -13.000000  24.500000  0
