#!ascii version of 
22910 45852
16844 16827 16829 0
16842 16827 16844 0
16845 16829 16830 0
16844 16829 16845 0
16846 16830 16831 0
16845 16830 16846 0
16847 16831 16832 0
16846 16831 16847 0
16848 16847 16832 0
16849 16848 16832 0
16833 16849 16832 0
16850 16848 16849 0
16837 16331 16851 0
16325 16331 16837 0
16851 16331 16852 0
16852 16331 16333 0
16853 16840 16841 0
16853 16330 16840 0
16853 16855 16330 0
16855 16334 16330 0
16854 16334 16855 0
16334 16854 16335 0
16337 16856 16843 0
16338 16337 16843 0
16842 16338 16843 0
16842 16844 16338 0
16338 16844 16340 0
16844 16845 16340 0
16340 16845 16342 0
16845 16846 16342 0
16342 16846 16344 0
16846 16847 16857 0
16846 16857 16345 0
16846 16345 16344 0
16858 16847 16848 0
16857 16847 16858 0
16850 16858 16848 0
16859 16858 16850 0
16852 16333 16347 0
16861 16852 16347 0
16860 16861 16347 0
16861 16860 16862 0
16863 16854 16855 0
16864 16349 16335 0
16863 16864 16335 0
16854 16863 16335 0
16337 16865 16856 0
16351 16865 16337 0
16355 16345 16866 0
16866 16345 16857 0
16866 16857 16858 0
16867 16866 16858 0
16868 16867 16858 0
16858 16859 16868 0
16860 16347 16356 0
16356 16357 16869 0
16860 16356 16869 0
16862 16860 16869 0
16869 16359 16870 0
16357 16359 16869 0
16870 16359 16361 0
16870 16361 16871 0
16870 16871 16872 0
16362 16871 16361 0
16873 16363 16864 0
16864 16363 16349 0
16874 16363 16873 0
16364 16363 16874 0
16875 16364 16874 0
16365 16364 16875 0
16876 16365 16875 0
16366 16365 16876 0
16351 16877 16865 0
16368 16877 16351 0
16878 16370 16371 0
16371 16372 16880 0
16371 16880 16879 0
16371 16879 16878 0
16881 16880 16372 0
16866 16881 16372 0
16355 16866 16372 0
16866 16867 16881 0
16872 16871 16882 0
16362 16373 16883 0
16362 16883 16882 0
16362 16882 16871 0
16884 16374 16876 0
16876 16374 16366 0
16885 16374 16884 0
16376 16374 16885 0
16887 16877 16368 0
16886 16887 16368 0
16377 16886 16368 0
16377 16378 16889 0
16377 16889 16888 0
16377 16888 16886 0
16890 16889 16378 0
16878 16890 16378 0
16370 16878 16378 0
16878 16879 16890 0
16892 16883 16373 0
16891 16892 16373 0
16380 16891 16373 0
16381 16891 16380 0
16893 16382 16885 0
16885 16382 16376 0
16894 16382 16893 0
16383 16382 16894 0
16895 16383 16894 0
16384 16383 16895 0
16886 16897 16887 0
16896 16897 16886 0
16888 16896 16886 0
16898 16896 16888 0
16891 16900 16892 0
16899 16900 16891 0
16381 16386 16891 0
16891 16386 16899 0
16901 16387 16895 0
16895 16387 16384 0
16902 16387 16901 0
16388 16387 16902 0
16903 16388 16902 0
16389 16388 16903 0
16896 16905 16897 0
16904 16905 16896 0
16898 16904 16896 0
16906 16904 16898 0
16900 16899 16907 0
16390 16908 16907 0
16386 16390 16907 0
16899 16386 16907 0
16908 16391 16909 0
16390 16391 16908 0
16909 16391 16910 0
16910 16391 16392 0
16911 16393 16903 0
16903 16393 16389 0
16394 16393 16911 0
16912 16394 16911 0
16913 16912 16911 0
16394 16912 16396 0
16904 16915 16905 0
16914 16915 16904 0
16906 16914 16904 0
16916 16914 16906 0
16392 16917 16910 0
16398 16917 16392 0
16918 16400 16401 0
16919 16918 16402 0
16402 16918 16401 0
16403 16919 16402 0
16920 16912 16913 0
16920 16921 16404 0
16920 16404 16396 0
16920 16396 16912 0
16922 16404 16921 0
16405 16404 16922 0
16923 16405 16922 0
16406 16405 16923 0
16924 16406 16923 0
16407 16406 16924 0
16925 16407 16924 0
16408 16407 16925 0
16915 16914 16926 0
16914 16916 16926 0
16917 16409 16927 0
16398 16409 16917 0
16927 16410 16928 0
16409 16410 16927 0
16929 16928 16410 0
16918 16929 16410 0
16400 16918 16410 0
16918 16930 16929 0
16919 16930 16918 0
16403 16411 16931 0
16403 16931 16930 0
16403 16930 16919 0
16932 16412 16925 0
16925 16412 16408 0
16933 16412 16932 0
16413 16412 16933 0
16934 16413 16933 0
16414 16413 16934 0
16415 16414 16934 0
16935 16415 16934 0
16936 16935 16934 0
16938 16416 16415 0
16937 16938 16415 0
16935 16937 16415 0
16939 16416 16938 0
16418 16416 16939 0
16941 16421 16940 0
16422 16421 16941 0
16422 16941 16411 0
16411 16941 16931 0
16942 16935 16936 0
16942 16937 16935 0
16943 16423 16939 0
16939 16423 16418 0
16944 16423 16943 0
16424 16423 16944 0
16945 16424 16944 0
16425 16424 16945 0
16946 16425 16945 0
16426 16425 16946 0
16947 16426 16946 0
16427 16426 16947 0
16948 16427 16947 0
16429 16427 16948 0
16949 16429 16948 0
16430 16429 16949 0
16421 16950 16940 0
16431 16950 16421 0
16430 16949 16952 0
16430 16952 16951 0
16430 16951 16432 0
16433 16951 16953 0
16432 16951 16433 0
16433 16953 16434 0
16950 16435 16954 0
16431 16435 16950 0
16954 16436 16955 0
16435 16436 16954 0
16955 16438 16956 0
16436 16438 16955 0
16956 16438 16957 0
16957 16438 16439 0
16952 16959 16951 0
16951 16959 16958 0
16958 16953 16951 0
16960 16953 16958 0
16953 16440 16434 0
16960 16440 16953 0
16957 16441 16961 0
16439 16441 16957 0
16961 16442 16962 0
16441 16442 16961 0
16964 16962 16442 0
16964 16442 16443 0
16964 16443 16963 0
16963 16965 16964 0
16964 16965 16966 0
16966 16965 16967 0
16968 16958 16959 0
16445 16968 16969 0
16445 16958 16968 0
16446 16958 16445 0
16960 16958 16446 0
16446 16440 16960 0
16443 16448 16970 0
16963 16443 16970 0
16971 16963 16970 0
16971 16972 16963 0
16963 16972 16965 0
16972 16967 16965 0
16973 16449 16969 0
16969 16449 16445 0
16450 16449 16973 0
16974 16450 16973 0
16975 16974 16973 0
16450 16974 16452 0
16448 16976 16970 0
16457 16976 16448 0
16978 16977 16979 0
16977 16980 16974 0
16977 16974 16975 0
16977 16975 16979 0
16974 16459 16452 0
16980 16459 16974 0
16982 16460 16981 0
16461 16460 16982 0
16983 16461 16982 0
16462 16461 16983 0
16984 16462 16983 0
16464 16462 16984 0
16469 16468 16985 0
16469 16985 16470 0
16976 16471 16986 0
16457 16471 16976 0
16986 16472 16987 0
16471 16472 16986 0
16987 16472 16988 0
16988 16472 16473 0
16989 16977 16978 0
16990 16980 16977 0
16990 16977 16989 0
16990 16989 16991 0
16980 16475 16459 0
16990 16475 16980 0
16460 16992 16981 0
16476 16992 16460 0
16993 16477 16984 0
16984 16477 16464 0
16994 16477 16993 0
16478 16477 16994 0
16995 16478 16994 0
16479 16478 16995 0
16996 16479 16995 0
16480 16479 16996 0
16481 16480 16996 0
16997 16481 16996 0
16998 16997 16996 0
16997 16999 16985 0
16481 16997 16985 0
16468 16481 16985 0
16985 16999 17000 0
16470 16985 17000 0
16482 16470 17000 0
16482 17000 16483 0
16988 16484 17001 0
16473 16484 16988 0
17001 16485 17002 0
16484 16485 17001 0
17002 16485 16486 0
17002 16486 17003 0
17002 17003 17004 0
17005 17003 16487 0
16487 17003 16486 0
16488 17005 16487 0
17006 16990 16991 0
17006 16475 16990 0
17006 17008 16475 0
17008 16489 16475 0
17007 16489 17008 0
16489 17007 16491 0
16476 17009 16992 0
16492 17009 16476 0
17010 16997 16998 0
17010 17011 16997 0
16997 17011 16999 0
16493 17011 17012 0
16493 16999 17011 0
16494 16999 16493 0
17000 16999 16494 0
16494 16483 17000 0
17004 17003 17013 0
17003 17005 17014 0
17013 17003 17014 0
17015 17013 17014 0
16488 16495 17005 0
17005 16495 17014 0
17008 17017 17007 0
17007 17017 17016 0
17007 17016 17018 0
16491 17007 17018 0
16496 16491 17018 0
16496 17018 16497 0
16492 17019 17009 0
16498 17019 16492 0
16493 17012 17021 0
16493 17021 17020 0
16493 17020 16499 0
16499 17020 16500 0
17015 17014 17022 0
16501 17023 17022 0
16495 16501 17022 0
17014 16495 17022 0
17023 16502 17024 0
16501 16502 17023 0
17024 16503 17025 0
16502 16503 17024 0
17025 16503 17026 0
17026 16503 16504 0
17027 17016 17017 0
17028 17018 17016 0
17028 17016 17027 0
17028 17027 17029 0
17018 16505 16497 0
17028 16505 17018 0
17019 16498 16506 0
17031 17019 16506 0
17030 17031 16506 0
17031 17030 17032 0
17033 17020 17021 0
17034 16507 16500 0
17033 17034 16500 0
17020 17033 16500 0
16504 17035 17026 0
16509 17035 16504 0
17029 17036 16510 0
17029 16510 16511 0
17029 16511 17028 0
16511 16505 17028 0
17037 16506 16512 0
17030 16506 17037 0
17030 17037 17032 0
17032 17037 17038 0
16514 17034 17039 0
16507 17034 16514 0
16516 16515 17040 0
16516 17040 16517 0
17042 16518 17041 0
16519 16518 17042 0
17043 16519 17042 0
16520 16519 17043 0
17044 16520 17043 0
16521 16520 17044 0
17045 16521 17044 0
16522 16521 17045 0
16522 17045 16509 0
16509 17045 17035 0
16523 17036 17046 0
16510 17036 16523 0
17037 16512 16525 0
16525 16527 17047 0
17037 16525 17047 0
17038 17037 17047 0
17047 16527 17048 0
17048 16527 16528 0
17050 17049 17051 0
17051 17049 17052 0
17053 16529 17039 0
17039 16529 16514 0
16529 17053 17054 0
16529 17054 17040 0
16529 17040 16515 0
17055 16530 16517 0
17054 17055 16517 0
17040 17054 16517 0
17057 16531 17056 0
16532 16531 17057 0
17058 16532 17057 0
16533 16532 17058 0
16533 17058 16518 0
16518 17058 17041 0
16534 17046 17059 0
16523 17046 16534 0
17048 16528 16537 0
17061 17048 16537 0
17060 17061 16537 0
17060 17062 17049 0
17060 17049 17050 0
17060 17050 17061 0
17049 17062 17052 0
17052 17062 17063 0
16538 17055 17064 0
16530 17055 16538 0
16531 17065 17056 0
16539 17065 16531 0
17067 17066 17068 0
16540 16534 17059 0
17066 16540 17059 0
17068 17066 17059 0
17069 16537 16542 0
17060 16537 17069 0
17069 17062 17060 0
17070 17062 17069 0
17062 17070 17071 0
17062 17071 17072 0
17062 17072 17063 0
17071 17073 17072 0
17072 17073 17074 0
17073 17075 17074 0
17074 17075 17076 0
17075 17077 17076 0
17076 17077 17078 0
17078 17077 17079 0
17080 16543 17064 0
17064 16543 16538 0
17081 16543 17080 0
16545 16543 17081 0
16545 17081 17083 0
16546 16545 17083 0
17082 16546 17083 0
17084 17082 17083 0
17086 16547 17085 0
16548 16547 17086 0
16548 17086 16539 0
16539 17086 17065 0
17087 16549 17088 0
17088 16549 16550 0
17088 16550 16551 0
17067 17088 16551 0
17066 17067 16551 0
16551 16540 17066 0
17089 16542 16553 0
17069 16542 17089 0
17089 17070 17069 0
17090 17070 17089 0
17090 17071 17070 0
17091 17071 17090 0
17091 17073 17071 0
17092 17073 17091 0
17092 17075 17073 0
17093 17075 17092 0
17093 17077 17075 0
17094 17077 17093 0
17077 17094 17095 0
17077 17095 17096 0
17077 17096 17079 0
17096 17095 17097 0
16554 16546 17082 0
17084 17098 16555 0
17082 17084 16555 0
16554 17082 16555 0
17100 16557 17099 0
16558 16557 17100 0
17101 16558 17100 0
16559 16558 17101 0
17102 16559 17101 0
16560 16559 17102 0
16560 17102 16547 0
16547 17102 17085 0
16562 17087 17103 0
16549 17087 16562 0
17089 16553 16563 0
17104 17090 17089 0
16564 17104 17089 0
16563 16564 17089 0
17104 17091 17090 0
17105 17091 17104 0
17105 17092 17091 0
17106 17092 17105 0
17106 17093 17092 0
17107 17093 17106 0
17107 17094 17093 0
17108 17094 17107 0
17108 17095 17094 0
17109 17095 17108 0
17095 17109 17110 0
17095 17110 17111 0
17095 17111 17097 0
17111 17110 17112 0
17113 16568 17098 0
17098 16568 16555 0
16568 17113 17115 0
16569 16568 17115 0
17114 16569 17115 0
17116 17114 17115 0
17118 16571 17117 0
16572 16571 17118 0
17119 16572 17118 0
16574 16572 17119 0
16574 17119 16557 0
16557 17119 17099 0
17120 16576 17121 0
17121 16576 16577 0
16562 17121 16577 0
17103 17121 16562 0
17122 16564 16578 0
17104 16564 17122 0
17122 17105 17104 0
17123 17105 17122 0
17123 17106 17105 0
17124 17106 17123 0
17124 17107 17106 0
17125 17107 17124 0
17125 17108 17107 0
17126 17108 17125 0
17126 17109 17108 0
17127 17109 17126 0
17127 17110 17109 0
17128 17110 17127 0
17110 17128 17112 0
17112 17128 17129 0
16581 16569 17114 0
17131 17114 17116 0
17131 17130 17114 0
17130 16581 17114 0
16582 16581 17130 0
17131 17132 17130 0
17133 17132 17131 0
17134 17132 17133 0
17137 17135 17136 0
17137 17138 16584 0
17135 17137 16584 0
16583 17135 16584 0
16585 16584 17138 0
17139 16585 17138 0
17140 17139 17138 0
17142 16586 16585 0
17141 17142 16585 0
17139 17141 16585 0
17143 16586 17142 0
16587 16586 17143 0
16587 17143 16571 0
16571 17143 17117 0
16589 17120 17144 0
16576 17120 16589 0
17122 16578 16591 0
16591 17123 17122 0
16593 17123 16591 0
16593 17124 17123 0
16595 17124 16593 0
17145 17125 17124 0
16596 17145 17124 0
16595 16596 17124 0
17145 17126 17125 0
17146 17126 17145 0
17146 17127 17126 0
17147 17127 17146 0
17147 17128 17127 0
17148 17128 17147 0
17128 17148 17149 0
17128 17149 17150 0
17128 17150 17129 0
17150 17149 17151 0
16597 16582 17130 0
17130 17132 16597 0
16597 17132 16598 0
17152 16599 16598 0
17152 16598 17132 0
17152 17132 17134 0
17153 16599 17152 0
16600 16599 17153 0
17154 16600 17153 0
16601 16600 17154 0
17157 17155 17156 0
17158 17155 17157 0
17161 17159 17160 0
17161 17162 17159 0
17163 17162 17161 0
17136 17162 17163 0
17136 17135 17162 0
17135 16602 17162 0
16603 16602 17135 0
17135 16583 16603 0
17164 17139 17140 0
17164 17141 17139 0
17165 16604 17166 0
17166 16604 16605 0
16589 17166 16605 0
17144 17166 16589 0
17145 16596 16609 0
16609 17146 17145 0
16611 17146 16609 0
17167 17147 17146 0
16612 17167 17146 0
16611 16612 17146 0
17167 17148 17147 0
17168 17148 17167 0
17168 17149 17148 0
17169 17149 17168 0
17149 17169 17151 0
17151 17169 17170 0
17171 16613 17154 0
17154 16613 16601 0
16614 16613 17171 0
16614 17171 17156 0
16614 17156 17155 0
17172 16615 16614 0
17172 16614 17155 0
17172 17155 17158 0
16616 16615 17172 0
16616 17172 17160 0
16616 17160 17159 0
17159 17162 16616 0
16616 17162 16617 0
17162 16602 16617 0
17173 16619 17174 0
17174 16619 16620 0
17174 16621 17175 0
16620 16621 17174 0
16604 17175 16621 0
17165 17175 16604 0
17167 16612 16627 0
17176 17168 17167 0
16628 17176 17167 0
16627 16628 17167 0
17169 17168 17176 0
17169 17176 17177 0
17169 17177 17178 0
17178 17170 17169 0
17179 16629 17180 0
17180 16629 16630 0
16619 17180 16630 0
17173 17180 16619 0
17181 16628 16634 0
17176 16628 17181 0
17176 17181 17177 0
17177 17181 17182 0
17183 16635 17184 0
17184 16635 16636 0
17184 16637 17185 0
16636 16637 17184 0
17185 16638 17186 0
16637 16638 17185 0
17186 16639 17187 0
16638 16639 17186 0
16629 17187 16639 0
17179 17187 16629 0
17181 16634 16643 0
16644 17188 17182 0
16644 17182 17181 0
16644 17181 16643 0
16645 17183 17189 0
16635 17183 16645 0
16647 16646 17190 0
17192 16648 16647 0
17191 17192 16647 0
17190 17191 16647 0
16648 17192 16644 0
16644 17192 17188 0
16649 17189 17193 0
16645 17189 16649 0
17194 16646 16650 0
17190 16646 17194 0
17190 17194 17191 0
17191 17194 17195 0
16651 16649 17193 0
16651 17193 17197 0
16651 17197 17196 0
17198 17196 17197 0
17199 16650 16652 0
17194 16650 17199 0
17194 17199 17195 0
17195 17199 17200 0
16653 16651 17196 0
17198 17201 16654 0
17196 17198 16654 0
16653 17196 16654 0
16652 16655 17202 0
17199 16652 17202 0
17203 17199 17202 0
17203 17200 17199 0
16656 17201 17204 0
16654 17201 16656 0
17202 16657 17205 0
16655 16657 17202 0
17205 16659 17206 0
16657 16659 17205 0
17208 17206 16659 0
17208 16659 16660 0
17208 16660 17207 0
17208 17207 17209 0
17210 16662 17211 0
17211 16662 16663 0
17211 16664 17212 0
16663 16664 17211 0
17212 16665 17213 0
16664 16665 17212 0
16656 17213 16665 0
17204 17213 16656 0
17207 16660 16667 0
17207 17215 17209 0
17207 16667 17215 0
16667 17214 17215 0
16668 17214 16667 0
17214 17216 17215 0
17215 17216 17217 0
17216 17218 17217 0
17217 17218 17219 0
17218 17220 17219 0
17219 17220 17221 0
17221 17220 17222 0
17224 17223 17225 0
17223 17226 17225 0
17225 17226 17227 0
17226 17228 17227 0
17227 17228 17229 0
17228 17230 17229 0
17229 17230 17231 0
17230 17232 17231 0
17231 17232 17233 0
16671 17234 17233 0
16671 17233 17232 0
16671 17232 16670 0
17234 16673 17235 0
16671 16673 17234 0
17235 16675 17236 0
16673 16675 17235 0
17236 16677 17237 0
16675 16677 17236 0
17237 16679 17238 0
16677 16679 17237 0
17238 16681 17239 0
16679 16681 17238 0
17239 16683 17240 0
16681 16683 17239 0
17242 17240 16683 0
17242 16683 16684 0
17242 16684 17241 0
17242 17241 17243 0
17244 16688 17245 0
17245 16688 16689 0
17245 16690 17246 0
16689 16690 17245 0
17246 16691 17247 0
16690 16691 17246 0
17247 16692 17248 0
16691 16692 17247 0
17248 16693 17249 0
16692 16693 17248 0
16662 17249 16693 0
17210 17249 16662 0
17214 16668 16696 0
16696 17216 17214 0
16698 17216 16696 0
16698 17218 17216 0
16700 17218 16698 0
16700 17220 17218 0
16701 17220 16700 0
16701 16702 17250 0
17220 16701 17250 0
17222 17220 17250 0
17250 16703 17251 0
16702 16703 17250 0
17251 16704 17252 0
16703 16704 17251 0
17252 16704 16706 0
17224 17252 16706 0
17223 17224 16706 0
16706 17226 17223 0
16708 17226 16706 0
16708 17228 17226 0
16710 17228 16708 0
16710 17230 17228 0
16711 17230 16710 0
16711 17232 17230 0
16712 17232 16711 0
16712 16670 17232 0
17241 16684 16717 0
16717 16718 17253 0
17241 16717 17253 0
17243 17241 17253 0
17253 16719 17254 0
16718 16719 17253 0
17254 16720 17255 0
16719 16720 17254 0
17255 16721 17256 0
16720 16721 17255 0
17256 16722 17257 0
16721 16722 17256 0
17257 16723 17258 0
16722 16723 17257 0
17258 16724 17259 0
16723 16724 17258 0
16688 17259 16724 0
17244 17259 16688 0
16729 16728 17260 0
17262 16730 16729 0
17261 17262 16729 0
17260 17261 16729 0
16731 16730 17262 0
17263 16731 17262 0
17264 17263 17262 0
16732 17263 17265 0
16731 17263 16732 0
16732 17265 16733 0
16728 16735 17266 0
17260 16728 17266 0
17267 17260 17266 0
17267 17261 17260 0
17268 17263 17264 0
17268 17269 17263 0
17263 17269 17265 0
17269 16733 17265 0
17269 17271 16733 0
17271 16736 16733 0
17270 16736 17271 0
16736 17270 16737 0
17273 16739 17272 0
16740 16739 17273 0
16740 17273 16735 0
16735 17273 17266 0
17274 17270 17271 0
17274 16737 17270 0
17274 17276 16737 0
17276 16741 16737 0
17275 16741 17276 0
16742 17275 17277 0
16741 17275 16742 0
16742 17277 16743 0
16739 17278 17272 0
16745 17278 16739 0
17279 17275 17276 0
17280 17277 17275 0
17280 17275 17279 0
17280 17279 17281 0
17277 16746 16743 0
17280 16746 17277 0
17283 16748 17282 0
16749 16748 17283 0
16749 17283 16745 0
16745 17283 17278 0
17284 17280 17281 0
17284 16746 17280 0
17284 17286 16746 0
17286 16750 16746 0
17285 16750 17286 0
16751 17285 17287 0
16750 17285 16751 0
16751 17287 16752 0
16755 16754 17288 0
16756 17288 17289 0
16755 17288 16756 0
16757 17289 17290 0
16756 17289 16757 0
17291 17282 16748 0
17291 16748 16757 0
17291 16757 17290 0
17292 16759 16760 0
16761 17292 16760 0
17293 17285 17286 0
17294 17287 17285 0
17294 17285 17293 0
17294 17293 17295 0
17287 16762 16752 0
17294 16762 17287 0
16765 16764 17296 0
16766 17296 17297 0
16765 17296 16766 0
17297 17298 17288 0
16766 17297 17288 0
16754 16766 17288 0
17289 17288 17298 0
17289 17298 17299 0
17289 17299 17300 0
17300 17301 17289 0
17289 17301 17290 0
17301 17291 17290 0
16767 16759 17302 0
17302 16759 17292 0
17292 17303 17302 0
17292 17304 17303 0
16761 17304 17292 0
16768 17304 16761 0
17304 16769 17305 0
16768 16769 17304 0
17305 16769 17306 0
17306 16769 16770 0
17307 17294 17295 0
17307 17308 16771 0
17307 16771 16762 0
17307 16762 17294 0
17309 16771 17308 0
16772 16771 17309 0
16764 16773 17310 0
17296 16764 17310 0
17311 17296 17310 0
17311 17312 17296 0
17296 17312 17297 0
17312 17313 17297 0
17297 17313 17298 0
17313 17299 17298 0
16774 16767 17314 0
17314 16767 17302 0
17303 17314 17302 0
17315 17314 17303 0
16770 17316 17306 0
16775 17316 16770 0
17317 16776 17309 0
17309 16776 16772 0
17318 16776 17317 0
16777 16776 17318 0
16773 17319 17310 0
16778 17319 16773 0
16779 16774 17320 0
17320 16774 17314 0
17315 17320 17314 0
17321 17320 17315 0
17316 16775 16780 0
17323 17316 16780 0
17322 17323 16780 0
17323 17322 17324 0
16777 17318 17326 0
16777 17326 17325 0
16777 17325 16783 0
16783 17325 16784 0
16778 17327 17319 0
16785 17327 16778 0
16786 16779 17328 0
17328 16779 17320 0
17321 17328 17320 0
17329 17328 17321 0
17330 16780 16788 0
17322 16780 17330 0
17322 17330 17331 0
17322 17331 17332 0
17322 17332 17324 0
17332 17331 17333 0
17326 17335 17325 0
17325 17335 17334 0
17325 17334 17336 0
16784 17325 17336 0
16792 16784 17336 0
16792 17336 16793 0
16785 17337 17327 0
16795 17337 16785 0
16802 16786 17328 0
17329 17338 16803 0
17328 17329 16803 0
16802 17328 16803 0
17330 16788 16804 0
16804 17331 17330 0
16805 17331 16804 0
17333 17339 17340 0
17333 16806 17339 0
17331 16806 17333 0
16805 16806 17331 0
16808 17339 16806 0
17342 17341 17343 0
17343 17341 17344 0
17345 17334 17335 0
17345 17346 17334 0
17334 17346 17336 0
17346 17347 16809 0
17346 16809 16793 0
17346 16793 17336 0
17348 16809 17347 0
16810 16809 17348 0
16795 17349 17337 0
16812 17349 16795 0
17350 16818 16819 0
17338 16819 16803 0
17338 17350 16819 0
17352 17350 17338 0
17351 17350 17352 0
17353 17351 17352 0
17340 17339 17354 0
17354 17355 17356 0
17354 17339 17355 0
17339 16820 17355 0
16808 16820 17339 0
17342 17357 17341 0
17357 16821 17341 0
17357 17355 16821 0
17355 16820 16821 0
16821 16822 17358 0
17341 16821 17358 0
17344 17341 17358 0
17358 16822 17359 0
17359 16822 16823 0
17360 16824 17348 0
17348 16824 16810 0
16825 16824 17360 0
17361 16825 17360 0
17362 17361 17360 0
16825 17361 16826 0
16812 17363 17349 0
16828 17363 16812 0
17364 16833 16834 0
17365 17364 16835 0
16835 17364 16834 0
16835 16836 17367 0
16835 17367 17366 0
16835 17366 17365 0
17367 16836 17369 0
16836 17368 17369 0
16836 16818 17368 0
16818 17350 17368 0
17370 17350 17351 0
17368 17350 17370 0
17353 17370 17351 0
17371 17370 17353 0
17356 17355 17372 0
17355 17357 17372 0
16823 17373 17359 0
16837 17373 16823 0
17374 17361 17362 0
17374 16826 17361 0
17374 17376 16826 0
17376 16838 16826 0
17375 16838 17376 0
16839 17375 17377 0
16838 17375 16839 0
16839 17377 16841 0
16828 17378 17363 0
16843 17378 16828 0
16849 16833 17364 0
17364 17365 17379 0
17364 17379 16850 0
17364 16850 16849 0
17366 17379 17365 0
17380 17379 17366 0
17369 17368 17381 0
17368 17382 17381 0
17370 17382 17368 0
17370 17371 17382 0
17384 17373 16837 0
17383 17384 16837 0
16851 17383 16837 0
16852 17383 16851 0
17385 17375 17376 0
17385 17386 17375 0
17375 17386 17377 0
17386 17387 16853 0
17386 16853 16841 0
17386 16841 17377 0
17388 16853 17387 0
16855 16853 17388 0
16843 17389 17378 0
16856 17389 16843 0
16859 16850 17390 0
17390 16850 17379 0
17380 17390 17379 0
17391 17390 17380 0
17384 17383 17392 0
16861 17393 17392 0
16852 16861 17392 0
17383 16852 17392 0
17393 16861 17394 0
17394 16861 16862 0
17395 16863 17388 0
17388 16863 16855 0
17396 16863 17395 0
16864 16863 17396 0
16856 17397 17389 0
16865 17397 16856 0
17398 16867 16868 0
17399 17390 17400 0
17399 17398 17390 0
17398 16859 17390 0
16868 16859 17398 0
17390 17391 17400 0
17394 16869 17401 0
16862 16869 17394 0
17401 16870 17402 0
16869 16870 17401 0
17402 16870 17403 0
17403 16870 16872 0
17404 16873 17396 0
17396 16873 16864 0
17405 16873 17404 0
16874 16873 17405 0
16875 16874 17405 0
17406 16875 17405 0
17407 17406 17405 0
16875 17406 16876 0
16865 17408 17397 0
16877 17408 16865 0
17409 16879 17410 0
17410 16879 16880 0
17410 16881 17411 0
16880 16881 17410 0
17412 17411 16881 0
17398 17412 16881 0
16867 17398 16881 0
17398 17399 17412 0
17403 16882 17413 0
16872 16882 17403 0
17413 16882 17414 0
17414 16882 16883 0
17415 17406 17407 0
17415 17416 16884 0
17415 16884 16876 0
17415 16876 17406 0
17417 16884 17416 0
16885 16884 17417 0
16877 17418 17408 0
16887 17418 16877 0
17419 16888 17420 0
17420 16888 16889 0
17420 16890 17421 0
16889 16890 17420 0
16879 17421 16890 0
17409 17421 16879 0
16883 17422 17414 0
16892 17422 16883 0
17423 16893 17417 0
17417 16893 16885 0
16894 16893 17423 0
17424 16894 17423 0
17425 17424 17423 0
16894 17424 16895 0
16887 17426 17418 0
16897 17426 16887 0
16898 17419 17427 0
16888 17419 16898 0
16892 17428 17422 0
16900 17428 16892 0
17429 17424 17425 0
17429 17430 16901 0
17429 16901 16895 0
17429 16895 17424 0
17431 16901 17430 0
16902 16901 17431 0
17432 16902 17431 0
16903 16902 17432 0
16897 17433 17426 0
16905 17433 16897 0
16906 16898 17427 0
16906 17427 17435 0
16906 17435 17434 0
17435 17436 17434 0
17437 17436 17435 0
17438 17436 17437 0
17428 16907 17439 0
16900 16907 17428 0
17439 16908 17440 0
16907 16908 17439 0
17440 16909 17441 0
16908 16909 17440 0
17441 16909 17442 0
17442 16909 16910 0
16903 17432 17444 0
16903 17444 17443 0
16903 17443 16911 0
16911 17443 16913 0
16905 17445 17433 0
16915 17445 16905 0
16916 16906 17446 0
17446 16906 17434 0
17447 17434 17436 0
17446 17434 17447 0
17448 17447 17436 0
17449 17448 17436 0
17438 17449 17436 0
17450 17448 17449 0
17442 16910 16917 0
17452 17442 16917 0
17451 17452 16917 0
17452 17451 17453 0
17454 17443 17444 0
17454 17455 16920 0
17454 16920 16913 0
17454 16913 17443 0
17456 16920 17455 0
16921 16920 17456 0
17457 16921 17456 0
16922 16921 17457 0
17458 16922 17457 0
16923 16922 17458 0
16924 16923 17458 0
17459 16924 17458 0
17460 17459 17458 0
16924 17459 16925 0
17445 16926 17461 0
16915 16926 17445 0
17462 17461 16926 0
17446 17462 16926 0
16916 17446 16926 0
17446 17463 17462 0
17447 17463 17446 0
17447 17464 17463 0
17448 17464 17447 0
17448 17450 17464 0
17451 16917 16927 0
16927 16928 17465 0
17451 16927 17465 0
17453 17451 17465 0
17465 16928 16929 0
17465 16929 17466 0
17465 17466 17467 0
17468 17466 16930 0
16930 17466 16929 0
16931 17468 16930 0
17469 17459 17460 0
17469 17470 16932 0
17469 16932 16925 0
17469 16925 17459 0
17471 16932 17470 0
16933 16932 17471 0
16934 16933 17471 0
17472 16934 17471 0
17473 17472 17471 0
16934 17472 16936 0
16938 16937 17474 0
16938 17474 16939 0
17467 17466 17475 0
17466 17477 17475 0
17468 17477 17466 0
16940 17476 16941 0
17479 16931 17478 0
17479 17477 16931 0
17477 17468 16931 0
17478 16931 17476 0
17476 16931 16941 0
17479 17478 17480 0
17481 17472 17473 0
17481 17482 16942 0
17481 16942 16936 0
17481 16936 17472 0
16942 17482 17483 0
16942 17483 17474 0
16942 17474 16937 0
17483 17484 16943 0
17483 16943 16939 0
17483 16939 17474 0
17485 16943 17484 0
16944 16943 17485 0
17486 16944 17485 0
16945 16944 17486 0
17487 16945 17486 0
16946 16945 17487 0
17488 16946 17487 0
16947 16946 17488 0
17489 16947 17488 0
16948 16947 17489 0
17490 16948 17489 0
16949 16948 17490 0
16940 16950 17491 0
17476 16940 17491 0
17492 17476 17491 0
17493 17478 17476 0
17493 17476 17492 0
17493 17492 17494 0
17478 17493 17480 0
17480 17493 17495 0
16952 17490 17496 0
16949 17490 16952 0
17491 16954 17497 0
16950 16954 17491 0
17497 16954 16955 0
17494 17497 16955 0
17493 17494 16955 0
16955 16956 17498 0
17493 16955 17498 0
17495 17493 17498 0
17498 16956 17499 0
17499 16956 16957 0
16959 17496 17500 0
16952 17496 16959 0
17499 16961 17501 0
16957 16961 17499 0
17501 16962 17502 0
16961 16962 17501 0
17502 16964 17503 0
16962 16964 17502 0
17503 16966 17504 0
16964 16966 17503 0
17504 16966 17505 0
17505 16966 16967 0
16959 17500 17507 0
16959 17507 17506 0
16959 17506 16968 0
16968 17506 16969 0
17509 16970 17508 0
16971 16970 17509 0
17510 16971 17509 0
16972 16971 17510 0
16972 17510 16967 0
16967 17510 17505 0
17512 17511 17513 0
17511 17514 17506 0
17511 17506 17507 0
17511 17507 17513 0
17506 17514 17515 0
16969 17506 17515 0
16973 16969 17515 0
16973 17515 16975 0
16970 17516 17508 0
16976 17516 16970 0
17512 17518 17511 0
17511 17518 17517 0
17517 17514 17511 0
17519 17514 17517 0
17515 17514 17519 0
16979 17515 17519 0
16978 16979 17519 0
16979 16975 17515 0
16982 16981 17520 0
16983 17520 17521 0
16982 17520 16983 0
16983 17521 16984 0
17523 17516 16976 0
17522 17523 16976 0
16986 17522 16976 0
17524 17522 16987 0
16987 17522 16986 0
16988 17524 16987 0
17525 17517 17518 0
17526 17519 17517 0
17526 17517 17525 0
17526 17525 17527 0
17519 17526 17528 0
16978 17519 17528 0
16989 16978 17528 0
16989 17528 16991 0
17529 16981 16992 0
17520 16981 17529 0
17529 17521 17520 0
17530 17521 17529 0
17521 17530 17531 0
16984 17521 17531 0
16993 16984 17531 0
16994 17531 17532 0
16993 17531 16994 0
16995 17532 17533 0
16994 17532 16995 0
16996 17533 17534 0
16995 17533 16996 0
16996 17534 16998 0
17523 17522 17535 0
17522 17536 17535 0
17524 17536 17522 0
17001 17537 17536 0
16988 17001 17536 0
17524 16988 17536 0
17537 17002 17538 0
17001 17002 17537 0
17538 17002 17539 0
17539 17002 17004 0
17540 17526 17527 0
17540 17541 17526 0
17526 17541 17528 0
17541 16991 17528 0
17541 17543 16991 0
17543 17006 16991 0
17542 17006 17543 0
17006 17542 17008 0
17544 16992 17009 0
17529 16992 17544 0
17544 17530 17529 0
17545 17530 17544 0
17545 17531 17530 0
17546 17531 17545 0
17546 17532 17531 0
17547 17532 17546 0
17547 17533 17532 0
17548 17533 17547 0
17548 17534 17533 0
17549 17534 17548 0
17534 17549 17550 0
16998 17534 17550 0
17010 16998 17550 0
17011 17550 17551 0
17010 17550 17011 0
17011 17551 17012 0
17539 17013 17552 0
17004 17013 17539 0
17552 17013 17553 0
17553 17013 17015 0
17554 17542 17543 0
17555 17017 17008 0
17554 17555 17008 0
17542 17554 17008 0
17556 17009 17019 0
17544 17009 17556 0
17556 17545 17544 0
17557 17545 17556 0
17557 17546 17545 0
17558 17546 17557 0
17558 17547 17546 0
17559 17547 17558 0
17559 17548 17547 0
17560 17548 17559 0
17549 17548 17560 0
17549 17560 17561 0
17549 17561 17562 0
17562 17563 17549 0
17549 17563 17550 0
17564 17551 17550 0
17564 17550 17563 0
17564 17563 17565 0
17551 17021 17012 0
17564 17021 17551 0
17553 17022 17566 0
17015 17022 17553 0
17566 17022 17023 0
17566 17023 17567 0
17566 17567 17568 0
17569 17567 17024 0
17024 17567 17023 0
17570 17569 17025 0
17025 17569 17024 0
17026 17570 17025 0
17017 17555 17572 0
17017 17572 17571 0
17017 17571 17027 0
17027 17571 17029 0
17556 17019 17031 0
17573 17557 17556 0
17032 17573 17556 0
17031 17032 17556 0
17573 17558 17557 0
17574 17558 17573 0
17574 17559 17558 0
17575 17559 17574 0
17575 17560 17559 0
17576 17560 17575 0
17560 17576 17561 0
17561 17576 17577 0
17565 17579 17564 0
17564 17579 17578 0
17564 17578 17580 0
17021 17564 17580 0
17033 17021 17580 0
17033 17580 17034 0
17583 17581 17582 0
17567 17584 17581 0
17568 17567 17581 0
17583 17568 17581 0
17585 17567 17569 0
17584 17567 17585 0
17586 17569 17570 0
17585 17569 17586 0
17026 17035 17570 0
17570 17035 17586 0
17572 17588 17571 0
17571 17588 17587 0
17571 17036 17029 0
17587 17036 17571 0
17589 17032 17038 0
17573 17032 17589 0
17589 17574 17573 0
17590 17574 17589 0
17590 17575 17574 0
17591 17575 17590 0
17576 17575 17591 0
17576 17591 17592 0
17576 17592 17593 0
17593 17577 17576 0
17594 17578 17579 0
17595 17580 17578 0
17595 17578 17594 0
17595 17594 17596 0
17580 17039 17034 0
17595 17039 17580 0
17599 17597 17598 0
17599 17600 17597 0
17601 17600 17599 0
17582 17600 17601 0
17582 17581 17600 0
17581 17041 17600 0
17042 17041 17581 0
17581 17584 17042 0
17042 17584 17043 0
17584 17585 17043 0
17043 17585 17044 0
17585 17586 17044 0
17044 17586 17045 0
17586 17035 17045 0
17588 17603 17587 0
17587 17603 17602 0
17587 17046 17036 0
17602 17046 17587 0
17589 17038 17047 0
17604 17590 17589 0
17048 17604 17589 0
17047 17048 17589 0
17591 17590 17604 0
17051 17591 17604 0
17050 17051 17604 0
17052 17605 17592 0
17052 17592 17591 0
17052 17591 17051 0
17596 17607 17595 0
17595 17607 17606 0
17595 17606 17608 0
17039 17595 17608 0
17053 17039 17608 0
17054 17608 17609 0
17053 17608 17054 0
17054 17609 17055 0
17056 17610 17598 0
17057 17056 17598 0
17597 17057 17598 0
17597 17600 17057 0
17057 17600 17058 0
17600 17041 17058 0
17603 17612 17602 0
17602 17612 17611 0
17602 17059 17046 0
17611 17059 17602 0
17604 17048 17061 0
17061 17050 17604 0
17052 17613 17605 0
17063 17613 17052 0
17614 17606 17607 0
17614 17615 17606 0
17606 17615 17608 0
17615 17616 17608 0
17608 17616 17609 0
17617 17064 17055 0
17616 17617 17055 0
17609 17616 17055 0
17620 17618 17619 0
17610 17056 17065 0
17610 17065 17618 0
17610 17618 17620 0
17622 17621 17623 0
17621 17612 17623 0
17621 17067 17612 0
17067 17611 17612 0
17068 17611 17067 0
17068 17059 17611 0
17613 17072 17624 0
17063 17072 17613 0
17624 17074 17625 0
17072 17074 17624 0
17625 17076 17626 0
17074 17076 17625 0
17626 17078 17627 0
17076 17078 17626 0
17627 17078 17628 0
17628 17078 17079 0
17629 17080 17617 0
17617 17080 17064 0
17630 17080 17629 0
17081 17080 17630 0
17631 17081 17630 0
17083 17081 17631 0
17632 17083 17631 0
17084 17083 17632 0
17635 17633 17634 0
17619 17633 17635 0
17619 17618 17633 0
17618 17085 17633 0
17086 17085 17618 0
17618 17065 17086 0
17622 17636 17087 0
17622 17087 17088 0
17622 17088 17621 0
17088 17067 17621 0
17638 17628 17079 0
17637 17638 17079 0
17096 17637 17079 0
17097 17637 17096 0
17098 17084 17632 0
17098 17632 17640 0
17098 17640 17639 0
17641 17639 17640 0
17643 17099 17642 0
17100 17099 17643 0
17644 17100 17643 0
17101 17100 17644 0
17102 17101 17644 0
17102 17644 17634 0
17102 17634 17633 0
17633 17085 17102 0
17103 17636 17645 0
17087 17636 17103 0
17638 17637 17646 0
17111 17647 17646 0
17097 17111 17646 0
17637 17097 17646 0
17647 17111 17648 0
17648 17111 17112 0
17113 17098 17639 0
17649 17115 17113 0
17649 17113 17639 0
17649 17639 17641 0
17115 17649 17651 0
17116 17115 17651 0
17650 17116 17651 0
17652 17650 17651 0
17655 17653 17654 0
17655 17656 17653 0
17657 17656 17655 0
17657 17658 17656 0
17659 17658 17657 0
17659 17660 17118 0
17658 17659 17118 0
17117 17658 17118 0
17661 17118 17660 0
17119 17118 17661 0
17119 17661 17099 0
17099 17661 17642 0
17662 17120 17663 0
17663 17120 17121 0
17103 17663 17121 0
17645 17663 17103 0
17112 17664 17648 0
17129 17664 17112 0
17131 17116 17650 0
17665 17133 17131 0
17665 17131 17650 0
17665 17650 17652 0
17133 17665 17667 0
17134 17133 17667 0
17666 17134 17667 0
17667 17668 17666 0
17669 17668 17667 0
17669 17670 17668 0
17671 17670 17669 0
17672 17670 17671 0
17675 17673 17674 0
17675 17676 17673 0
17677 17676 17675 0
17677 17678 17137 0
17676 17677 17137 0
17136 17676 17137 0
17679 17137 17678 0
17138 17137 17679 0
17680 17654 17653 0
17680 17679 17654 0
17140 17679 17680 0
17138 17679 17140 0
17680 17653 17656 0
17680 17656 17142 0
17680 17142 17141 0
17656 17658 17142 0
17142 17658 17143 0
17658 17117 17143 0
17144 17662 17681 0
17120 17662 17144 0
17683 17664 17129 0
17682 17683 17129 0
17150 17682 17129 0
17151 17682 17150 0
17152 17134 17666 0
17666 17668 17152 0
17152 17668 17153 0
17668 17670 17684 0
17668 17684 17154 0
17668 17154 17153 0
17685 17157 17672 0
17157 17670 17672 0
17157 17156 17670 0
17156 17684 17670 0
17157 17685 17687 0
17158 17157 17687 0
17686 17158 17687 0
17674 17686 17687 0
17674 17673 17686 0
17673 17160 17686 0
17161 17160 17673 0
17673 17676 17161 0
17161 17676 17163 0
17676 17136 17163 0
17164 17140 17680 0
17680 17141 17164 0
17688 17165 17689 0
17689 17165 17166 0
17144 17689 17166 0
17681 17689 17144 0
17682 17691 17683 0
17690 17691 17682 0
17151 17170 17682 0
17682 17170 17690 0
17171 17154 17684 0
17684 17156 17171 0
17172 17158 17686 0
17686 17160 17172 0
17692 17173 17693 0
17693 17173 17174 0
17693 17175 17694 0
17174 17175 17693 0
17165 17694 17175 0
17688 17694 17165 0
17177 17695 17691 0
17178 17177 17691 0
17690 17178 17691 0
17690 17170 17178 0
17696 17179 17697 0
17697 17179 17180 0
17173 17697 17180 0
17692 17697 17173 0
17177 17698 17695 0
17182 17698 17177 0
17699 17183 17184 0
17700 17699 17185 0
17185 17699 17184 0
17701 17700 17186 0
17186 17700 17185 0
17186 17187 17703 0
17186 17703 17702 0
17186 17702 17701 0
17179 17703 17187 0
17696 17703 17179 0
17698 17182 17188 0
17705 17698 17188 0
17704 17705 17188 0
17705 17704 17706 0
17707 17189 17183 0
17707 17183 17699 0
17707 17699 17708 0
17699 17709 17708 0
17700 17709 17699 0
17700 17710 17709 0
17701 17710 17700 0
17701 17702 17710 0
17192 17191 17711 0
17711 17712 17704 0
17192 17711 17704 0
17188 17192 17704 0
17704 17712 17706 0
17706 17712 17713 0
17193 17707 17714 0
17189 17707 17193 0
17715 17191 17195 0
17711 17191 17715 0
17715 17712 17711 0
17716 17712 17715 0
17712 17716 17713 0
17713 17716 17717 0
17718 17197 17714 0
17714 17197 17193 0
17719 17197 17718 0
17198 17197 17719 0
17720 17195 17200 0
17715 17195 17720 0
17720 17716 17715 0
17721 17716 17720 0
17716 17721 17722 0
17716 17722 17723 0
17716 17723 17717 0
17723 17722 17724 0
17201 17719 17725 0
17198 17719 17201 0
17203 17202 17726 0
17726 17727 17720 0
17203 17726 17720 0
17200 17203 17720 0
17727 17721 17720 0
17728 17721 17727 0
17728 17722 17721 0
17729 17722 17728 0
17722 17729 17730 0
17722 17730 17731 0
17722 17731 17724 0
17731 17730 17732 0
17734 17733 17735 0
17204 17201 17725 0
17733 17204 17725 0
17735 17733 17725 0
17726 17202 17205 0
17205 17727 17726 0
17206 17727 17205 0
17206 17728 17727 0
17208 17728 17206 0
17736 17729 17728 0
17209 17736 17728 0
17208 17209 17728 0
17736 17730 17729 0
17737 17730 17736 0
17730 17737 17738 0
17730 17738 17739 0
17730 17739 17732 0
17739 17738 17740 0
17742 17741 17743 0
17741 17744 17743 0
17743 17744 17745 0
17744 17746 17745 0
17745 17746 17747 0
17747 17746 17748 0
17750 17749 17751 0
17211 17752 17751 0
17211 17751 17749 0
17211 17749 17210 0
17752 17212 17753 0
17211 17212 17752 0
17753 17212 17213 0
17734 17753 17213 0
17733 17734 17213 0
17213 17204 17733 0
17736 17209 17215 0
17215 17737 17736 0
17217 17737 17215 0
17217 17738 17737 0
17219 17738 17217 0
17219 17221 17754 0
17738 17219 17754 0
17740 17738 17754 0
17756 17754 17221 0
17756 17221 17222 0
17756 17222 17755 0
17756 17755 17757 0
17742 17758 17224 0
17742 17224 17225 0
17742 17225 17741 0
17225 17744 17741 0
17227 17744 17225 0
17227 17746 17744 0
17229 17746 17227 0
17229 17231 17759 0
17746 17229 17759 0
17748 17746 17759 0
17759 17233 17760 0
17231 17233 17759 0
17760 17234 17761 0
17233 17234 17760 0
17761 17235 17762 0
17234 17235 17761 0
17762 17236 17763 0
17235 17236 17762 0
17763 17237 17764 0
17236 17237 17763 0
17764 17238 17765 0
17237 17238 17764 0
17765 17239 17766 0
17238 17239 17765 0
17766 17240 17767 0
17239 17240 17766 0
17767 17242 17768 0
17240 17242 17767 0
17768 17242 17769 0
17769 17242 17243 0
17770 17244 17771 0
17771 17244 17245 0
17771 17246 17772 0
17245 17246 17771 0
17772 17247 17773 0
17246 17247 17772 0
17773 17248 17774 0
17247 17248 17773 0
17774 17248 17249 0
17750 17774 17249 0
17749 17750 17249 0
17249 17210 17749 0
17755 17222 17250 0
17250 17251 17775 0
17755 17250 17775 0
17757 17755 17775 0
17775 17252 17776 0
17251 17252 17775 0
17224 17776 17252 0
17758 17776 17224 0
17769 17253 17777 0
17243 17253 17769 0
17777 17254 17778 0
17253 17254 17777 0
17778 17255 17779 0
17254 17255 17778 0
17779 17256 17780 0
17255 17256 17779 0
17780 17257 17781 0
17256 17257 17780 0
17781 17258 17782 0
17257 17258 17781 0
17782 17259 17783 0
17258 17259 17782 0
17244 17783 17259 0
17770 17783 17244 0
17262 17261 17784 0
17262 17784 17264 0
17267 17266 17785 0
17785 17786 17784 0
17267 17785 17784 0
17261 17267 17784 0
17786 17264 17784 0
17786 17268 17264 0
17787 17268 17786 0
17788 17268 17787 0
17789 17268 17788 0
17269 17268 17789 0
17790 17269 17789 0
17271 17269 17790 0
17273 17272 17791 0
17785 17792 17793 0
17785 17266 17792 0
17266 17791 17792 0
17273 17791 17266 0
17793 17794 17785 0
17785 17794 17786 0
17794 17787 17786 0
17795 17274 17790 0
17790 17274 17271 0
17796 17274 17795 0
17276 17274 17796 0
17272 17278 17797 0
17791 17272 17797 0
17798 17791 17797 0
17798 17792 17791 0
17799 17279 17796 0
17796 17279 17276 0
17800 17279 17799 0
17281 17279 17800 0
17802 17282 17801 0
17283 17282 17802 0
17283 17802 17278 0
17278 17802 17797 0
17281 17800 17804 0
17281 17804 17803 0
17281 17803 17284 0
17284 17803 17286 0
17282 17805 17801 0
17291 17805 17282 0
17806 17803 17804 0
17806 17807 17293 0
17806 17293 17286 0
17806 17286 17803 0
17808 17293 17807 0
17295 17293 17808 0
17300 17299 17809 0
17301 17809 17810 0
17300 17809 17301 0
17811 17805 17291 0
17811 17291 17301 0
17811 17301 17810 0
17812 17303 17304 0
17813 17812 17305 0
17305 17812 17304 0
17306 17813 17305 0
17814 17307 17808 0
17808 17307 17295 0
17815 17307 17814 0
17308 17307 17815 0
17816 17308 17815 0
17309 17308 17816 0
17311 17310 17817 0
17312 17817 17818 0
17311 17817 17312 0
17313 17818 17819 0
17312 17818 17313 0
17819 17820 17809 0
17313 17819 17809 0
17299 17313 17809 0
17820 17810 17809 0
17821 17810 17820 0
17810 17821 17822 0
17810 17822 17823 0
17810 17823 17811 0
17823 17822 17824 0
17315 17303 17825 0
17825 17303 17812 0
17825 17812 17813 0
17826 17825 17813 0
17827 17826 17813 0
17829 17827 17828 0
17827 17316 17828 0
17827 17813 17316 0
17813 17306 17316 0
17829 17828 17830 0
17309 17816 17832 0
17309 17832 17831 0
17309 17831 17317 0
17317 17831 17318 0
17833 17310 17319 0
17817 17310 17833 0
17833 17818 17817 0
17834 17818 17833 0
17834 17819 17818 0
17835 17819 17834 0
17835 17820 17819 0
17836 17820 17835 0
17821 17820 17836 0
17821 17836 17837 0
17821 17837 17838 0
17838 17839 17821 0
17821 17839 17822 0
17839 17824 17822 0
17321 17315 17840 0
17840 17315 17825 0
17826 17840 17825 0
17841 17840 17826 0
17828 17316 17323 0
17324 17842 17830 0
17324 17830 17828 0
17324 17828 17323 0
17843 17831 17832 0
17844 17326 17318 0
17843 17844 17318 0
17831 17843 17318 0
17845 17319 17327 0
17833 17319 17845 0
17845 17834 17833 0
17846 17834 17845 0
17846 17835 17834 0
17847 17835 17846 0
17847 17836 17835 0
17848 17836 17847 0
17836 17848 17837 0
17837 17848 17849 0
17329 17321 17850 0
17850 17321 17840 0
17841 17850 17840 0
17851 17850 17841 0
17842 17332 17852 0
17324 17332 17842 0
17852 17332 17853 0
17853 17332 17333 0
17335 17326 17844 0
17335 17844 17855 0
17335 17855 17854 0
17856 17854 17855 0
17327 17337 17857 0
17845 17327 17857 0
17858 17845 17857 0
17858 17859 17845 0
17845 17859 17846 0
17860 17847 17846 0
17860 17846 17859 0
17860 17859 17861 0
17848 17847 17860 0
17848 17860 17862 0
17848 17862 17863 0
17863 17849 17848 0
17338 17329 17864 0
17864 17329 17850 0
17851 17864 17850 0
17865 17864 17851 0
17333 17866 17853 0
17340 17866 17333 0
17867 17342 17343 0
17344 17867 17343 0
17345 17335 17854 0
17868 17346 17345 0
17868 17345 17854 0
17868 17854 17856 0
17347 17346 17868 0
17869 17347 17868 0
17870 17869 17868 0
17347 17869 17348 0
17337 17871 17857 0
17349 17871 17337 0
17861 17873 17860 0
17860 17873 17872 0
17860 17872 17862 0
17862 17872 17874 0
17352 17338 17864 0
17865 17875 17353 0
17864 17865 17353 0
17352 17864 17353 0
17866 17354 17876 0
17340 17354 17866 0
17876 17354 17877 0
17877 17354 17356 0
17357 17342 17878 0
17878 17342 17867 0
17879 17878 17867 0
17879 17867 17344 0
17879 17344 17358 0
17359 17879 17358 0
17880 17869 17870 0
17880 17348 17869 0
17880 17882 17348 0
17882 17360 17348 0
17881 17360 17882 0
17360 17881 17362 0
17349 17883 17871 0
17363 17883 17349 0
17884 17872 17873 0
17884 17874 17872 0
17885 17366 17367 0
17369 17885 17367 0
17371 17875 17886 0
17353 17875 17371 0
17877 17372 17887 0
17356 17372 17877 0
17887 17372 17889 0
17372 17888 17889 0
17372 17357 17888 0
17357 17878 17888 0
17890 17878 17879 0
17888 17878 17890 0
17359 17373 17879 0
17879 17373 17890 0
17891 17881 17882 0
17891 17892 17374 0
17891 17374 17362 0
17891 17362 17881 0
17893 17374 17892 0
17376 17374 17893 0
17363 17894 17883 0
17378 17894 17363 0
17380 17366 17895 0
17895 17366 17885 0
17885 17896 17895 0
17885 17897 17896 0
17369 17897 17885 0
17381 17897 17369 0
17897 17382 17898 0
17381 17382 17897 0
17371 17898 17382 0
17886 17898 17371 0
17889 17888 17899 0
17888 17900 17899 0
17890 17900 17888 0
17373 17384 17901 0
17373 17901 17900 0
17373 17900 17890 0
17902 17385 17893 0
17893 17385 17376 0
17903 17385 17902 0
17386 17385 17903 0
17904 17386 17903 0
17387 17386 17904 0
17905 17387 17904 0
17388 17387 17905 0
17378 17906 17894 0
17389 17906 17378 0
17908 17907 17909 0
17909 17907 17910 0
17391 17380 17911 0
17911 17380 17895 0
17896 17911 17895 0
17912 17911 17896 0
17901 17392 17913 0
17384 17392 17901 0
17913 17393 17914 0
17392 17393 17913 0
17914 17393 17915 0
17915 17393 17394 0
17916 17395 17905 0
17905 17395 17388 0
17917 17395 17916 0
17396 17395 17917 0
17389 17918 17906 0
17397 17918 17389 0
17920 17919 17921 0
17919 17922 17907 0
17919 17907 17908 0
17919 17908 17921 0
17907 17922 17910 0
17910 17922 17923 0
17924 17399 17925 0
17925 17399 17400 0
17926 17925 17400 0
17911 17926 17400 0
17391 17911 17400 0
17911 17912 17926 0
17915 17401 17927 0
17394 17401 17915 0
17927 17402 17928 0
17401 17402 17927 0
17928 17402 17929 0
17929 17402 17403 0
17930 17404 17917 0
17917 17404 17396 0
17931 17404 17930 0
17405 17404 17931 0
17932 17405 17931 0
17407 17405 17932 0
17397 17933 17918 0
17408 17933 17397 0
17920 17934 17409 0
17920 17409 17410 0
17920 17410 17919 0
17410 17922 17919 0
17411 17922 17410 0
17411 17412 17935 0
17922 17411 17935 0
17923 17922 17935 0
17399 17935 17412 0
17924 17935 17399 0
17937 17929 17403 0
17936 17937 17403 0
17413 17936 17403 0
17414 17936 17413 0
17938 17415 17932 0
17932 17415 17407 0
17416 17415 17938 0
17939 17416 17938 0
17940 17939 17938 0
17416 17939 17417 0
17933 17408 17418 0
17942 17933 17418 0
17941 17942 17418 0
17420 17943 17942 0
17420 17942 17941 0
17420 17941 17419 0
17943 17421 17944 0
17420 17421 17943 0
17409 17944 17421 0
17934 17944 17409 0
17937 17936 17945 0
17414 17422 17946 0
17414 17946 17945 0
17414 17945 17936 0
17947 17939 17940 0
17947 17948 17423 0
17947 17423 17417 0
17947 17417 17939 0
17949 17423 17948 0
17425 17423 17949 0
17418 17426 17950 0
17941 17418 17950 0
17951 17941 17950 0
17952 17427 17419 0
17951 17952 17419 0
17941 17951 17419 0
17422 17953 17946 0
17428 17953 17422 0
17954 17429 17949 0
17949 17429 17425 0
17955 17429 17954 0
17430 17429 17955 0
17956 17430 17955 0
17431 17430 17956 0
17957 17431 17956 0
17432 17431 17957 0
17950 17426 17433 0
17959 17950 17433 0
17958 17959 17433 0
17958 17960 17959 0
17960 17952 17959 0
17960 17435 17952 0
17435 17427 17952 0
17437 17960 17961 0
17435 17960 17437 0
17437 17961 17438 0
17953 17439 17962 0
17428 17439 17953 0
17962 17440 17963 0
17439 17440 17962 0
17963 17440 17441 0
17963 17441 17964 0
17963 17964 17965 0
17442 17964 17441 0
17444 17957 17966 0
17432 17957 17444 0
17967 17433 17445 0
17958 17433 17967 0
17967 17960 17958 0
17968 17960 17967 0
17968 17961 17960 0
17969 17961 17968 0
17961 17969 17970 0
17438 17961 17970 0
17449 17438 17970 0
17449 17970 17450 0
17965 17964 17971 0
17452 17972 17971 0
17442 17452 17971 0
17964 17442 17971 0
17972 17452 17973 0
17973 17452 17453 0
17974 17454 17966 0
17966 17454 17444 0
17975 17454 17974 0
17455 17454 17975 0
17976 17455 17975 0
17456 17455 17976 0
17977 17456 17976 0
17457 17456 17977 0
17978 17457 17977 0
17458 17457 17978 0
17979 17458 17978 0
17460 17458 17979 0
17967 17445 17461 0
17461 17968 17967 0
17462 17968 17461 0
17462 17969 17968 0
17463 17969 17462 0
17463 17970 17969 0
17464 17970 17463 0
17464 17450 17970 0
17981 17973 17453 0
17980 17981 17453 0
17465 17980 17453 0
17467 17980 17465 0
17982 17469 17979 0
17979 17469 17460 0
17983 17469 17982 0
17470 17469 17983 0
17471 17470 17983 0
17984 17471 17983 0
17985 17984 17983 0
17471 17984 17473 0
17981 17980 17986 0
17475 17987 17986 0
17467 17475 17986 0
17980 17467 17986 0
17987 17477 17988 0
17475 17477 17987 0
17988 17479 17989 0
17477 17479 17988 0
17989 17479 17990 0
17990 17479 17480 0
17991 17984 17985 0
17991 17992 17481 0
17991 17481 17473 0
17991 17473 17984 0
17993 17481 17992 0
17482 17481 17993 0
17994 17482 17993 0
17483 17482 17994 0
17995 17483 17994 0
17484 17483 17995 0
17996 17484 17995 0
17485 17484 17996 0
17997 17485 17996 0
17486 17485 17997 0
17998 17486 17997 0
17487 17486 17998 0
17999 17487 17998 0
17488 17487 17999 0
17489 17488 17999 0
18000 17489 17999 0
18001 18000 17999 0
17489 18000 17490 0
17492 17491 18002 0
17492 18002 17494 0
17480 18003 17990 0
17495 18003 17480 0
18001 18005 18000 0
18000 18005 18004 0
18000 17496 17490 0
18004 17496 18000 0
18002 17491 17497 0
17497 17494 18002 0
18003 17498 18006 0
17495 17498 18003 0
18008 18006 17498 0
18008 17498 17499 0
18008 17499 18007 0
18008 18007 18009 0
18005 18011 18004 0
18004 18011 18010 0
18004 17500 17496 0
18010 17500 18004 0
18007 17499 17501 0
18009 18012 18013 0
18009 17502 18012 0
18007 17502 18009 0
17501 17502 18007 0
18014 18012 17503 0
17503 18012 17502 0
18015 18014 17504 0
17504 18014 17503 0
17505 18015 17504 0
18011 18017 18010 0
18010 18017 18016 0
18010 17507 17500 0
18016 17507 18010 0
18013 18012 18018 0
18014 18018 18012 0
18014 18019 18018 0
17509 18019 18014 0
17508 18019 17509 0
18014 18015 17509 0
17509 18015 17510 0
18015 17505 17510 0
18021 18020 18022 0
18020 18017 18022 0
