#!ascii version of 
24488 48984
10.000000  -57.000000  14.500000  0
9.000000  -57.000000  14.500000  0
8.000000  -57.000000  14.500000  0
7.000000  -57.000000  14.500000  0
-1.500000  -57.000000  14.000000  0
12.000000  -57.500000  13.000000  0
12.500000  -57.000000  13.000000  0
12.000000  -57.000000  13.500000  0
11.000000  -57.000000  13.500000  0
-1.500000  -57.000000  13.000000  0
13.500000  -57.000000  12.000000  0
13.000000  -57.000000  12.500000  0
-1.500000  -57.000000  12.000000  0
19.000000  -57.500000  11.000000  0
19.500000  -57.000000  11.000000  0
19.000000  -57.000000  11.500000  0
18.000000  -57.500000  11.000000  0
18.000000  -57.000000  11.500000  0
17.000000  -57.500000  11.000000  0
17.000000  -57.000000  11.500000  0
16.000000  -57.000000  11.500000  0
15.000000  -57.000000  11.500000  0
14.000000  -57.000000  11.500000  0
-1.500000  -57.000000  11.000000  0
20.500000  -57.000000  10.000000  0
20.000000  -57.000000  10.500000  0
-1.000000  -57.500000  10.000000  0
-0.500000  -57.000000  10.000000  0
-1.000000  -57.000000  10.500000  0
22.000000  -57.500000  9.000000  0
22.500000  -57.000000  9.000000  0
22.000000  -57.000000  9.500000  0
21.000000  -57.000000  9.500000  0
-1.000000  -57.500000  9.000000  0
-0.500000  -57.000000  9.000000  0
23.000000  -57.500000  8.000000  0
23.500000  -57.000000  8.000000  0
23.000000  -57.000000  8.500000  0
-1.000000  -57.500000  8.000000  0
-0.500000  -57.000000  8.000000  0
29.000000  -57.500000  7.000000  0
29.500000  -57.000000  7.000000  0
29.000000  -57.000000  7.500000  0
28.000000  -57.000000  7.500000  0
27.000000  -57.000000  7.500000  0
26.000000  -57.000000  7.500000  0
25.000000  -57.000000  7.500000  0
24.000000  -57.000000  7.500000  0
6.000000  -57.500000  7.000000  0
5.000000  -57.500000  7.000000  0
4.000000  -57.500000  7.000000  0
3.000000  -57.500000  7.000000  0
-1.000000  -57.500000  7.000000  0
-0.500000  -57.000000  7.000000  0
31.500000  -57.000000  6.000000  0
31.000000  -57.000000  6.500000  0
30.000000  -57.000000  6.500000  0
18.000000  -57.500000  6.000000  0
17.000000  -57.500000  6.000000  0
16.000000  -57.500000  6.000000  0
15.000000  -57.500000  6.000000  0
14.500000  -57.000000  6.000000  0
14.000000  -57.000000  6.500000  0
13.000000  -57.000000  6.500000  0
12.000000  -57.000000  6.500000  0
11.000000  -57.000000  6.500000  0
10.000000  -57.000000  6.500000  0
9.000000  -57.500000  6.000000  0
9.000000  -57.000000  6.500000  0
8.000000  -57.500000  6.000000  0
8.000000  -57.000000  6.500000  0
7.000000  -57.500000  6.000000  0
7.000000  -57.000000  6.500000  0
6.000000  -57.000000  6.500000  0
5.000000  -57.000000  6.500000  0
4.000000  -57.000000  6.500000  0
3.000000  -57.000000  6.500000  0
2.500000  -57.000000  6.000000  0
-1.000000  -57.500000  6.000000  0
-0.500000  -57.000000  6.000000  0
35.000000  -57.500000  5.000000  0
35.500000  -57.000000  5.000000  0
35.000000  -57.000000  5.500000  0
34.000000  -57.500000  5.000000  0
34.000000  -57.000000  5.500000  0
33.000000  -57.000000  5.500000  0
32.000000  -57.000000  5.500000  0
21.500000  -57.000000  5.000000  0
21.000000  -57.000000  5.500000  0
20.000000  -57.000000  5.500000  0
19.000000  -57.000000  5.500000  0
18.000000  -57.000000  5.500000  0
17.000000  -57.000000  5.500000  0
16.000000  -57.000000  5.500000  0
15.000000  -57.000000  5.500000  0
2.000000  -57.500000  5.000000  0
2.000000  -57.000000  5.500000  0
1.000000  -57.500000  5.000000  0
1.000000  -57.000000  5.500000  0
0.000000  -57.500000  5.000000  0
0.000000  -57.000000  5.500000  0
-1.000000  -57.500000  5.000000  0
45.500000  -57.000000  4.000000  0
45.000000  -57.000000  4.500000  0
44.000000  -57.000000  4.500000  0
43.000000  -57.000000  4.500000  0
42.000000  -57.000000  4.500000  0
41.000000  -57.000000  4.500000  0
40.000000  -57.000000  4.500000  0
39.000000  -57.000000  4.500000  0
38.000000  -57.000000  4.500000  0
37.000000  -57.000000  4.500000  0
36.000000  -57.000000  4.500000  0
21.000000  -57.000000  4.500000  0
20.000000  -57.000000  4.500000  0
19.000000  -57.500000  4.000000  0
19.500000  -57.000000  4.000000  0
4.000000  -57.500000  4.000000  0
3.000000  -57.500000  4.000000  0
2.000000  -57.500000  4.000000  0
1.000000  -57.500000  4.000000  0
0.000000  -57.500000  4.000000  0
-1.000000  -57.500000  4.000000  0
47.500000  -57.000000  3.000000  0
47.000000  -57.000000  3.500000  0
46.000000  -57.000000  3.500000  0
19.000000  -57.000000  3.500000  0
18.000000  -57.500000  3.000000  0
18.000000  -57.000000  3.500000  0
17.000000  -57.500000  3.000000  0
17.000000  -57.000000  3.500000  0
16.500000  -57.000000  3.000000  0
5.000000  -57.500000  3.000000  0
4.000000  -57.500000  3.000000  0
3.000000  -57.500000  3.000000  0
2.000000  -57.500000  3.000000  0
1.000000  -57.500000  3.000000  0
0.000000  -57.500000  3.000000  0
-1.000000  -57.500000  3.000000  0
54.500000  -57.000000  2.000000  0
54.000000  -57.000000  2.500000  0
53.000000  -57.000000  2.500000  0
52.000000  -57.000000  2.500000  0
51.000000  -57.000000  2.500000  0
50.000000  -57.000000  2.500000  0
49.000000  -57.000000  2.500000  0
48.000000  -57.000000  2.500000  0
16.000000  -57.000000  2.500000  0
15.000000  -57.000000  2.500000  0
14.000000  -57.000000  2.500000  0
13.000000  -57.000000  2.500000  0
12.000000  -57.500000  2.000000  0
12.500000  -57.000000  2.000000  0
11.000000  -57.500000  2.000000  0
10.000000  -57.500000  2.000000  0
9.000000  -57.500000  2.000000  0
8.000000  -57.500000  2.000000  0
7.000000  -57.500000  2.000000  0
6.000000  -57.500000  2.000000  0
5.000000  -57.500000  2.000000  0
4.000000  -57.500000  2.000000  0
0.500000  -57.000000  2.000000  0
0.000000  -57.000000  2.500000  0
-1.000000  -57.500000  2.000000  0
-0.500000  -57.000000  2.000000  0
54.500000  -57.000000  1.000000  0
12.000000  -57.500000  1.000000  0
12.500000  -57.000000  1.000000  0
11.000000  -57.500000  1.000000  0
10.500000  -57.000000  1.000000  0
10.000000  -57.000000  1.500000  0
9.000000  -57.000000  1.500000  0
8.000000  -57.500000  1.000000  0
8.500000  -57.000000  1.000000  0
7.000000  -57.500000  1.000000  0
6.000000  -57.500000  1.000000  0
1.000000  -57.500000  1.000000  0
1.500000  -57.000000  1.000000  0
1.000000  -57.000000  1.500000  0
-1.000000  -57.500000  1.000000  0
-0.500000  -57.000000  1.000000  0
55.500000  -57.000000  0.000000  0
55.000000  -57.000000  0.500000  0
12.000000  -57.000000  0.500000  0
11.000000  -57.000000  0.500000  0
8.500000  -57.000000  0.000000  0
3.000000  -57.500000  0.000000  0
3.500000  -57.000000  0.000000  0
3.000000  -57.000000  0.500000  0
2.000000  -57.000000  0.500000  0
-1.000000  -57.000000  0.500000  0
-1.500000  -57.000000  0.000000  0
55.000000  -57.000000  -0.500000  0
54.500000  -57.000000  -1.000000  0
14.500000  -57.000000  -1.000000  0
14.000000  -57.000000  -0.500000  0
13.500000  -57.000000  -1.000000  0
8.500000  -57.000000  -1.000000  0
4.000000  -57.500000  -1.000000  0
4.500000  -57.000000  -1.000000  0
4.000000  -57.000000  -0.500000  0
-1.500000  -57.000000  -1.000000  0
54.000000  -57.500000  -2.000000  0
54.500000  -57.000000  -2.000000  0
16.000000  -57.500000  -2.000000  0
15.000000  -57.500000  -2.000000  0
14.500000  -57.000000  -2.000000  0
13.000000  -57.000000  -1.500000  0
12.000000  -57.000000  -1.500000  0
11.000000  -57.000000  -1.500000  0
10.000000  -57.000000  -1.500000  0
9.000000  -57.000000  -1.500000  0
4.500000  -57.000000  -2.000000  0
-1.500000  -57.000000  -2.000000  0
54.000000  -57.000000  -2.500000  0
53.000000  -57.500000  -3.000000  0
53.500000  -57.000000  -3.000000  0
29.000000  -57.500000  -3.000000  0
23.000000  -57.500000  -3.000000  0
22.000000  -57.500000  -3.000000  0
21.000000  -57.500000  -3.000000  0
20.000000  -57.500000  -3.000000  0
19.000000  -57.500000  -3.000000  0
18.000000  -57.500000  -3.000000  0
17.500000  -57.000000  -3.000000  0
17.000000  -57.000000  -2.500000  0
16.000000  -57.000000  -2.500000  0
15.000000  -57.000000  -2.500000  0
6.000000  -57.500000  -3.000000  0
6.500000  -57.000000  -3.000000  0
6.000000  -57.000000  -2.500000  0
5.000000  -57.500000  -3.000000  0
5.000000  -57.000000  -2.500000  0
-1.500000  -57.000000  -3.000000  0
53.000000  -57.000000  -3.500000  0
52.500000  -57.000000  -4.000000  0
36.000000  -57.500000  -4.000000  0
35.000000  -57.500000  -4.000000  0
34.000000  -57.500000  -4.000000  0
33.500000  -57.000000  -4.000000  0
33.000000  -57.000000  -3.500000  0
32.000000  -57.000000  -3.500000  0
31.000000  -57.000000  -3.500000  0
30.000000  -57.000000  -3.500000  0
29.000000  -57.000000  -3.500000  0
28.000000  -57.000000  -3.500000  0
27.000000  -57.500000  -4.000000  0
27.500000  -57.000000  -4.000000  0
26.000000  -57.500000  -4.000000  0
25.000000  -57.500000  -4.000000  0
24.000000  -57.500000  -4.000000  0
23.000000  -57.500000  -4.000000  0
22.000000  -57.500000  -4.000000  0
21.000000  -57.500000  -4.000000  0
20.000000  -57.500000  -4.000000  0
19.000000  -57.500000  -4.000000  0
18.500000  -57.000000  -4.000000  0
18.000000  -57.000000  -3.500000  0
6.500000  -57.000000  -4.000000  0
-1.500000  -57.000000  -4.000000  0
52.000000  -57.000000  -4.500000  0
51.000000  -57.500000  -5.000000  0
51.500000  -57.000000  -5.000000  0
40.500000  -57.000000  -5.000000  0
40.000000  -57.000000  -4.500000  0
39.000000  -57.000000  -4.500000  0
38.000000  -57.000000  -4.500000  0
37.000000  -57.000000  -4.500000  0
36.000000  -57.000000  -4.500000  0
35.000000  -57.000000  -4.500000  0
34.000000  -57.000000  -4.500000  0
27.000000  -57.000000  -4.500000  0
26.000000  -57.000000  -4.500000  0
25.000000  -57.000000  -4.500000  0
24.000000  -57.000000  -4.500000  0
23.000000  -57.000000  -4.500000  0
22.000000  -57.000000  -4.500000  0
21.000000  -57.000000  -4.500000  0
20.000000  -57.000000  -4.500000  0
19.000000  -57.000000  -4.500000  0
6.500000  -57.000000  -5.000000  0
-1.500000  -57.000000  -5.000000  0
51.000000  -57.500000  -6.000000  0
51.500000  -57.000000  -6.000000  0
40.000000  -57.000000  -5.500000  0
39.000000  -57.000000  -5.500000  0
38.000000  -57.500000  -6.000000  0
38.500000  -57.000000  -6.000000  0
37.000000  -57.500000  -6.000000  0
36.500000  -57.000000  -6.000000  0
36.000000  -57.000000  -5.500000  0
35.000000  -57.000000  -5.500000  0
34.000000  -57.000000  -5.500000  0
33.000000  -57.000000  -5.500000  0
32.000000  -57.000000  -5.500000  0
31.000000  -57.000000  -5.500000  0
30.000000  -57.000000  -5.500000  0
29.000000  -57.000000  -5.500000  0
28.000000  -57.000000  -5.500000  0
27.000000  -57.500000  -6.000000  0
27.500000  -57.000000  -6.000000  0
26.000000  -57.500000  -6.000000  0
25.000000  -57.500000  -6.000000  0
24.000000  -57.500000  -6.000000  0
23.000000  -57.500000  -6.000000  0
22.000000  -57.500000  -6.000000  0
21.000000  -57.500000  -6.000000  0
20.000000  -57.500000  -6.000000  0
8.000000  -57.500000  -6.000000  0
8.500000  -57.000000  -6.000000  0
8.000000  -57.000000  -5.500000  0
7.000000  -57.000000  -5.500000  0
-1.500000  -57.000000  -6.000000  0
51.000000  -57.500000  -7.000000  0
51.500000  -57.000000  -7.000000  0
38.000000  -57.000000  -6.500000  0
37.000000  -57.000000  -6.500000  0
27.000000  -57.000000  -6.500000  0
26.000000  -57.000000  -6.500000  0
25.000000  -57.000000  -6.500000  0
24.000000  -57.000000  -6.500000  0
23.000000  -57.500000  -7.000000  0
23.500000  -57.000000  -7.000000  0
22.000000  -57.500000  -7.000000  0
21.000000  -57.500000  -7.000000  0
20.000000  -57.500000  -7.000000  0
8.500000  -57.000000  -7.000000  0
-1.500000  -57.000000  -7.000000  0
51.000000  -57.500000  -8.000000  0
51.500000  -57.000000  -8.000000  0
50.000000  -57.500000  -8.000000  0
23.000000  -57.500000  -8.000000  0
23.500000  -57.000000  -8.000000  0
22.000000  -57.500000  -8.000000  0
21.000000  -57.500000  -8.000000  0
20.000000  -57.500000  -8.000000  0
9.000000  -57.500000  -8.000000  0
9.500000  -57.000000  -8.000000  0
9.000000  -57.000000  -7.500000  0
-1.500000  -57.000000  -8.000000  0
51.000000  -57.500000  -9.000000  0
51.500000  -57.000000  -9.000000  0
50.000000  -57.500000  -9.000000  0
23.000000  -57.500000  -9.000000  0
23.500000  -57.000000  -9.000000  0
12.500000  -57.000000  -9.000000  0
12.000000  -57.000000  -8.500000  0
11.000000  -57.000000  -8.500000  0
10.000000  -57.000000  -8.500000  0
-1.500000  -57.000000  -9.000000  0
51.000000  -57.000000  -9.500000  0
50.000000  -57.500000  -10.000000  0
50.500000  -57.000000  -10.000000  0
49.000000  -57.500000  -10.000000  0
48.000000  -57.500000  -10.000000  0
25.500000  -57.000000  -10.000000  0
25.000000  -57.000000  -9.500000  0
24.000000  -57.000000  -9.500000  0
19.500000  -57.000000  -10.000000  0
19.000000  -57.000000  -9.500000  0
18.000000  -57.000000  -9.500000  0
17.000000  -57.000000  -9.500000  0
16.000000  -57.000000  -9.500000  0
15.000000  -57.000000  -9.500000  0
14.000000  -57.000000  -9.500000  0
13.000000  -57.000000  -9.500000  0
-1.500000  -57.000000  -10.000000  0
50.000000  -57.000000  -10.500000  0
49.000000  -57.000000  -10.500000  0
48.000000  -57.500000  -11.000000  0
48.500000  -57.000000  -11.000000  0
25.500000  -57.000000  -11.000000  0
21.500000  -57.000000  -11.000000  0
21.000000  -57.000000  -10.500000  0
20.000000  -57.000000  -10.500000  0
-1.500000  -57.000000  -11.000000  0
48.000000  -57.000000  -11.500000  0
47.500000  -57.000000  -12.000000  0
28.500000  -57.000000  -12.000000  0
28.000000  -57.000000  -11.500000  0
27.000000  -57.000000  -11.500000  0
26.000000  -57.000000  -11.500000  0
23.500000  -57.000000  -12.000000  0
23.000000  -57.000000  -11.500000  0
22.000000  -57.000000  -11.500000  0
-1.500000  -57.000000  -12.000000  0
47.000000  -57.000000  -12.500000  0
46.000000  -57.500000  -13.000000  0
46.500000  -57.000000  -13.000000  0
28.000000  -57.000000  -12.500000  0
27.000000  -57.000000  -12.500000  0
26.000000  -57.000000  -12.500000  0
25.000000  -57.000000  -12.500000  0
24.000000  -57.000000  -12.500000  0
-1.500000  -57.000000  -13.000000  0
46.000000  -57.500000  -14.000000  0
46.500000  -57.000000  -14.000000  0
1.000000  -57.500000  -14.000000  0
0.000000  -57.500000  -14.000000  0
-1.000000  -57.500000  -14.000000  0
-1.500000  -57.000000  -14.000000  0
46.000000  -57.500000  -15.000000  0
46.500000  -57.000000  -15.000000  0
4.000000  -57.500000  -15.000000  0
3.000000  -57.500000  -15.000000  0
2.500000  -57.000000  -15.000000  0
2.000000  -57.000000  -14.500000  0
1.000000  -57.000000  -14.500000  0
0.000000  -57.000000  -14.500000  0
-1.000000  -57.000000  -14.500000  0
46.000000  -57.000000  -15.500000  0
45.500000  -57.000000  -16.000000  0
5.000000  -57.500000  -16.000000  0
5.500000  -57.000000  -16.000000  0
5.000000  -57.000000  -15.500000  0
4.000000  -57.000000  -15.500000  0
3.000000  -57.000000  -15.500000  0
45.500000  -57.000000  -17.000000  0
5.500000  -57.000000  -17.000000  0
45.000000  -57.500000  -18.000000  0
45.500000  -57.000000  -18.000000  0
5.500000  -57.000000  -18.000000  0
45.000000  -57.000000  -18.500000  0
44.000000  -57.500000  -19.000000  0
44.500000  -57.000000  -19.000000  0
7.000000  -57.500000  -19.000000  0
6.500000  -57.000000  -19.000000  0
6.000000  -57.000000  -18.500000  0
44.000000  -57.000000  -19.500000  0
43.500000  -57.000000  -20.000000  0
7.500000  -57.000000  -20.000000  0
7.000000  -57.000000  -19.500000  0
43.000000  -57.000000  -20.500000  0
42.500000  -57.000000  -21.000000  0
8.500000  -57.000000  -21.000000  0
8.000000  -57.000000  -20.500000  0
42.000000  -57.000000  -21.500000  0
41.500000  -57.000000  -22.000000  0
8.500000  -57.000000  -22.000000  0
41.000000  -57.000000  -22.500000  0
40.000000  -57.500000  -23.000000  0
40.500000  -57.000000  -23.000000  0
11.500000  -57.000000  -23.000000  0
11.000000  -57.000000  -22.500000  0
10.000000  -57.000000  -22.500000  0
9.000000  -57.000000  -22.500000  0
40.000000  -57.000000  -23.500000  0
39.000000  -57.000000  -23.500000  0
38.500000  -57.000000  -24.000000  0
15.500000  -57.000000  -24.000000  0
15.000000  -57.000000  -23.500000  0
14.000000  -57.000000  -23.500000  0
13.000000  -57.000000  -23.500000  0
12.000000  -57.000000  -23.500000  0
38.000000  -57.000000  -24.500000  0
37.500000  -57.000000  -25.000000  0
18.000000  -57.500000  -25.000000  0
18.500000  -57.000000  -25.000000  0
18.000000  -57.000000  -24.500000  0
17.000000  -57.000000  -24.500000  0
16.000000  -57.000000  -24.500000  0
37.000000  -57.000000  -25.500000  0
36.000000  -57.000000  -25.500000  0
35.500000  -57.000000  -26.000000  0
20.500000  -57.000000  -26.000000  0
20.000000  -57.000000  -25.500000  0
19.000000  -57.000000  -25.500000  0
35.000000  -57.000000  -26.500000  0
34.000000  -57.000000  -26.500000  0
33.000000  -57.000000  -26.500000  0
32.000000  -57.500000  -27.000000  0
32.500000  -57.000000  -27.000000  0
27.000000  -57.500000  -27.000000  0
26.000000  -57.500000  -27.000000  0
25.500000  -57.000000  -27.000000  0
25.000000  -57.000000  -26.500000  0
24.000000  -57.000000  -26.500000  0
23.000000  -57.000000  -26.500000  0
22.000000  -57.000000  -26.500000  0
21.000000  -57.000000  -26.500000  0
32.000000  -57.000000  -27.500000  0
31.000000  -57.000000  -27.500000  0
30.000000  -57.000000  -27.500000  0
29.000000  -57.000000  -27.500000  0
28.000000  -57.000000  -27.500000  0
27.000000  -57.000000  -27.500000  0
26.000000  -57.000000  -27.500000  0
2.000000  -56.500000  20.000000  0
2.500000  -56.000000  20.000000  0
2.000000  -56.000000  20.500000  0
1.000000  -56.500000  20.000000  0
1.000000  -56.000000  20.500000  0
0.000000  -56.500000  20.000000  0
0.000000  -56.000000  20.500000  0
-1.000000  -56.500000  20.000000  0
-1.000000  -56.000000  20.500000  0
-1.500000  -56.000000  20.000000  0
2.000000  -56.500000  19.000000  0
2.500000  -56.000000  19.000000  0
1.000000  -56.500000  19.000000  0
0.000000  -56.500000  19.000000  0
-1.000000  -56.500000  19.000000  0
-1.500000  -56.000000  19.000000  0
4.000000  -56.500000  18.000000  0
4.500000  -56.000000  18.000000  0
4.000000  -56.000000  18.500000  0
3.000000  -56.500000  18.000000  0
3.000000  -56.000000  18.500000  0
2.000000  -56.500000  18.000000  0
1.000000  -56.500000  18.000000  0
-1.500000  -56.000000  18.000000  0
5.000000  -56.500000  17.000000  0
5.500000  -56.000000  17.000000  0
5.000000  -56.000000  17.500000  0
4.000000  -56.500000  17.000000  0
3.000000  -56.500000  17.000000  0
2.000000  -56.500000  17.000000  0
-1.500000  -56.000000  17.000000  0
7.000000  -56.500000  16.000000  0
7.500000  -56.000000  16.000000  0
7.000000  -56.000000  16.500000  0
6.000000  -56.000000  16.500000  0
3.000000  -56.500000  16.000000  0
-1.500000  -56.000000  16.000000  0
9.000000  -56.500000  15.000000  0
9.500000  -56.000000  15.000000  0
9.000000  -56.000000  15.500000  0
8.000000  -56.500000  15.000000  0
8.000000  -56.000000  15.500000  0
7.000000  -56.500000  15.000000  0
-1.500000  -56.000000  15.000000  0
11.000000  -56.500000  14.000000  0
11.500000  -56.000000  14.000000  0
11.000000  -56.000000  14.500000  0
10.000000  -56.000000  14.500000  0
-1.000000  -56.500000  14.000000  0
-0.500000  -56.000000  14.000000  0
-1.000000  -56.000000  14.500000  0
12.500000  -56.000000  13.000000  0
12.000000  -56.000000  13.500000  0
-1.000000  -56.500000  13.000000  0
-0.500000  -56.000000  13.000000  0
15.000000  -56.500000  12.000000  0
15.500000  -56.000000  12.000000  0
15.000000  -56.000000  12.500000  0
14.000000  -56.500000  12.000000  0
14.000000  -56.000000  12.500000  0
13.000000  -56.000000  12.500000  0
-1.000000  -56.500000  12.000000  0
-0.500000  -56.000000  12.000000  0
19.500000  -56.000000  11.000000  0
19.000000  -56.000000  11.500000  0
18.000000  -56.000000  11.500000  0
17.000000  -56.000000  11.500000  0
16.000000  -56.000000  11.500000  0
-1.000000  -56.500000  11.000000  0
-0.500000  -56.000000  11.000000  0
21.000000  -56.500000  10.000000  0
21.500000  -56.000000  10.000000  0
21.000000  -56.000000  10.500000  0
20.000000  -56.000000  10.500000  0
-0.500000  -56.000000  10.000000  0
22.500000  -56.000000  9.000000  0
22.000000  -56.000000  9.500000  0
-0.500000  -56.000000  9.000000  0
24.000000  -56.500000  8.000000  0
24.500000  -56.000000  8.000000  0
24.000000  -56.000000  8.500000  0
23.000000  -56.000000  8.500000  0
-0.500000  -56.000000  8.000000  0
29.500000  -56.000000  7.000000  0
29.000000  -56.000000  7.500000  0
28.000000  -56.000000  7.500000  0
27.000000  -56.000000  7.500000  0
26.000000  -56.000000  7.500000  0
25.000000  -56.000000  7.500000  0
-0.500000  -56.000000  7.000000  0
31.500000  -56.000000  6.000000  0
31.000000  -56.000000  6.500000  0
30.000000  -56.000000  6.500000  0
14.000000  -56.500000  6.000000  0
13.000000  -56.500000  6.000000  0
12.000000  -56.500000  6.000000  0
11.000000  -56.500000  6.000000  0
10.000000  -56.500000  6.000000  0
9.000000  -56.500000  6.000000  0
8.000000  -56.500000  6.000000  0
7.000000  -56.500000  6.000000  0
6.500000  -56.000000  6.000000  0
6.000000  -56.000000  6.500000  0
5.000000  -56.000000  6.500000  0
4.000000  -56.000000  6.500000  0
3.000000  -56.500000  6.000000  0
3.500000  -56.000000  6.000000  0
-0.500000  -56.000000  6.000000  0
36.000000  -56.500000  5.000000  0
36.500000  -56.000000  5.000000  0
36.000000  -56.000000  5.500000  0
35.000000  -56.000000  5.500000  0
34.000000  -56.000000  5.500000  0
33.000000  -56.000000  5.500000  0
32.000000  -56.000000  5.500000  0
22.000000  -56.500000  5.000000  0
22.500000  -56.000000  5.000000  0
22.000000  -56.000000  5.500000  0
21.000000  -56.000000  5.500000  0
20.000000  -56.000000  5.500000  0
19.000000  -56.000000  5.500000  0
18.000000  -56.000000  5.500000  0
17.000000  -56.000000  5.500000  0
16.000000  -56.000000  5.500000  0
15.000000  -56.000000  5.500000  0
14.000000  -56.000000  5.500000  0
13.000000  -56.000000  5.500000  0
12.000000  -56.000000  5.500000  0
11.000000  -56.000000  5.500000  0
10.000000  -56.000000  5.500000  0
9.000000  -56.000000  5.500000  0
8.000000  -56.000000  5.500000  0
7.000000  -56.000000  5.500000  0
3.000000  -56.000000  5.500000  0
2.000000  -56.500000  5.000000  0
2.500000  -56.000000  5.000000  0
1.000000  -56.500000  5.000000  0
0.000000  -56.500000  5.000000  0
-0.500000  -56.000000  5.000000  0
45.000000  -56.500000  4.000000  0
44.500000  -56.000000  4.000000  0
44.000000  -56.000000  4.500000  0
43.000000  -56.000000  4.500000  0
42.000000  -56.000000  4.500000  0
41.000000  -56.000000  4.500000  0
40.000000  -56.000000  4.500000  0
39.000000  -56.000000  4.500000  0
38.000000  -56.000000  4.500000  0
37.000000  -56.000000  4.500000  0
23.000000  -56.500000  4.000000  0
23.500000  -56.000000  4.000000  0
23.000000  -56.000000  4.500000  0
22.000000  -56.500000  4.000000  0
21.000000  -56.500000  4.000000  0
20.000000  -56.500000  4.000000  0
2.000000  -56.000000  4.500000  0
1.000000  -56.000000  4.500000  0
0.000000  -56.000000  4.500000  0
47.500000  -56.000000  3.000000  0
47.000000  -56.000000  3.500000  0
46.000000  -56.000000  3.500000  0
45.000000  -56.000000  3.500000  0
23.000000  -56.500000  3.000000  0
23.500000  -56.000000  3.000000  0
22.000000  -56.500000  3.000000  0
21.000000  -56.500000  3.000000  0
20.000000  -56.500000  3.000000  0
19.000000  -56.500000  3.000000  0
18.000000  -56.500000  3.000000  0
17.000000  -56.500000  3.000000  0
54.500000  -56.000000  2.000000  0
54.000000  -56.000000  2.500000  0
53.000000  -56.000000  2.500000  0
52.000000  -56.000000  2.500000  0
51.000000  -56.000000  2.500000  0
50.000000  -56.000000  2.500000  0
49.000000  -56.000000  2.500000  0
48.000000  -56.000000  2.500000  0
23.000000  -56.000000  2.500000  0
22.000000  -56.000000  2.500000  0
21.000000  -56.000000  2.500000  0
20.000000  -56.500000  2.000000  0
20.500000  -56.000000  2.000000  0
19.500000  -56.000000  2.000000  0
19.000000  -56.000000  2.500000  0
18.000000  -56.000000  2.500000  0
17.000000  -56.000000  2.500000  0
16.000000  -56.000000  2.500000  0
15.000000  -56.000000  2.500000  0
14.000000  -56.000000  2.500000  0
13.000000  -56.000000  2.500000  0
12.500000  -56.000000  2.000000  0
1.000000  -56.500000  2.000000  0
1.500000  -56.000000  2.000000  0
1.000000  -56.000000  2.500000  0
0.000000  -56.000000  2.500000  0
-0.500000  -56.000000  2.000000  0
54.000000  -56.500000  1.000000  0
54.000000  -56.000000  1.500000  0
53.500000  -56.000000  1.000000  0
20.000000  -56.000000  1.500000  0
12.500000  -56.000000  1.000000  0
10.000000  -56.500000  1.000000  0
9.000000  -56.500000  1.000000  0
2.000000  -56.500000  1.000000  0
2.500000  -56.000000  1.000000  0
2.000000  -56.000000  1.500000  0
-0.500000  -56.000000  1.000000  0
55.500000  -56.000000  0.000000  0
55.000000  -56.000000  0.500000  0
54.000000  -56.000000  0.500000  0
12.000000  -56.000000  0.500000  0
11.000000  -56.000000  0.500000  0
10.000000  -56.500000  0.000000  0
10.500000  -56.000000  0.000000  0
9.000000  -56.500000  0.000000  0
3.500000  -56.000000  0.000000  0
3.000000  -56.000000  0.500000  0
-1.000000  -56.000000  0.500000  0
-1.500000  -56.000000  0.000000  0
55.000000  -56.000000  -0.500000  0
54.500000  -56.000000  -1.000000  0
14.000000  -56.500000  -1.000000  0
12.000000  -56.500000  -1.000000  0
12.500000  -56.000000  -1.000000  0
12.000000  -56.000000  -0.500000  0
11.000000  -56.500000  -1.000000  0
11.000000  -56.000000  -0.500000  0
10.000000  -56.500000  -1.000000  0
9.000000  -56.500000  -1.000000  0
4.500000  -56.000000  -1.000000  0
4.000000  -56.000000  -0.500000  0
-1.500000  -56.000000  -1.000000  0
55.000000  -56.500000  -2.000000  0
55.500000  -56.000000  -2.000000  0
55.000000  -56.000000  -1.500000  0
14.000000  -56.500000  -2.000000  0
13.500000  -56.000000  -2.000000  0
13.000000  -56.000000  -1.500000  0
6.000000  -56.500000  -2.000000  0
6.500000  -56.000000  -2.000000  0
6.000000  -56.000000  -1.500000  0
5.000000  -56.500000  -2.000000  0
5.000000  -56.000000  -1.500000  0
-1.500000  -56.000000  -2.000000  0
55.000000  -56.000000  -2.500000  0
54.000000  -56.500000  -3.000000  0
54.500000  -56.000000  -3.000000  0
17.500000  -56.000000  -3.000000  0
17.000000  -56.000000  -2.500000  0
16.000000  -56.000000  -2.500000  0
15.000000  -56.000000  -2.500000  0
14.000000  -56.000000  -2.500000  0
6.500000  -56.000000  -3.000000  0
-1.500000  -56.000000  -3.000000  0
54.000000  -56.000000  -3.500000  0
53.000000  -56.500000  -4.000000  0
53.500000  -56.000000  -4.000000  0
33.000000  -56.500000  -4.000000  0
32.000000  -56.500000  -4.000000  0
31.000000  -56.500000  -4.000000  0
30.000000  -56.500000  -4.000000  0
29.000000  -56.500000  -4.000000  0
28.000000  -56.500000  -4.000000  0
18.000000  -56.500000  -4.000000  0
17.500000  -56.000000  -4.000000  0
6.500000  -56.000000  -4.000000  0
-1.500000  -56.000000  -4.000000  0
53.000000  -56.000000  -4.500000  0
52.000000  -56.500000  -5.000000  0
52.500000  -56.000000  -5.000000  0
40.500000  -56.000000  -5.000000  0
40.000000  -56.000000  -4.500000  0
39.000000  -56.000000  -4.500000  0
38.000000  -56.000000  -4.500000  0
37.000000  -56.000000  -4.500000  0
36.000000  -56.000000  -4.500000  0
35.000000  -56.000000  -4.500000  0
34.000000  -56.000000  -4.500000  0
33.000000  -56.000000  -4.500000  0
32.000000  -56.000000  -4.500000  0
31.000000  -56.000000  -4.500000  0
30.000000  -56.000000  -4.500000  0
29.000000  -56.000000  -4.500000  0
28.000000  -56.000000  -4.500000  0
27.000000  -56.000000  -4.500000  0
26.000000  -56.000000  -4.500000  0
25.000000  -56.000000  -4.500000  0
24.000000  -56.000000  -4.500000  0
23.000000  -56.000000  -4.500000  0
22.000000  -56.000000  -4.500000  0
21.000000  -56.000000  -4.500000  0
20.000000  -56.000000  -4.500000  0
19.000000  -56.000000  -4.500000  0
18.000000  -56.000000  -4.500000  0
7.000000  -56.500000  -5.000000  0
7.500000  -56.000000  -5.000000  0
7.000000  -56.000000  -4.500000  0
-1.500000  -56.000000  -5.000000  0
52.000000  -56.000000  -5.500000  0
51.500000  -56.000000  -6.000000  0
40.000000  -56.500000  -6.000000  0
40.500000  -56.000000  -6.000000  0
39.000000  -56.500000  -6.000000  0
36.000000  -56.500000  -6.000000  0
35.000000  -56.500000  -6.000000  0
34.000000  -56.500000  -6.000000  0
33.000000  -56.500000  -6.000000  0
32.000000  -56.500000  -6.000000  0
31.000000  -56.500000  -6.000000  0
30.000000  -56.500000  -6.000000  0
29.000000  -56.500000  -6.000000  0
28.000000  -56.500000  -6.000000  0
8.500000  -56.000000  -6.000000  0
8.000000  -56.000000  -5.500000  0
-1.500000  -56.000000  -6.000000  0
51.500000  -56.000000  -7.000000  0
40.000000  -56.000000  -6.500000  0
39.000000  -56.000000  -6.500000  0
38.000000  -56.000000  -6.500000  0
37.000000  -56.000000  -6.500000  0
36.000000  -56.000000  -6.500000  0
35.000000  -56.000000  -6.500000  0
34.000000  -56.000000  -6.500000  0
33.000000  -56.000000  -6.500000  0
32.000000  -56.000000  -6.500000  0
31.000000  -56.000000  -6.500000  0
30.000000  -56.000000  -6.500000  0
29.000000  -56.000000  -6.500000  0
28.000000  -56.000000  -6.500000  0
27.000000  -56.000000  -6.500000  0
26.000000  -56.000000  -6.500000  0
25.000000  -56.500000  -7.000000  0
25.500000  -56.000000  -7.000000  0
24.000000  -56.500000  -7.000000  0
8.500000  -56.000000  -7.000000  0
-1.500000  -56.000000  -7.000000  0
51.500000  -56.000000  -8.000000  0
25.000000  -56.000000  -7.500000  0
24.000000  -56.000000  -7.500000  0
23.500000  -56.000000  -8.000000  0
9.500000  -56.000000  -8.000000  0
9.000000  -56.000000  -7.500000  0
-1.500000  -56.000000  -8.000000  0
51.500000  -56.000000  -9.000000  0
23.500000  -56.000000  -9.000000  0
12.500000  -56.000000  -9.000000  0
12.000000  -56.000000  -8.500000  0
11.000000  -56.000000  -8.500000  0
10.000000  -56.000000  -8.500000  0
-1.500000  -56.000000  -9.000000  0
51.000000  -56.000000  -9.500000  0
50.500000  -56.000000  -10.000000  0
25.500000  -56.000000  -10.000000  0
25.000000  -56.000000  -9.500000  0
24.000000  -56.000000  -9.500000  0
19.000000  -56.500000  -10.000000  0
18.000000  -56.500000  -10.000000  0
17.500000  -56.000000  -10.000000  0
17.000000  -56.000000  -9.500000  0
16.000000  -56.000000  -9.500000  0
15.000000  -56.000000  -9.500000  0
14.000000  -56.000000  -9.500000  0
13.000000  -56.000000  -9.500000  0
-1.500000  -56.000000  -10.000000  0
50.000000  -56.000000  -10.500000  0
49.000000  -56.500000  -11.000000  0
49.500000  -56.000000  -11.000000  0
26.000000  -56.500000  -11.000000  0
26.500000  -56.000000  -11.000000  0
26.000000  -56.000000  -10.500000  0
21.500000  -56.000000  -11.000000  0
21.000000  -56.000000  -10.500000  0
20.000000  -56.000000  -10.500000  0
19.000000  -56.000000  -10.500000  0
18.000000  -56.000000  -10.500000  0
-1.500000  -56.000000  -11.000000  0
49.000000  -56.500000  -12.000000  0
49.500000  -56.000000  -12.000000  0
48.000000  -56.500000  -12.000000  0
28.500000  -56.000000  -12.000000  0
28.000000  -56.000000  -11.500000  0
27.000000  -56.000000  -11.500000  0
23.500000  -56.000000  -12.000000  0
23.000000  -56.000000  -11.500000  0
22.000000  -56.000000  -11.500000  0
-1.500000  -56.000000  -12.000000  0
49.000000  -56.000000  -12.500000  0
48.000000  -56.000000  -12.500000  0
47.000000  -56.000000  -12.500000  0
46.500000  -56.000000  -13.000000  0
28.000000  -56.000000  -12.500000  0
27.000000  -56.000000  -12.500000  0
26.000000  -56.000000  -12.500000  0
25.000000  -56.000000  -12.500000  0
24.000000  -56.000000  -12.500000  0
-1.500000  -56.000000  -13.000000  0
46.500000  -56.000000  -14.000000  0
-1.500000  -56.000000  -14.000000  0
46.500000  -56.000000  -15.000000  0
2.500000  -56.000000  -15.000000  0
2.000000  -56.000000  -14.500000  0
1.000000  -56.000000  -14.500000  0
0.000000  -56.000000  -14.500000  0
-1.000000  -56.500000  -15.000000  0
-0.500000  -56.000000  -15.000000  0
-1.500000  -56.000000  -15.000000  0
46.000000  -56.500000  -16.000000  0
46.500000  -56.000000  -16.000000  0
5.500000  -56.000000  -16.000000  0
5.000000  -56.000000  -15.500000  0
4.000000  -56.000000  -15.500000  0
3.000000  -56.000000  -15.500000  0
-1.000000  -56.000000  -15.500000  0
46.000000  -56.000000  -16.500000  0
45.500000  -56.000000  -17.000000  0
5.500000  -56.000000  -17.000000  0
45.500000  -56.000000  -18.000000  0
6.000000  -56.500000  -18.000000  0
6.500000  -56.000000  -18.000000  0
6.000000  -56.000000  -17.500000  0
45.000000  -56.000000  -18.500000  0
44.500000  -56.000000  -19.000000  0
6.500000  -56.000000  -19.000000  0
44.000000  -56.500000  -20.000000  0
44.500000  -56.000000  -20.000000  0
7.500000  -56.000000  -20.000000  0
7.000000  -56.000000  -19.500000  0
44.000000  -56.000000  -20.500000  0
43.000000  -56.500000  -21.000000  0
43.500000  -56.000000  -21.000000  0
8.500000  -56.000000  -21.000000  0
8.000000  -56.000000  -20.500000  0
43.000000  -56.000000  -21.500000  0
42.000000  -56.500000  -22.000000  0
42.500000  -56.000000  -22.000000  0
8.500000  -56.000000  -22.000000  0
42.000000  -56.000000  -22.500000  0
41.000000  -56.500000  -23.000000  0
41.500000  -56.000000  -23.000000  0
11.000000  -56.500000  -23.000000  0
10.000000  -56.500000  -23.000000  0
9.500000  -56.000000  -23.000000  0
9.000000  -56.000000  -22.500000  0
41.000000  -56.000000  -23.500000  0
40.000000  -56.000000  -23.500000  0
39.000000  -56.500000  -24.000000  0
39.500000  -56.000000  -24.000000  0
15.000000  -56.500000  -24.000000  0
14.000000  -56.500000  -24.000000  0
13.000000  -56.500000  -24.000000  0
12.500000  -56.000000  -24.000000  0
12.000000  -56.000000  -23.500000  0
11.000000  -56.000000  -23.500000  0
10.000000  -56.000000  -23.500000  0
39.000000  -56.000000  -24.500000  0
38.000000  -56.500000  -25.000000  0
38.500000  -56.000000  -25.000000  0
18.500000  -56.000000  -25.000000  0
18.000000  -56.000000  -24.500000  0
17.000000  -56.000000  -24.500000  0
16.000000  -56.000000  -24.500000  0
15.000000  -56.000000  -24.500000  0
14.000000  -56.000000  -24.500000  0
13.000000  -56.000000  -24.500000  0
38.000000  -56.000000  -25.500000  0
37.000000  -56.000000  -25.500000  0
36.000000  -56.500000  -26.000000  0
36.500000  -56.000000  -26.000000  0
20.000000  -56.500000  -26.000000  0
19.000000  -56.500000  -26.000000  0
18.500000  -56.000000  -26.000000  0
36.000000  -56.000000  -26.500000  0
35.000000  -56.000000  -26.500000  0
34.000000  -56.500000  -27.000000  0
34.500000  -56.000000  -27.000000  0
33.000000  -56.500000  -27.000000  0
25.500000  -56.000000  -27.000000  0
25.000000  -56.000000  -26.500000  0
24.000000  -56.000000  -26.500000  0
23.000000  -56.000000  -26.500000  0
22.000000  -56.000000  -26.500000  0
21.000000  -56.000000  -26.500000  0
20.000000  -56.000000  -26.500000  0
19.000000  -56.000000  -26.500000  0
34.000000  -56.000000  -27.500000  0
33.000000  -56.000000  -27.500000  0
32.000000  -56.000000  -27.500000  0
31.000000  -56.000000  -27.500000  0
30.000000  -56.000000  -27.500000  0
29.000000  -56.000000  -27.500000  0
28.000000  -56.000000  -27.500000  0
27.000000  -56.000000  -27.500000  0
26.000000  -56.000000  -27.500000  0
2.000000  -55.500000  20.000000  0
1.500000  -55.000000  20.000000  0
1.000000  -55.000000  20.500000  0
0.000000  -55.000000  20.500000  0
-1.000000  -55.000000  20.500000  0
-1.500000  -55.000000  20.000000  0
2.000000  -55.500000  19.000000  0
1.500000  -55.000000  19.000000  0
-1.500000  -55.000000  19.000000  0
4.500000  -55.000000  18.000000  0
4.000000  -55.000000  18.500000  0
3.000000  -55.000000  18.500000  0
2.000000  -55.000000  18.500000  0
-1.500000  -55.000000  18.000000  0
6.000000  -55.500000  17.000000  0
6.500000  -55.000000  17.000000  0
6.000000  -55.000000  17.500000  0
5.000000  -55.000000  17.500000  0
-1.500000  -55.000000  17.000000  0
8.000000  -55.500000  16.000000  0
8.500000  -55.000000  16.000000  0
8.000000  -55.000000  16.500000  0
7.000000  -55.000000  16.500000  0
-1.500000  -55.000000  16.000000  0
11.000000  -55.500000  15.000000  0
11.500000  -55.000000  15.000000  0
11.000000  -55.000000  15.500000  0
10.000000  -55.500000  15.000000  0
10.000000  -55.000000  15.500000  0
9.000000  -55.000000  15.500000  0
-1.500000  -55.000000  15.000000  0
12.000000  -55.500000  14.000000  0
12.500000  -55.000000  14.000000  0
12.000000  -55.000000  14.500000  0
-0.500000  -55.000000  14.000000  0
-1.000000  -55.000000  14.500000  0
13.000000  -55.500000  13.000000  0
13.500000  -55.000000  13.000000  0
13.000000  -55.000000  13.500000  0
-0.500000  -55.000000  13.000000  0
16.000000  -55.500000  12.000000  0
16.500000  -55.000000  12.000000  0
16.000000  -55.000000  12.500000  0
15.000000  -55.000000  12.500000  0
14.000000  -55.000000  12.500000  0
-0.500000  -55.000000  12.000000  0
19.500000  -55.000000  11.000000  0
19.000000  -55.000000  11.500000  0
18.000000  -55.000000  11.500000  0
17.000000  -55.000000  11.500000  0
-0.500000  -55.000000  11.000000  0
22.000000  -55.500000  10.000000  0
22.500000  -55.000000  10.000000  0
22.000000  -55.000000  10.500000  0
21.000000  -55.000000  10.500000  0
20.000000  -55.000000  10.500000  0
-0.500000  -55.000000  10.000000  0
23.000000  -55.500000  9.000000  0
23.500000  -55.000000  9.000000  0
23.000000  -55.000000  9.500000  0
-0.500000  -55.000000  9.000000  0
27.000000  -55.500000  8.000000  0
27.500000  -55.000000  8.000000  0
27.000000  -55.000000  8.500000  0
26.000000  -55.500000  8.000000  0
26.000000  -55.000000  8.500000  0
25.000000  -55.500000  8.000000  0
25.000000  -55.000000  8.500000  0
24.000000  -55.000000  8.500000  0
-0.500000  -55.000000  8.000000  0
29.500000  -55.000000  7.000000  0
29.000000  -55.000000  7.500000  0
28.000000  -55.000000  7.500000  0
6.000000  -55.500000  7.000000  0
6.500000  -55.000000  7.000000  0
6.000000  -55.000000  7.500000  0
5.500000  -55.000000  7.000000  0
-0.500000  -55.000000  7.000000  0
34.000000  -55.500000  6.000000  0
34.500000  -55.000000  6.000000  0
34.000000  -55.000000  6.500000  0
33.000000  -55.500000  6.000000  0
33.000000  -55.000000  6.500000  0
32.000000  -55.500000  6.000000  0
32.000000  -55.000000  6.500000  0
31.000000  -55.000000  6.500000  0
30.000000  -55.000000  6.500000  0
6.500000  -55.000000  6.000000  0
5.000000  -55.000000  6.500000  0
4.000000  -55.500000  6.000000  0
4.500000  -55.000000  6.000000  0
-0.500000  -55.000000  6.000000  0
36.500000  -55.000000  5.000000  0
36.000000  -55.000000  5.500000  0
35.000000  -55.000000  5.500000  0
22.000000  -55.500000  5.000000  0
21.000000  -55.500000  5.000000  0
20.500000  -55.000000  5.000000  0
20.000000  -55.000000  5.500000  0
19.000000  -55.000000  5.500000  0
18.000000  -55.000000  5.500000  0
17.000000  -55.000000  5.500000  0
16.000000  -55.000000  5.500000  0
15.000000  -55.000000  5.500000  0
14.000000  -55.000000  5.500000  0
13.000000  -55.500000  5.000000  0
13.500000  -55.000000  5.000000  0
12.000000  -55.500000  5.000000  0
11.000000  -55.500000  5.000000  0
10.500000  -55.000000  5.000000  0
10.000000  -55.000000  5.500000  0
9.000000  -55.500000  5.000000  0
9.500000  -55.000000  5.000000  0
8.000000  -55.500000  5.000000  0
7.500000  -55.000000  5.000000  0
7.000000  -55.000000  5.500000  0
4.000000  -55.500000  5.000000  0
4.500000  -55.000000  5.000000  0
3.000000  -55.500000  5.000000  0
-0.500000  -55.000000  5.000000  0
44.000000  -55.500000  4.000000  0
43.500000  -55.000000  4.000000  0
43.000000  -55.000000  4.500000  0
42.000000  -55.000000  4.500000  0
41.000000  -55.000000  4.500000  0
40.000000  -55.000000  4.500000  0
39.000000  -55.000000  4.500000  0
38.000000  -55.000000  4.500000  0
37.000000  -55.000000  4.500000  0
23.500000  -55.000000  4.000000  0
23.000000  -55.000000  4.500000  0
22.000000  -55.000000  4.500000  0
21.000000  -55.000000  4.500000  0
13.000000  -55.000000  4.500000  0
12.000000  -55.000000  4.500000  0
11.000000  -55.000000  4.500000  0
9.000000  -55.000000  4.500000  0
8.000000  -55.000000  4.500000  0
4.000000  -55.000000  4.500000  0
3.000000  -55.000000  4.500000  0
2.000000  -55.000000  4.500000  0
1.000000  -55.000000  4.500000  0
0.000000  -55.000000  4.500000  0
47.500000  -55.000000  3.000000  0
47.000000  -55.000000  3.500000  0
46.000000  -55.000000  3.500000  0
45.000000  -55.000000  3.500000  0
44.000000  -55.000000  3.500000  0
23.500000  -55.000000  3.000000  0
54.500000  -55.000000  2.000000  0
54.000000  -55.000000  2.500000  0
53.000000  -55.000000  2.500000  0
52.000000  -55.000000  2.500000  0
51.000000  -55.000000  2.500000  0
50.000000  -55.000000  2.500000  0
49.000000  -55.000000  2.500000  0
48.000000  -55.000000  2.500000  0
23.000000  -55.000000  2.500000  0
22.000000  -55.000000  2.500000  0
21.000000  -55.000000  2.500000  0
20.500000  -55.000000  2.000000  0
19.000000  -55.500000  2.000000  0
18.000000  -55.500000  2.000000  0
17.000000  -55.500000  2.000000  0
16.000000  -55.500000  2.000000  0
15.000000  -55.500000  2.000000  0
14.000000  -55.500000  2.000000  0
13.000000  -55.500000  2.000000  0
1.500000  -55.000000  2.000000  0
1.000000  -55.000000  2.500000  0
0.000000  -55.000000  2.500000  0
-0.500000  -55.000000  2.000000  0
54.000000  -55.000000  1.500000  0
53.500000  -55.000000  1.000000  0
20.000000  -55.000000  1.500000  0
19.000000  -55.000000  1.500000  0
18.000000  -55.000000  1.500000  0
17.000000  -55.000000  1.500000  0
16.000000  -55.000000  1.500000  0
15.000000  -55.000000  1.500000  0
14.000000  -55.500000  1.000000  0
14.500000  -55.000000  1.000000  0
13.000000  -55.500000  1.000000  0
2.500000  -55.000000  1.000000  0
2.000000  -55.000000  1.500000  0
-0.500000  -55.000000  1.000000  0
55.500000  -55.000000  0.000000  0
55.000000  -55.000000  0.500000  0
54.000000  -55.000000  0.500000  0
14.000000  -55.500000  0.000000  0
14.500000  -55.000000  0.000000  0
13.000000  -55.500000  0.000000  0
12.500000  -55.000000  0.000000  0
12.000000  -55.000000  0.500000  0
11.000000  -55.000000  0.500000  0
10.500000  -55.000000  0.000000  0
4.000000  -55.500000  0.000000  0
4.500000  -55.000000  0.000000  0
4.000000  -55.000000  0.500000  0
3.000000  -55.000000  0.500000  0
-1.000000  -55.000000  0.500000  0
-1.500000  -55.000000  0.000000  0
55.000000  -55.000000  -0.500000  0
54.500000  -55.000000  -1.000000  0
16.000000  -55.500000  -1.000000  0
16.500000  -55.000000  -1.000000  0
16.000000  -55.000000  -0.500000  0
15.000000  -55.500000  -1.000000  0
15.000000  -55.000000  -0.500000  0
14.500000  -55.000000  -1.000000  0
14.000000  -55.000000  -0.500000  0
13.000000  -55.000000  -0.500000  0
12.500000  -55.000000  -1.000000  0
12.000000  -55.000000  -0.500000  0
11.000000  -55.000000  -0.500000  0
4.500000  -55.000000  -1.000000  0
-1.500000  -55.000000  -1.000000  0
55.500000  -55.000000  -2.000000  0
55.000000  -55.000000  -1.500000  0
16.000000  -55.500000  -2.000000  0
16.500000  -55.000000  -2.000000  0
15.000000  -55.500000  -2.000000  0
14.000000  -55.500000  -2.000000  0
14.000000  -55.000000  -1.500000  0
13.000000  -55.000000  -1.500000  0
6.500000  -55.000000  -2.000000  0
6.000000  -55.000000  -1.500000  0
5.000000  -55.000000  -1.500000  0
-1.500000  -55.000000  -2.000000  0
55.000000  -55.500000  -3.000000  0
55.500000  -55.000000  -3.000000  0
17.500000  -55.000000  -3.000000  0
17.000000  -55.000000  -2.500000  0
6.500000  -55.000000  -3.000000  0
-1.500000  -55.000000  -3.000000  0
55.000000  -55.000000  -3.500000  0
54.000000  -55.500000  -4.000000  0
54.500000  -55.000000  -4.000000  0
19.000000  -55.500000  -4.000000  0
19.500000  -55.000000  -4.000000  0
19.000000  -55.000000  -3.500000  0
18.000000  -55.500000  -4.000000  0
18.000000  -55.000000  -3.500000  0
7.000000  -55.500000  -4.000000  0
7.500000  -55.000000  -4.000000  0
7.000000  -55.000000  -3.500000  0
-1.500000  -55.000000  -4.000000  0
54.000000  -55.000000  -4.500000  0
53.000000  -55.000000  -4.500000  0
52.500000  -55.000000  -5.000000  0
40.000000  -55.500000  -5.000000  0
39.000000  -55.500000  -5.000000  0
38.000000  -55.500000  -5.000000  0
37.000000  -55.500000  -5.000000  0
36.500000  -55.000000  -5.000000  0
36.000000  -55.000000  -4.500000  0
35.000000  -55.000000  -4.500000  0
34.000000  -55.000000  -4.500000  0
33.000000  -55.000000  -4.500000  0
32.000000  -55.000000  -4.500000  0
31.000000  -55.000000  -4.500000  0
30.000000  -55.000000  -4.500000  0
29.000000  -55.000000  -4.500000  0
28.000000  -55.000000  -4.500000  0
27.000000  -55.000000  -4.500000  0
26.000000  -55.000000  -4.500000  0
25.000000  -55.000000  -4.500000  0
24.000000  -55.000000  -4.500000  0
23.000000  -55.000000  -4.500000  0
22.000000  -55.000000  -4.500000  0
21.000000  -55.000000  -4.500000  0
20.000000  -55.000000  -4.500000  0
7.500000  -55.000000  -5.000000  0
-1.500000  -55.000000  -5.000000  0
52.000000  -55.000000  -5.500000  0
51.500000  -55.000000  -6.000000  0
41.000000  -55.500000  -6.000000  0
41.500000  -55.000000  -6.000000  0
41.000000  -55.000000  -5.500000  0
40.000000  -55.000000  -5.500000  0
39.000000  -55.000000  -5.500000  0
38.000000  -55.000000  -5.500000  0
37.000000  -55.000000  -5.500000  0
8.500000  -55.000000  -6.000000  0
8.000000  -55.000000  -5.500000  0
-1.500000  -55.000000  -6.000000  0
51.500000  -55.000000  -7.000000  0
41.000000  -55.000000  -6.500000  0
40.000000  -55.000000  -6.500000  0
39.000000  -55.000000  -6.500000  0
38.000000  -55.000000  -6.500000  0
37.000000  -55.000000  -6.500000  0
36.000000  -55.000000  -6.500000  0
35.000000  -55.000000  -6.500000  0
34.000000  -55.000000  -6.500000  0
33.000000  -55.000000  -6.500000  0
32.000000  -55.000000  -6.500000  0
31.000000  -55.000000  -6.500000  0
30.000000  -55.000000  -6.500000  0
29.000000  -55.000000  -6.500000  0
28.000000  -55.000000  -6.500000  0
27.000000  -55.000000  -6.500000  0
26.000000  -55.000000  -6.500000  0
25.500000  -55.000000  -7.000000  0
8.500000  -55.000000  -7.000000  0
-1.500000  -55.000000  -7.000000  0
51.500000  -55.000000  -8.000000  0
25.000000  -55.500000  -8.000000  0
25.500000  -55.000000  -8.000000  0
24.000000  -55.500000  -8.000000  0
10.000000  -55.500000  -8.000000  0
10.500000  -55.000000  -8.000000  0
10.000000  -55.000000  -7.500000  0
9.000000  -55.000000  -7.500000  0
-1.500000  -55.000000  -8.000000  0
51.500000  -55.000000  -9.000000  0
25.000000  -55.500000  -9.000000  0
25.500000  -55.000000  -9.000000  0
24.000000  -55.500000  -9.000000  0
12.500000  -55.000000  -9.000000  0
12.000000  -55.000000  -8.500000  0
11.000000  -55.000000  -8.500000  0
-1.500000  -55.000000  -9.000000  0
51.000000  -55.500000  -10.000000  0
51.500000  -55.000000  -10.000000  0
27.000000  -55.500000  -10.000000  0
27.500000  -55.000000  -10.000000  0
27.000000  -55.000000  -9.500000  0
26.000000  -55.500000  -10.000000  0
26.000000  -55.000000  -9.500000  0
17.500000  -55.000000  -10.000000  0
17.000000  -55.000000  -9.500000  0
16.000000  -55.000000  -9.500000  0
15.000000  -55.000000  -9.500000  0
14.000000  -55.000000  -9.500000  0
13.000000  -55.000000  -9.500000  0
-1.500000  -55.000000  -10.000000  0
51.000000  -55.000000  -10.500000  0
50.000000  -55.500000  -11.000000  0
50.500000  -55.000000  -11.000000  0
28.000000  -55.500000  -11.000000  0
28.500000  -55.000000  -11.000000  0
28.000000  -55.000000  -10.500000  0
27.000000  -55.500000  -11.000000  0
21.500000  -55.000000  -11.000000  0
21.000000  -55.000000  -10.500000  0
20.000000  -55.000000  -10.500000  0
19.000000  -55.000000  -10.500000  0
18.000000  -55.000000  -10.500000  0
-1.500000  -55.000000  -11.000000  0
50.000000  -55.500000  -12.000000  0
50.500000  -55.000000  -12.000000  0
29.000000  -55.500000  -12.000000  0
29.500000  -55.000000  -12.000000  0
29.000000  -55.000000  -11.500000  0
25.000000  -55.500000  -12.000000  0
25.500000  -55.000000  -12.000000  0
25.000000  -55.000000  -11.500000  0
24.000000  -55.500000  -12.000000  0
24.000000  -55.000000  -11.500000  0
23.000000  -55.000000  -11.500000  0
22.000000  -55.000000  -11.500000  0
-1.500000  -55.000000  -12.000000  0
