#!ascii version of /media/datadisk/atena/Carstendataset/Carsten_freesurfer/Carsten/surf/outer_inner_skull_surface
10242 20480
6139 6138 2771 0
6139 851 6138 0
6139 3988 851 0
6140 3988 6139 0
6140 369 3988 0
6141 6142 166 0
6143 6142 6141 0
6143 854 6142 0
2774 6143 853 0
6144 6143 2774 0
6144 854 6143 0
6144 3996 854 0
6145 3996 6144 0
6145 370 3996 0
6145 6146 370 0
6147 6146 6145 0
6147 856 6146 0
2776 6147 855 0
6148 6147 2776 0
6148 856 6147 0
6148 4003 856 0
6122 4003 6148 0
6122 362 4003 0
6149 6150 371 0
6151 6150 6149 0
6151 858 6150 0
2778 6151 857 0
6152 6151 2778 0
6152 858 6151 0
6152 4010 858 0
6153 4010 6152 0
6153 373 4010 0
6154 6155 168 0
6156 6155 6154 0
6156 861 6155 0
2781 6156 860 0
6157 6156 2781 0
6157 861 6156 0
6157 4018 861 0
6158 4018 6157 0
6158 374 4018 0
6158 6159 374 0
6160 6159 6158 0
6160 863 6159 0
2783 6160 862 0
6161 6160 2783 0
6161 863 6160 0
6161 4025 863 0
6136 4025 6161 0
6136 367 4025 0
6162 6163 375 0
6164 6163 6162 0
6164 865 6163 0
2785 6164 864 0
6165 6164 2785 0
6165 865 6164 0
6165 4032 865 0
6166 4032 6165 0
6166 377 4032 0
6167 6168 170 0
6169 6168 6167 0
6169 868 6168 0
2788 6169 867 0
6170 6169 2788 0
6170 868 6169 0
6170 4040 868 0
6171 4040 6170 0
6171 378 4040 0
6171 6172 378 0
6173 6172 6171 0
6173 870 6172 0
2790 6173 869 0
6174 6173 2790 0
6174 870 6173 0
6174 4047 870 0
6149 4047 6174 0
6149 371 4047 0
6135 6175 366 0
6176 6175 6135 0
6176 871 6175 0
2791 6176 849 0
6177 6176 2791 0
6177 871 6176 0
6177 4053 871 0
6178 4053 6177 0
6178 380 4053 0
6179 6180 171 0
6181 6180 6179 0
6181 874 6180 0
2794 6181 873 0
6182 6181 2794 0
6182 874 6181 0
6182 4061 874 0
6183 4061 6182 0
6183 381 4061 0
6183 6184 381 0
6185 6184 6183 0
6185 876 6184 0
2796 6185 875 0
6186 6185 2796 0
6186 876 6185 0
6186 4068 876 0
6162 4068 6186 0
6162 375 4068 0
6187 6188 382 0
6189 6188 6187 0
6189 878 6188 0
2798 6189 877 0
6190 6189 2798 0
6190 878 6189 0
6190 4075 878 0
6191 4075 6190 0
6191 384 4075 0
6192 6193 173 0
6194 6193 6192 0
6194 881 6193 0
2801 6194 880 0
6195 6194 2801 0
6195 881 6194 0
6195 4083 881 0
6196 4083 6195 0
6196 385 4083 0
6196 6197 385 0
6198 6197 6196 0
6198 883 6197 0
2803 6198 882 0
6199 6198 2803 0
6199 883 6198 0
6199 4090 883 0
6200 4090 6199 0
6200 386 4090 0
6201 6202 387 0
6203 6202 6201 0
6203 886 6202 0
2806 6203 885 0
6204 6203 2806 0
6204 886 6203 0
6204 4098 886 0
6205 4098 6204 0
6205 389 4098 0
6206 6207 176 0
6208 6207 6206 0
6208 889 6207 0
2809 6208 888 0
6209 6208 2809 0
6209 889 6208 0
6209 4106 889 0
6210 4106 6209 0
6210 390 4106 0
6210 6211 390 0
6212 6211 6210 0
6212 891 6211 0
2811 6212 890 0
6213 6212 2811 0
6213 891 6212 0
6213 4113 891 0
6187 4113 6213 0
6187 382 4113 0
6214 6215 391 0
6216 6215 6214 0
6216 893 6215 0
2813 6216 892 0
6217 6216 2813 0
6217 893 6216 0
6217 4120 893 0
6218 4120 6217 0
6218 393 4120 0
6219 6220 178 0
6221 6220 6219 0
6221 896 6220 0
2816 6221 895 0
6222 6221 2816 0
6222 896 6221 0
6222 4128 896 0
6223 4128 6222 0
6223 394 4128 0
6223 6224 394 0
6225 6224 6223 0
6225 898 6224 0
2818 6225 897 0
6226 6225 2818 0
6226 898 6225 0
6226 4135 898 0
6201 4135 6226 0
6201 387 4135 0
6227 6228 395 0
6229 6228 6227 0
6229 900 6228 0
2820 6229 899 0
6230 6229 2820 0
6230 900 6229 0
6230 4142 900 0
6231 4142 6230 0
6231 397 4142 0
6232 6233 180 0
6234 6233 6232 0
6234 903 6233 0
2823 6234 902 0
6235 6234 2823 0
6235 903 6234 0
6235 4150 903 0
6236 4150 6235 0
6236 398 4150 0
6236 6237 398 0
6238 6237 6236 0
6238 905 6237 0
2825 6238 904 0
6239 6238 2825 0
6239 905 6238 0
6239 4157 905 0
6240 4157 6239 0
6240 399 4157 0
6241 6242 400 0
6243 6242 6241 0
6243 908 6242 0
2828 6243 907 0
6244 6243 2828 0
6244 908 6243 0
6244 4165 908 0
6245 4165 6244 0
6245 402 4165 0
6246 6247 183 0
6248 6247 6246 0
6248 911 6247 0
2831 6248 910 0
6249 6248 2831 0
6249 911 6248 0
6249 4173 911 0
6250 4173 6249 0
6250 403 4173 0
6250 6251 403 0
6252 6251 6250 0
6252 913 6251 0
2833 6252 912 0
6253 6252 2833 0
6253 913 6252 0
6253 4180 913 0
6227 4180 6253 0
6227 395 4180 0
6254 6255 404 0
6256 6255 6254 0
6256 915 6255 0
2835 6256 914 0
6257 6256 2835 0
6257 915 6256 0
6257 4187 915 0
6258 4187 6257 0
6258 406 4187 0
6259 6260 185 0
6261 6260 6259 0
6261 918 6260 0
2838 6261 917 0
6262 6261 2838 0
6262 918 6261 0
6262 4195 918 0
6263 4195 6262 0
6263 407 4195 0
6263 6264 407 0
6265 6264 6263 0
6265 920 6264 0
2840 6265 919 0
6266 6265 2840 0
6266 920 6265 0
6266 4202 920 0
6267 4202 6266 0
6267 408 4202 0
6268 6269 409 0
6270 6269 6268 0
6270 923 6269 0
2843 6270 922 0
6271 6270 2843 0
6271 923 6270 0
6271 4210 923 0
6272 4210 6271 0
6272 411 4210 0
6273 6274 188 0
6275 6274 6273 0
6275 926 6274 0
2846 6275 925 0
6276 6275 2846 0
6276 926 6275 0
6276 4218 926 0
6277 4218 6276 0
6277 412 4218 0
6277 6278 412 0
6279 6278 6277 0
6279 928 6278 0
2848 6279 927 0
6280 6279 2848 0
6280 928 6279 0
6280 4225 928 0
6254 4225 6280 0
6254 404 4225 0
6281 6282 413 0
6283 6282 6281 0
6283 930 6282 0
2850 6283 929 0
6284 6283 2850 0
6284 930 6283 0
6284 4232 930 0
6285 4232 6284 0
6285 415 4232 0
6286 6287 190 0
6288 6287 6286 0
6288 933 6287 0
2853 6288 932 0
6289 6288 2853 0
6289 933 6288 0
6289 4240 933 0
6290 4240 6289 0
6290 416 4240 0
6290 6291 416 0
6292 6291 6290 0
6292 935 6291 0
2855 6292 934 0
6293 6292 2855 0
6293 935 6292 0
6293 4247 935 0
6294 4247 6293 0
6294 417 4247 0
6295 6296 418 0
6297 6296 6295 0
6297 938 6296 0
2858 6297 937 0
6298 6297 2858 0
6298 938 6297 0
6298 4255 938 0
6299 4255 6298 0
6299 420 4255 0
6300 6301 193 0
6302 6301 6300 0
6302 941 6301 0
2861 6302 940 0
6303 6302 2861 0
6303 941 6302 0
6303 4263 941 0
6304 4263 6303 0
6304 421 4263 0
6304 6305 421 0
6306 6305 6304 0
6306 943 6305 0
2863 6306 942 0
6307 6306 2863 0
6307 943 6306 0
6307 4270 943 0
6281 4270 6307 0
6281 413 4270 0
6308 6309 422 0
6310 6309 6308 0
6310 945 6309 0
2865 6310 944 0
6311 6310 2865 0
6311 945 6310 0
6311 4277 945 0
6312 4277 6311 0
6312 424 4277 0
6313 6314 195 0
6315 6314 6313 0
6315 948 6314 0
2868 6315 947 0
6316 6315 2868 0
6316 948 6315 0
6316 4285 948 0
6317 4285 6316 0
6317 425 4285 0
6317 6318 425 0
6319 6318 6317 0
6319 950 6318 0
2870 6319 949 0
6320 6319 2870 0
6320 950 6319 0
6320 4292 950 0
6321 4292 6320 0
6321 426 4292 0
6322 6323 427 0
6324 6323 6322 0
6324 953 6323 0
2873 6324 952 0
6325 6324 2873 0
6325 953 6324 0
6325 4300 953 0
6326 4300 6325 0
6326 429 4300 0
6327 6328 198 0
6329 6328 6327 0
6329 956 6328 0
2876 6329 955 0
6330 6329 2876 0
6330 956 6329 0
6330 4308 956 0
6331 4308 6330 0
6331 430 4308 0
6331 6332 430 0
6333 6332 6331 0
6333 958 6332 0
2878 6333 957 0
6334 6333 2878 0
6334 958 6333 0
6334 4315 958 0
6335 4315 6334 0
6335 431 4315 0
6336 6337 432 0
6338 6337 6336 0
6338 961 6337 0
2881 6338 960 0
6339 6338 2881 0
6339 961 6338 0
6339 4323 961 0
6340 4323 6339 0
6340 434 4323 0
6341 6342 201 0
6343 6342 6341 0
6343 964 6342 0
2884 6343 963 0
6344 6343 2884 0
6344 964 6343 0
6344 4331 964 0
6345 4331 6344 0
6345 435 4331 0
6345 6346 435 0
6347 6346 6345 0
6347 966 6346 0
2886 6347 965 0
6348 6347 2886 0
6348 966 6347 0
6348 4338 966 0
6349 4338 6348 0
6349 436 4338 0
6350 6351 437 0
6352 6351 6350 0
6352 969 6351 0
2889 6352 968 0
6353 6352 2889 0
6353 969 6352 0
6353 4346 969 0
6354 4346 6353 0
6354 439 4346 0
6355 6356 204 0
6357 6356 6355 0
6357 972 6356 0
2892 6357 971 0
6358 6357 2892 0
6358 972 6357 0
6358 4354 972 0
6359 4354 6358 0
6359 440 4354 0
6359 6360 440 0
6361 6360 6359 0
6361 974 6360 0
2894 6361 973 0
6362 6361 2894 0
6362 974 6361 0
6362 4361 974 0
6363 4361 6362 0
6363 441 4361 0
6364 6365 442 0
6366 6365 6364 0
6366 977 6365 0
2897 6366 976 0
6367 6366 2897 0
6367 977 6366 0
6367 4369 977 0
6368 4369 6367 0
6368 444 4369 0
6369 6370 207 0
6371 6370 6369 0
6371 980 6370 0
2900 6371 979 0
6372 6371 2900 0
6372 980 6371 0
6372 4377 980 0
6373 4377 6372 0
6373 445 4377 0
6373 6374 445 0
6375 6374 6373 0
6375 982 6374 0
2902 6375 981 0
6376 6375 2902 0
6376 982 6375 0
6376 4384 982 0
6377 4384 6376 0
6377 446 4384 0
6378 6379 447 0
6380 6379 6378 0
6380 985 6379 0
2905 6380 984 0
6381 6380 2905 0
6381 985 6380 0
6381 4392 985 0
6382 4392 6381 0
6382 449 4392 0
6383 6384 210 0
6385 6384 6383 0
6385 988 6384 0
2908 6385 987 0
6386 6385 2908 0
6386 988 6385 0
6386 4400 988 0
6387 4400 6386 0
6387 450 4400 0
6387 6388 450 0
6389 6388 6387 0
6389 990 6388 0
2910 6389 989 0
6390 6389 2910 0
6390 990 6389 0
6390 4407 990 0
6391 4407 6390 0
6391 451 4407 0
6392 6393 452 0
6394 6393 6392 0
6394 993 6393 0
2913 6394 992 0
6395 6394 2913 0
6395 993 6394 0
6395 4415 993 0
6396 4415 6395 0
6396 454 4415 0
6397 6398 213 0
6399 6398 6397 0
6399 996 6398 0
2916 6399 995 0
6400 6399 2916 0
6400 996 6399 0
6400 4423 996 0
6401 4423 6400 0
6401 455 4423 0
6401 6402 455 0
6403 6402 6401 0
6403 998 6402 0
2918 6403 997 0
6404 6403 2918 0
6404 998 6403 0
6404 4430 998 0
6405 4430 6404 0
6405 456 4430 0
6406 6407 363 0
6408 6407 6406 0
6408 1001 6407 0
2921 6408 1000 0
6409 6408 2921 0
6409 1001 6408 0
6409 4438 1001 0
6410 4438 6409 0
6410 457 4438 0
6411 6412 216 0
6413 6412 6411 0
6413 1004 6412 0
2924 6413 1003 0
6414 6413 2924 0
6414 1004 6413 0
6414 4446 1004 0
6415 4446 6414 0
6415 458 4446 0
6415 6416 458 0
6417 6416 6415 0
6417 1006 6416 0
2926 6417 1005 0
6418 6417 2926 0
6418 1006 6417 0
6418 4453 1006 0
6419 4453 6418 0
6419 459 4453 0
6419 6420 459 0
6421 6420 6419 0
6421 1008 6420 0
2928 6421 1007 0
6422 6421 2928 0
6422 1008 6421 0
6422 4460 1008 0
6423 4460 6422 0
6423 460 4460 0
6424 6425 218 0
6426 6425 6424 0
6426 1011 6425 0
2931 6426 1010 0
6427 6426 2931 0
6427 1011 6426 0
6427 4468 1011 0
6428 4468 6427 0
6428 461 4468 0
6428 6429 461 0
6430 6429 6428 0
6430 1013 6429 0
2933 6430 1012 0
6431 6430 2933 0
6431 1013 6430 0
6431 4475 1013 0
6432 4475 6431 0
6432 462 4475 0
6433 6434 463 0
6435 6434 6433 0
6435 1016 6434 0
2936 6435 1015 0
6436 6435 2936 0
6436 1016 6435 0
6436 4483 1016 0
6437 4483 6436 0
6437 465 4483 0
6438 6439 221 0
6440 6439 6438 0
6440 1019 6439 0
2939 6440 1018 0
6441 6440 2939 0
6441 1019 6440 0
6441 4491 1019 0
6442 4491 6441 0
6442 466 4491 0
6442 6443 466 0
6444 6443 6442 0
6444 1021 6443 0
2941 6444 1020 0
6445 6444 2941 0
6445 1021 6444 0
6445 4498 1021 0
6446 4498 6445 0
6446 467 4498 0
6447 6448 368 0
6449 6448 6447 0
6449 1024 6448 0
2944 6449 1023 0
6450 6449 2944 0
6450 1024 6449 0
6450 4506 1024 0
6451 4506 6450 0
6451 468 4506 0
6452 6453 224 0
6454 6453 6452 0
6454 1027 6453 0
2947 6454 1026 0
6455 6454 2947 0
6455 1027 6454 0
6455 4514 1027 0
6456 4514 6455 0
6456 469 4514 0
6456 6457 469 0
6458 6457 6456 0
6458 1029 6457 0
2949 6458 1028 0
6459 6458 2949 0
6459 1029 6458 0
6459 4521 1029 0
6460 4521 6459 0
6460 470 4521 0
6460 6461 470 0
6462 6461 6460 0
6462 1031 6461 0
2951 6462 1030 0
6463 6462 2951 0
6463 1031 6462 0
6463 4528 1031 0
6464 4528 6463 0
6464 471 4528 0
6465 6466 226 0
6467 6466 6465 0
6467 1034 6466 0
2954 6467 1033 0
6468 6467 2954 0
6468 1034 6467 0
6468 4536 1034 0
6469 4536 6468 0
6469 472 4536 0
6469 6470 472 0
6471 6470 6469 0
6471 1036 6470 0
2956 6471 1035 0
6472 6471 2956 0
6472 1036 6471 0
6472 4543 1036 0
6392 4543 6472 0
6392 452 4543 0
6473 6474 473 0
6475 6474 6473 0
6475 1038 6474 0
2958 6475 1037 0
6476 6475 2958 0
6476 1038 6475 0
6476 4550 1038 0
6477 4550 6476 0
6477 475 4550 0
6478 6479 228 0
6480 6479 6478 0
6480 1041 6479 0
2961 6480 1040 0
6481 6480 2961 0
6481 1041 6480 0
6481 4558 1041 0
6482 4558 6481 0
6482 476 4558 0
6482 6483 476 0
6484 6483 6482 0
6484 1043 6483 0
2963 6484 1042 0
6485 6484 2963 0
6485 1043 6484 0
6485 4565 1043 0
6486 4565 6485 0
6486 477 4565 0
6487 6488 372 0
6489 6488 6487 0
6489 1046 6488 0
2966 6489 1045 0
6490 6489 2966 0
6490 1046 6489 0
6490 4573 1046 0
6491 4573 6490 0
6491 478 4573 0
6492 6493 231 0
6494 6493 6492 0
6494 1049 6493 0
2969 6494 1048 0
6495 6494 2969 0
6495 1049 6494 0
6495 4581 1049 0
6496 4581 6495 0
6496 479 4581 0
6496 6497 479 0
6498 6497 6496 0
6498 1051 6497 0
2971 6498 1050 0
6499 6498 2971 0
6499 1051 6498 0
6499 4588 1051 0
6500 4588 6499 0
6500 480 4588 0
6500 6501 480 0
6502 6501 6500 0
6502 1053 6501 0
2973 6502 1052 0
6503 6502 2973 0
6503 1053 6502 0
6503 4595 1053 0
6504 4595 6503 0
6504 481 4595 0
6505 6506 233 0
6507 6506 6505 0
6507 1056 6506 0
2976 6507 1055 0
6508 6507 2976 0
6508 1056 6507 0
6508 4603 1056 0
6509 4603 6508 0
6509 482 4603 0
6509 6510 482 0
6511 6510 6509 0
6511 1058 6510 0
2978 6511 1057 0
6512 6511 2978 0
6512 1058 6511 0
6512 4610 1058 0
6433 4610 6512 0
6433 463 4610 0
6513 6514 483 0
6515 6514 6513 0
6515 1060 6514 0
2980 6515 1059 0
6516 6515 2980 0
6516 1060 6515 0
6516 4617 1060 0
6517 4617 6516 0
6517 485 4617 0
6518 6519 235 0
6520 6519 6518 0
6520 1063 6519 0
2983 6520 1062 0
6521 6520 2983 0
6521 1063 6520 0
6521 4625 1063 0
6522 4625 6521 0
6522 486 4625 0
6522 6523 486 0
6524 6523 6522 0
6524 1065 6523 0
2985 6524 1064 0
6525 6524 2985 0
6525 1065 6524 0
6525 4632 1065 0
6526 4632 6525 0
6526 487 4632 0
6527 6528 376 0
6529 6528 6527 0
6529 1068 6528 0
2988 6529 1067 0
6530 6529 2988 0
6530 1068 6529 0
6530 4640 1068 0
6531 4640 6530 0
6531 488 4640 0
6532 6533 238 0
6534 6533 6532 0
6534 1071 6533 0
2991 6534 1070 0
6535 6534 2991 0
6535 1071 6534 0
6535 4648 1071 0
6536 4648 6535 0
6536 489 4648 0
6536 6537 489 0
6538 6537 6536 0
6538 1073 6537 0
2993 6538 1072 0
6539 6538 2993 0
6539 1073 6538 0
6539 4655 1073 0
6540 4655 6539 0
6540 490 4655 0
6540 6541 490 0
6542 6541 6540 0
6542 1075 6541 0
2995 6542 1074 0
6543 6542 2995 0
6543 1075 6542 0
6543 4662 1075 0
6544 4662 6543 0
6544 491 4662 0
6545 6546 240 0
6547 6546 6545 0
6547 1078 6546 0
2998 6547 1077 0
6548 6547 2998 0
6548 1078 6547 0
6548 4670 1078 0
6549 4670 6548 0
6549 492 4670 0
6549 6550 492 0
6551 6550 6549 0
6551 1080 6550 0
3000 6551 1079 0
6552 6551 3000 0
6552 1080 6551 0
6552 4677 1080 0
6473 4677 6552 0
6473 473 4677 0
6432 6553 462 0
6554 6553 6432 0
6554 1081 6553 0
3001 6554 1014 0
6555 6554 3001 0
6555 1081 6554 0
6555 4683 1081 0
6556 4683 6555 0
6556 493 4683 0
6557 6558 241 0
6559 6558 6557 0
6559 1084 6558 0
3004 6559 1083 0
6560 6559 3004 0
6560 1084 6559 0
6560 4691 1084 0
6561 4691 6560 0
6561 494 4691 0
6561 6562 494 0
6563 6562 6561 0
6563 1086 6562 0
3006 6563 1085 0
6564 6563 3006 0
6564 1086 6563 0
6564 4698 1086 0
6565 4698 6564 0
6565 495 4698 0
6566 6567 379 0
6568 6567 6566 0
6568 1089 6567 0
3009 6568 1088 0
6569 6568 3009 0
6569 1089 6568 0
6569 4706 1089 0
6570 4706 6569 0
6570 496 4706 0
6571 6572 244 0
6573 6572 6571 0
6573 1092 6572 0
3012 6573 1091 0
6574 6573 3012 0
6574 1092 6573 0
6574 4714 1092 0
6575 4714 6574 0
6575 497 4714 0
6575 6576 497 0
6577 6576 6575 0
6577 1094 6576 0
3014 6577 1093 0
6578 6577 3014 0
6578 1094 6577 0
6578 4721 1094 0
6579 4721 6578 0
6579 498 4721 0
6579 6580 498 0
6581 6580 6579 0
6581 1096 6580 0
3016 6581 1095 0
6582 6581 3016 0
6582 1096 6581 0
6582 4728 1096 0
6583 4728 6582 0
6583 499 4728 0
6584 6585 246 0
6586 6585 6584 0
6586 1099 6585 0
3019 6586 1098 0
6587 6586 3019 0
6587 1099 6586 0
6587 4736 1099 0
6588 4736 6587 0
6588 500 4736 0
6588 6589 500 0
6590 6589 6588 0
6590 1101 6589 0
3021 6590 1100 0
6591 6590 3021 0
6591 1101 6590 0
6591 4743 1101 0
6513 4743 6591 0
6513 483 4743 0
6592 6593 502 0
6594 6593 6592 0
6594 1103 6593 0
3023 6594 1102 0
6595 6594 3023 0
6595 1103 6594 0
6595 4750 1103 0
6596 4750 6595 0
6596 504 4750 0
6597 6598 248 0
6599 6598 6597 0
6599 1106 6598 0
3026 6599 1105 0
6600 6599 3026 0
6600 1106 6599 0
6600 4758 1106 0
6601 4758 6600 0
6601 505 4758 0
6601 6602 505 0
6603 6602 6601 0
6603 1108 6602 0
3028 6603 1107 0
6604 6603 3028 0
6604 1108 6603 0
6604 4765 1108 0
6605 4765 6604 0
6605 506 4765 0
6606 6607 383 0
6608 6607 6606 0
6608 1111 6607 0
3031 6608 1110 0
6609 6608 3031 0
6609 1111 6608 0
6609 4773 1111 0
6610 4773 6609 0
6610 507 4773 0
6611 6612 251 0
6613 6612 6611 0
6613 1114 6612 0
3034 6613 1113 0
6614 6613 3034 0
6614 1114 6613 0
6614 4781 1114 0
6615 4781 6614 0
6615 508 4781 0
6615 6616 508 0
6617 6616 6615 0
6617 1116 6616 0
3036 6617 1115 0
6618 6617 3036 0
6618 1116 6617 0
6618 4788 1116 0
6619 4788 6618 0
6619 509 4788 0
6619 6620 509 0
6621 6620 6619 0
6621 1118 6620 0
3038 6621 1117 0
6622 6621 3038 0
6622 1118 6621 0
6622 4795 1118 0
6623 4795 6622 0
6623 510 4795 0
6624 6625 253 0
6626 6625 6624 0
6626 1121 6625 0
3041 6626 1120 0
6627 6626 3041 0
6627 1121 6626 0
6627 4803 1121 0
6628 4803 6627 0
6628 511 4803 0
6628 6629 511 0
6630 6629 6628 0
6630 1123 6629 0
3043 6630 1122 0
6631 6630 3043 0
6631 1123 6630 0
6631 4810 1123 0
6632 4810 6631 0
6632 501 4810 0
6633 6634 512 0
6635 6634 6633 0
6635 1126 6634 0
3046 6635 1125 0
6636 6635 3046 0
6636 1126 6635 0
6636 4818 1126 0
6637 4818 6636 0
6637 514 4818 0
6638 6639 256 0
6640 6639 6638 0
6640 1129 6639 0
3049 6640 1128 0
6641 6640 3049 0
6641 1129 6640 0
6641 4826 1129 0
6642 4826 6641 0
6642 515 4826 0
6642 6643 515 0
6644 6643 6642 0
6644 1131 6643 0
3051 6644 1130 0
6645 6644 3051 0
6645 1131 6644 0
6645 4833 1131 0
6646 4833 6645 0
6646 516 4833 0
6647 6648 388 0
6649 6648 6647 0
6649 1134 6648 0
3054 6649 1133 0
6650 6649 3054 0
6650 1134 6649 0
6650 4841 1134 0
6651 4841 6650 0
6651 517 4841 0
6652 6653 259 0
6654 6653 6652 0
6654 1137 6653 0
3057 6654 1136 0
6655 6654 3057 0
6655 1137 6654 0
6655 4849 1137 0
6656 4849 6655 0
6656 518 4849 0
6656 6657 518 0
6658 6657 6656 0
6658 1139 6657 0
3059 6658 1138 0
6659 6658 3059 0
6659 1139 6658 0
6659 4856 1139 0
6660 4856 6659 0
6660 519 4856 0
6660 6661 519 0
6662 6661 6660 0
6662 1141 6661 0
3061 6662 1140 0
6663 6662 3061 0
6663 1141 6662 0
6663 4863 1141 0
6664 4863 6663 0
6664 520 4863 0
6665 6666 261 0
6667 6666 6665 0
6667 1144 6666 0
3064 6667 1143 0
6668 6667 3064 0
6668 1144 6667 0
6668 4871 1144 0
6669 4871 6668 0
6669 521 4871 0
6669 6670 521 0
6671 6670 6669 0
6671 1146 6670 0
3066 6671 1145 0
6672 6671 3066 0
6672 1146 6671 0
6672 4878 1146 0
6592 4878 6672 0
6592 502 4878 0
6673 6674 453 0
6675 6674 6673 0
6675 1148 6674 0
3068 6675 1147 0
6676 6675 3068 0
6676 1148 6675 0
6676 4885 1148 0
6677 4885 6676 0
6677 522 4885 0
6678 6679 263 0
6680 6679 6678 0
6680 1151 6679 0
3071 6680 1150 0
6681 6680 3071 0
6681 1151 6680 0
6681 4893 1151 0
6682 4893 6681 0
6682 523 4893 0
6682 6683 523 0
6684 6683 6682 0
6684 1153 6683 0
3073 6684 1152 0
6685 6684 3073 0
6685 1153 6684 0
6685 4900 1153 0
6686 4900 6685 0
6686 524 4900 0
6687 6688 392 0
6689 6688 6687 0
6689 1156 6688 0
3076 6689 1155 0
6690 6689 3076 0
6690 1156 6689 0
6690 4908 1156 0
6691 4908 6690 0
6691 525 4908 0
6692 6693 266 0
6694 6693 6692 0
6694 1159 6693 0
3079 6694 1158 0
6695 6694 3079 0
6695 1159 6694 0
6695 4916 1159 0
6696 4916 6695 0
6696 526 4916 0
6696 6697 526 0
6698 6697 6696 0
6698 1161 6697 0
3081 6698 1160 0
6699 6698 3081 0
6699 1161 6698 0
6699 4923 1161 0
6700 4923 6699 0
6700 527 4923 0
6700 6701 527 0
6702 6701 6700 0
6702 1163 6701 0
3083 6702 1162 0
6703 6702 3083 0
6703 1163 6702 0
6703 4930 1163 0
6704 4930 6703 0
6704 528 4930 0
6705 6706 268 0
6707 6706 6705 0
6707 1166 6706 0
3086 6707 1165 0
6708 6707 3086 0
6708 1166 6707 0
6708 4938 1166 0
6709 4938 6708 0
6709 529 4938 0
6709 6710 529 0
6711 6710 6709 0
6711 1168 6710 0
3088 6711 1167 0
6712 6711 3088 0
6712 1168 6711 0
6712 4945 1168 0
6633 4945 6712 0
6633 512 4945 0
6713 6714 531 0
6715 6714 6713 0
6715 1170 6714 0
3090 6715 1169 0
6716 6715 3090 0
6716 1170 6715 0
6716 4952 1170 0
6717 4952 6716 0
6717 533 4952 0
6718 6719 270 0
6720 6719 6718 0
6720 1173 6719 0
3093 6720 1172 0
6721 6720 3093 0
6721 1173 6720 0
6721 4960 1173 0
6722 4960 6721 0
6722 534 4960 0
6722 6723 534 0
6724 6723 6722 0
6724 1175 6723 0
3095 6724 1174 0
6725 6724 3095 0
6725 1175 6724 0
6725 4967 1175 0
6726 4967 6725 0
6726 535 4967 0
6727 6728 396 0
6729 6728 6727 0
6729 1178 6728 0
3098 6729 1177 0
6730 6729 3098 0
6730 1178 6729 0
6730 4975 1178 0
6731 4975 6730 0
6731 536 4975 0
6732 6733 273 0
6734 6733 6732 0
6734 1181 6733 0
3101 6734 1180 0
6735 6734 3101 0
6735 1181 6734 0
6735 4983 1181 0
6736 4983 6735 0
6736 537 4983 0
6736 6737 537 0
6738 6737 6736 0
6738 1183 6737 0
3103 6738 1182 0
6739 6738 3103 0
6739 1183 6738 0
6739 4990 1183 0
6740 4990 6739 0
6740 538 4990 0
6740 6741 538 0
6742 6741 6740 0
6742 1185 6741 0
3105 6742 1184 0
6743 6742 3105 0
6743 1185 6742 0
6743 4997 1185 0
6744 4997 6743 0
6744 539 4997 0
6745 6746 275 0
6747 6746 6745 0
6747 1188 6746 0
3108 6747 1187 0
6748 6747 3108 0
6748 1188 6747 0
6748 5005 1188 0
6749 5005 6748 0
6749 540 5005 0
6749 6750 540 0
6751 6750 6749 0
6751 1190 6750 0
3110 6751 1189 0
6752 6751 3110 0
6752 1190 6751 0
6752 5012 1190 0
6753 5012 6752 0
6753 530 5012 0
6754 6755 464 0
6756 6755 6754 0
6756 1193 6755 0
3113 6756 1192 0
6757 6756 3113 0
6757 1193 6756 0
6757 5020 1193 0
6758 5020 6757 0
6758 541 5020 0
6759 6760 278 0
6761 6760 6759 0
6761 1196 6760 0
3116 6761 1195 0
6762 6761 3116 0
6762 1196 6761 0
6762 5028 1196 0
6763 5028 6762 0
6763 542 5028 0
6763 6764 542 0
6765 6764 6763 0
6765 1198 6764 0
3118 6765 1197 0
6766 6765 3118 0
6766 1198 6765 0
6766 5035 1198 0
6767 5035 6766 0
6767 543 5035 0
6768 6769 401 0
6770 6769 6768 0
6770 1201 6769 0
3121 6770 1200 0
6771 6770 3121 0
6771 1201 6770 0
6771 5043 1201 0
6772 5043 6771 0
6772 544 5043 0
6773 6774 281 0
6775 6774 6773 0
6775 1204 6774 0
3124 6775 1203 0
6776 6775 3124 0
6776 1204 6775 0
6776 5051 1204 0
6777 5051 6776 0
6777 545 5051 0
6777 6778 545 0
6779 6778 6777 0
6779 1206 6778 0
3126 6779 1205 0
6780 6779 3126 0
6780 1206 6779 0
6780 5058 1206 0
6781 5058 6780 0
6781 546 5058 0
6781 6782 546 0
6783 6782 6781 0
6783 1208 6782 0
3128 6783 1207 0
6784 6783 3128 0
6784 1208 6783 0
6784 5065 1208 0
6785 5065 6784 0
6785 547 5065 0
6786 6787 283 0
6788 6787 6786 0
6788 1211 6787 0
3131 6788 1210 0
6789 6788 3131 0
6789 1211 6788 0
6789 5073 1211 0
6790 5073 6789 0
6790 548 5073 0
6790 6791 548 0
6792 6791 6790 0
6792 1213 6791 0
3133 6792 1212 0
6793 6792 3133 0
6793 1213 6792 0
6793 5080 1213 0
6713 5080 6793 0
6713 531 5080 0
6794 6795 550 0
6796 6795 6794 0
6796 1215 6795 0
3135 6796 1214 0
6797 6796 3135 0
6797 1215 6796 0
6797 5087 1215 0
6798 5087 6797 0
6798 552 5087 0
6799 6800 285 0
6801 6800 6799 0
6801 1218 6800 0
3138 6801 1217 0
6802 6801 3138 0
6802 1218 6801 0
6802 5095 1218 0
6803 5095 6802 0
6803 553 5095 0
6803 6804 553 0
6805 6804 6803 0
6805 1220 6804 0
3140 6805 1219 0
6806 6805 3140 0
6806 1220 6805 0
6806 5102 1220 0
6807 5102 6806 0
6807 554 5102 0
6808 6809 405 0
6810 6809 6808 0
6810 1223 6809 0
3143 6810 1222 0
6811 6810 3143 0
6811 1223 6810 0
6811 5110 1223 0
6812 5110 6811 0
6812 555 5110 0
6813 6814 288 0
6815 6814 6813 0
6815 1226 6814 0
3146 6815 1225 0
6816 6815 3146 0
6816 1226 6815 0
6816 5118 1226 0
6817 5118 6816 0
6817 556 5118 0
6817 6818 556 0
6819 6818 6817 0
6819 1228 6818 0
3148 6819 1227 0
6820 6819 3148 0
6820 1228 6819 0
6820 5125 1228 0
6821 5125 6820 0
6821 557 5125 0
6821 6822 557 0
6823 6822 6821 0
6823 1230 6822 0
3150 6823 1229 0
6824 6823 3150 0
6824 1230 6823 0
6824 5132 1230 0
6825 5132 6824 0
6825 558 5132 0
6826 6827 290 0
6828 6827 6826 0
6828 1233 6827 0
3153 6828 1232 0
6829 6828 3153 0
6829 1233 6828 0
6829 5140 1233 0
6830 5140 6829 0
6830 559 5140 0
6830 6831 559 0
6832 6831 6830 0
6832 1235 6831 0
3155 6832 1234 0
6833 6832 3155 0
6833 1235 6832 0
6833 5147 1235 0
6834 5147 6833 0
6834 549 5147 0
6835 6836 474 0
6837 6836 6835 0
6837 1238 6836 0
3158 6837 1237 0
6838 6837 3158 0
6838 1238 6837 0
6838 5155 1238 0
6839 5155 6838 0
6839 560 5155 0
6840 6841 293 0
6842 6841 6840 0
6842 1241 6841 0
3161 6842 1240 0
6843 6842 3161 0
6843 1241 6842 0
6843 5163 1241 0
6844 5163 6843 0
6844 561 5163 0
6844 6845 561 0
6846 6845 6844 0
6846 1243 6845 0
3163 6846 1242 0
6847 6846 3163 0
6847 1243 6846 0
6847 5170 1243 0
6848 5170 6847 0
6848 562 5170 0
6849 6850 410 0
6851 6850 6849 0
6851 1246 6850 0
3166 6851 1245 0
6852 6851 3166 0
6852 1246 6851 0
6852 5178 1246 0
6853 5178 6852 0
6853 563 5178 0
6854 6855 296 0
6856 6855 6854 0
6856 1249 6855 0
3169 6856 1248 0
6857 6856 3169 0
6857 1249 6856 0
6857 5186 1249 0
6858 5186 6857 0
6858 564 5186 0
6858 6859 564 0
6860 6859 6858 0
6860 1251 6859 0
3171 6860 1250 0
6861 6860 3171 0
6861 1251 6860 0
6861 5193 1251 0
6862 5193 6861 0
6862 565 5193 0
6862 6863 565 0
6864 6863 6862 0
6864 1253 6863 0
3173 6864 1252 0
6865 6864 3173 0
6865 1253 6864 0
6865 5200 1253 0
6866 5200 6865 0
6866 566 5200 0
6867 6868 298 0
6869 6868 6867 0
6869 1256 6868 0
3176 6869 1255 0
6870 6869 3176 0
6870 1256 6869 0
6870 5208 1256 0
6871 5208 6870 0
6871 567 5208 0
6871 6872 567 0
6873 6872 6871 0
6873 1258 6872 0
3178 6873 1257 0
6874 6873 3178 0
6874 1258 6873 0
6874 5215 1258 0
6794 5215 6874 0
6794 550 5215 0
6875 6876 569 0
6877 6876 6875 0
6877 1260 6876 0
3180 6877 1259 0
6878 6877 3180 0
6878 1260 6877 0
6878 5222 1260 0
6879 5222 6878 0
6879 571 5222 0
6880 6881 300 0
6882 6881 6880 0
6882 1263 6881 0
3183 6882 1262 0
6883 6882 3183 0
6883 1263 6882 0
6883 5230 1263 0
6884 5230 6883 0
6884 572 5230 0
6884 6885 572 0
6886 6885 6884 0
6886 1265 6885 0
3185 6886 1264 0
6887 6886 3185 0
6887 1265 6886 0
6887 5237 1265 0
6888 5237 6887 0
6888 573 5237 0
6889 6890 414 0
6891 6890 6889 0
6891 1268 6890 0
3188 6891 1267 0
6892 6891 3188 0
6892 1268 6891 0
6892 5245 1268 0
6893 5245 6892 0
6893 574 5245 0
6894 6895 303 0
6896 6895 6894 0
6896 1271 6895 0
3191 6896 1270 0
6897 6896 3191 0
6897 1271 6896 0
6897 5253 1271 0
6898 5253 6897 0
6898 575 5253 0
6898 6899 575 0
6900 6899 6898 0
6900 1273 6899 0
3193 6900 1272 0
6901 6900 3193 0
6901 1273 6900 0
6901 5260 1273 0
6902 5260 6901 0
6902 576 5260 0
6902 6903 576 0
6904 6903 6902 0
6904 1275 6903 0
3195 6904 1274 0
6905 6904 3195 0
6905 1275 6904 0
6905 5267 1275 0
6906 5267 6905 0
6906 577 5267 0
6907 6908 305 0
6909 6908 6907 0
6909 1278 6908 0
3198 6909 1277 0
6910 6909 3198 0
6910 1278 6909 0
6910 5275 1278 0
6911 5275 6910 0
6911 578 5275 0
6911 6912 578 0
6913 6912 6911 0
6913 1280 6912 0
3200 6913 1279 0
6914 6913 3200 0
6914 1280 6913 0
6914 5282 1280 0
6915 5282 6914 0
6915 568 5282 0
6916 6917 484 0
6918 6917 6916 0
6918 1283 6917 0
3203 6918 1282 0
6919 6918 3203 0
6919 1283 6918 0
6919 5290 1283 0
6920 5290 6919 0
6920 579 5290 0
6921 6922 308 0
6923 6922 6921 0
6923 1286 6922 0
3206 6923 1285 0
6924 6923 3206 0
6924 1286 6923 0
6924 5298 1286 0
6925 5298 6924 0
6925 580 5298 0
6925 6926 580 0
6927 6926 6925 0
6927 1288 6926 0
3208 6927 1287 0
6928 6927 3208 0
6928 1288 6927 0
6928 5305 1288 0
6929 5305 6928 0
6929 581 5305 0
6930 6931 419 0
6932 6931 6930 0
6932 1291 6931 0
3211 6932 1290 0
6933 6932 3211 0
6933 1291 6932 0
6933 5313 1291 0
6934 5313 6933 0
6934 582 5313 0
6935 6936 311 0
6937 6936 6935 0
6937 1294 6936 0
3214 6937 1293 0
6938 6937 3214 0
6938 1294 6937 0
6938 5321 1294 0
6939 5321 6938 0
6939 583 5321 0
6939 6940 583 0
6941 6940 6939 0
6941 1296 6940 0
3216 6941 1295 0
6942 6941 3216 0
6942 1296 6941 0
6942 5328 1296 0
6943 5328 6942 0
6943 584 5328 0
6943 6944 584 0
6945 6944 6943 0
6945 1298 6944 0
3218 6945 1297 0
6946 6945 3218 0
6946 1298 6945 0
6946 5335 1298 0
6947 5335 6946 0
6947 585 5335 0
6948 6949 313 0
6950 6949 6948 0
6950 1301 6949 0
3221 6950 1300 0
6951 6950 3221 0
6951 1301 6950 0
6951 5343 1301 0
6952 5343 6951 0
6952 586 5343 0
6952 6953 586 0
6954 6953 6952 0
6954 1303 6953 0
3223 6954 1302 0
6955 6954 3223 0
6955 1303 6954 0
6955 5350 1303 0
6875 5350 6955 0
6875 569 5350 0
6956 6957 503 0
6958 6957 6956 0
6958 1305 6957 0
3225 6958 1304 0
6959 6958 3225 0
6959 1305 6958 0
6959 5357 1305 0
6960 5357 6959 0
6960 589 5357 0
6961 6962 315 0
6963 6962 6961 0
6963 1308 6962 0
3228 6963 1307 0
6964 6963 3228 0
6964 1308 6963 0
6964 5365 1308 0
6965 5365 6964 0
6965 590 5365 0
6965 6966 590 0
6967 6966 6965 0
6967 1310 6966 0
3230 6967 1309 0
6968 6967 3230 0
6968 1310 6967 0
6968 5372 1310 0
6969 5372 6968 0
6969 591 5372 0
6970 6971 423 0
6972 6971 6970 0
6972 1313 6971 0
3233 6972 1312 0
6973 6972 3233 0
6973 1313 6972 0
6973 5380 1313 0
6974 5380 6973 0
6974 592 5380 0
6975 6976 318 0
6977 6976 6975 0
6977 1316 6976 0
3236 6977 1315 0
6978 6977 3236 0
6978 1316 6977 0
6978 5388 1316 0
6979 5388 6978 0
6979 593 5388 0
6979 6980 593 0
6981 6980 6979 0
6981 1318 6980 0
3238 6981 1317 0
6982 6981 3238 0
6982 1318 6981 0
6982 5395 1318 0
6983 5395 6982 0
6983 594 5395 0
6983 6984 594 0
6985 6984 6983 0
6985 1320 6984 0
3240 6985 1319 0
6986 6985 3240 0
6986 1320 6985 0
6986 5402 1320 0
6987 5402 6986 0
6987 595 5402 0
6988 6989 320 0
6990 6989 6988 0
6990 1323 6989 0
3243 6990 1322 0
6991 6990 3243 0
6991 1323 6990 0
6991 5410 1323 0
6992 5410 6991 0
6992 596 5410 0
6992 6993 596 0
6994 6993 6992 0
6994 1325 6993 0
3245 6994 1324 0
6995 6994 3245 0
6995 1325 6994 0
6995 5417 1325 0
6996 5417 6995 0
6996 587 5417 0
6997 6998 513 0
6999 6998 6997 0
6999 1328 6998 0
3248 6999 1327 0
7000 6999 3248 0
7000 1328 6999 0
7000 5425 1328 0
7001 5425 7000 0
7001 597 5425 0
7002 7003 323 0
7004 7003 7002 0
7004 1331 7003 0
3251 7004 1330 0
7005 7004 3251 0
7005 1331 7004 0
7005 5433 1331 0
7006 5433 7005 0
7006 598 5433 0
7006 7007 598 0
7008 7007 7006 0
7008 1333 7007 0
3253 7008 1332 0
7009 7008 3253 0
7009 1333 7008 0
7009 5440 1333 0
7010 5440 7009 0
7010 599 5440 0
7011 7012 428 0
7013 7012 7011 0
7013 1336 7012 0
3256 7013 1335 0
7014 7013 3256 0
7014 1336 7013 0
7014 5448 1336 0
7015 5448 7014 0
7015 600 5448 0
7016 7017 326 0
7018 7017 7016 0
7018 1339 7017 0
3259 7018 1338 0
7019 7018 3259 0
7019 1339 7018 0
7019 5456 1339 0
7020 5456 7019 0
7020 601 5456 0
7020 7021 601 0
7022 7021 7020 0
7022 1341 7021 0
3261 7022 1340 0
7023 7022 3261 0
7023 1341 7022 0
7023 5463 1341 0
7024 5463 7023 0
7024 602 5463 0
7024 7025 602 0
7026 7025 7024 0
7026 1343 7025 0
3263 7026 1342 0
7027 7026 3263 0
7027 1343 7026 0
7027 5470 1343 0
7028 5470 7027 0
7028 603 5470 0
7029 7030 328 0
7031 7030 7029 0
7031 1346 7030 0
3266 7031 1345 0
7032 7031 3266 0
7032 1346 7031 0
7032 5478 1346 0
7033 5478 7032 0
7033 604 5478 0
7033 7034 604 0
7035 7034 7033 0
7035 1348 7034 0
3268 7035 1347 0
7036 7035 3268 0
7036 1348 7035 0
7036 5485 1348 0
7037 5485 7036 0
7037 606 5485 0
7038 7039 532 0
7040 7039 7038 0
7040 1351 7039 0
3271 7040 1350 0
7041 7040 3271 0
7041 1351 7040 0
7041 5493 1351 0
7042 5493 7041 0
7042 607 5493 0
7043 7044 331 0
7045 7044 7043 0
7045 1354 7044 0
3274 7045 1353 0
7046 7045 3274 0
7046 1354 7045 0
7046 5501 1354 0
7047 5501 7046 0
7047 608 5501 0
7047 7048 608 0
7049 7048 7047 0
7049 1356 7048 0
3276 7049 1355 0
7050 7049 3276 0
7050 1356 7049 0
7050 5508 1356 0
7051 5508 7050 0
7051 609 5508 0
7052 7053 433 0
7054 7053 7052 0
7054 1359 7053 0
3279 7054 1358 0
7055 7054 3279 0
7055 1359 7054 0
7055 5516 1359 0
7056 5516 7055 0
7056 610 5516 0
7057 7058 334 0
7059 7058 7057 0
7059 1362 7058 0
3282 7059 1361 0
7060 7059 3282 0
7060 1362 7059 0
7060 5524 1362 0
7061 5524 7060 0
7061 611 5524 0
7061 7062 611 0
7063 7062 7061 0
7063 1364 7062 0
3284 7063 1363 0
7064 7063 3284 0
7064 1364 7063 0
7064 5531 1364 0
7065 5531 7064 0
7065 612 5531 0
7065 7066 612 0
7067 7066 7065 0
7067 1366 7066 0
3286 7067 1365 0
7068 7067 3286 0
7068 1366 7067 0
7068 5538 1366 0
7069 5538 7068 0
7069 613 5538 0
7070 7071 336 0
7072 7071 7070 0
7072 1369 7071 0
3289 7072 1368 0
7073 7072 3289 0
7073 1369 7072 0
7073 5546 1369 0
7074 5546 7073 0
7074 614 5546 0
7074 7075 614 0
7076 7075 7074 0
7076 1371 7075 0
3291 7076 1370 0
7077 7076 3291 0
7077 1371 7076 0
7077 5553 1371 0
7078 5553 7077 0
7078 605 5553 0
7079 7080 551 0
7081 7080 7079 0
7081 1374 7080 0
3294 7081 1373 0
7082 7081 3294 0
7082 1374 7081 0
7082 5561 1374 0
7083 5561 7082 0
7083 616 5561 0
7084 7085 339 0
7086 7085 7084 0
7086 1377 7085 0
3297 7086 1376 0
7087 7086 3297 0
7087 1377 7086 0
7087 5569 1377 0
7088 5569 7087 0
7088 617 5569 0
7088 7089 617 0
7090 7089 7088 0
7090 1379 7089 0
3299 7090 1378 0
7091 7090 3299 0
7091 1379 7090 0
7091 5576 1379 0
7092 5576 7091 0
7092 618 5576 0
7093 7094 438 0
7095 7094 7093 0
7095 1382 7094 0
3302 7095 1381 0
7096 7095 3302 0
7096 1382 7095 0
7096 5584 1382 0
7097 5584 7096 0
7097 619 5584 0
7098 7099 342 0
7100 7099 7098 0
7100 1385 7099 0
3305 7100 1384 0
7101 7100 3305 0
7101 1385 7100 0
7101 5592 1385 0
7102 5592 7101 0
7102 620 5592 0
7102 7103 620 0
7104 7103 7102 0
7104 1387 7103 0
3307 7104 1386 0
7105 7104 3307 0
7105 1387 7104 0
7105 5599 1387 0
7106 5599 7105 0
7106 621 5599 0
7106 7107 621 0
7108 7107 7106 0
7108 1389 7107 0
3309 7108 1388 0
7109 7108 3309 0
7109 1389 7108 0
7109 5606 1389 0
7110 5606 7109 0
7110 622 5606 0
7111 7112 344 0
7113 7112 7111 0
7113 1392 7112 0
3312 7113 1391 0
7114 7113 3312 0
7114 1392 7113 0
7114 5614 1392 0
7115 5614 7114 0
7115 623 5614 0
7115 7116 623 0
7117 7116 7115 0
7117 1394 7116 0
3314 7117 1393 0
7118 7117 3314 0
7118 1394 7117 0
7118 5621 1394 0
7119 5621 7118 0
7119 615 5621 0
7120 7121 570 0
7122 7121 7120 0
7122 1397 7121 0
3317 7122 1396 0
7123 7122 3317 0
7123 1397 7122 0
7123 5629 1397 0
7124 5629 7123 0
7124 625 5629 0
7125 7126 347 0
7127 7126 7125 0
7127 1400 7126 0
3320 7127 1399 0
7128 7127 3320 0
7128 1400 7127 0
7128 5637 1400 0
7129 5637 7128 0
7129 626 5637 0
7129 7130 626 0
7131 7130 7129 0
7131 1402 7130 0
3322 7131 1401 0
7132 7131 3322 0
7132 1402 7131 0
7132 5644 1402 0
7133 5644 7132 0
7133 627 5644 0
7134 7135 443 0
7136 7135 7134 0
7136 1405 7135 0
3325 7136 1404 0
7137 7136 3325 0
7137 1405 7136 0
7137 5652 1405 0
7138 5652 7137 0
7138 628 5652 0
7139 7140 350 0
7141 7140 7139 0
7141 1408 7140 0
3328 7141 1407 0
7142 7141 3328 0
7142 1408 7141 0
7142 5660 1408 0
7143 5660 7142 0
7143 629 5660 0
7143 7144 629 0
7145 7144 7143 0
7145 1410 7144 0
3330 7145 1409 0
7146 7145 3330 0
7146 1410 7145 0
7146 5667 1410 0
7147 5667 7146 0
7147 630 5667 0
7147 7148 630 0
7149 7148 7147 0
7149 1412 7148 0
3332 7149 1411 0
7150 7149 3332 0
7150 1412 7149 0
7150 5674 1412 0
7151 5674 7150 0
7151 631 5674 0
7152 7153 352 0
7154 7153 7152 0
7154 1415 7153 0
3335 7154 1414 0
7155 7154 3335 0
7155 1415 7154 0
7155 5682 1415 0
7156 5682 7155 0
7156 632 5682 0
7156 7157 632 0
7158 7157 7156 0
7158 1417 7157 0
3337 7158 1416 0
7159 7158 3337 0
7159 1417 7158 0
7159 5689 1417 0
7160 5689 7159 0
7160 624 5689 0
7161 7162 588 0
7163 7162 7161 0
7163 1420 7162 0
3340 7163 1419 0
7164 7163 3340 0
7164 1420 7163 0
7164 5697 1420 0
7165 5697 7164 0
7165 634 5697 0
7166 7167 355 0
7168 7167 7166 0
7168 1423 7167 0
3343 7168 1422 0
7169 7168 3343 0
7169 1423 7168 0
7169 5705 1423 0
7170 5705 7169 0
7170 635 5705 0
7170 7171 635 0
7172 7171 7170 0
7172 1425 7171 0
3345 7172 1424 0
7173 7172 3345 0
7173 1425 7172 0
7173 5712 1425 0
7174 5712 7173 0
7174 636 5712 0
7175 7176 448 0
7177 7176 7175 0
7177 1428 7176 0
3348 7177 1427 0
7178 7177 3348 0
7178 1428 7177 0
7178 5720 1428 0
7179 5720 7178 0
7179 637 5720 0
7180 7181 358 0
7182 7181 7180 0
7182 1431 7181 0
3351 7182 1430 0
7183 7182 3351 0
7183 1431 7182 0
7183 5728 1431 0
7184 5728 7183 0
7184 638 5728 0
7184 7185 638 0
7186 7185 7184 0
7186 1433 7185 0
3353 7186 1432 0
7187 7186 3353 0
7187 1433 7186 0
7187 5735 1433 0
7188 5735 7187 0
7188 639 5735 0
7188 7189 639 0
7190 7189 7188 0
7190 1435 7189 0
3355 7190 1434 0
7191 7190 3355 0
7191 1435 7190 0
7191 5742 1435 0
7192 5742 7191 0
7192 640 5742 0
7193 7194 360 0
7195 7194 7193 0
7195 1438 7194 0
3358 7195 1437 0
7196 7195 3358 0
7196 1438 7195 0
7196 5750 1438 0
7197 5750 7196 0
7197 641 5750 0
7197 7198 641 0
7199 7198 7197 0
7199 1440 7198 0
3360 7199 1439 0
7200 7199 3360 0
7200 1440 7199 0
7200 5757 1440 0
7201 5757 7200 0
7201 633 5757 0
7202 7203 42 0
7204 7203 7202 0
7204 1443 7203 0
3363 7204 1442 0
7205 7204 3363 0
7205 1443 7204 0
7205 3970 1443 0
7206 3970 7205 0
7206 163 3970 0
5763 3364 162 0
7207 3364 5763 0
7207 1444 3364 0
3366 7207 643 0
7208 7207 3366 0
7208 1444 7207 0
7208 7206 1444 0
7209 7206 7208 0
7209 163 7206 0
7209 6127 163 0
7210 6127 7209 0
7210 845 6127 0
3368 7210 1445 0
7211 7210 3368 0
7211 845 7210 0
7211 2765 845 0
7212 2765 7211 0
7212 44 2765 0
7213 7214 45 0
7215 7214 7213 0
7215 1448 7214 0
3371 7215 1447 0
7216 7215 3371 0
7216 1448 7215 0
7216 3993 1448 0
7217 3993 7216 0
7217 166 3993 0
5768 3372 165 0
7218 3372 5768 0
7218 1449 3372 0
3374 7218 646 0
7219 7218 3374 0
7219 1449 7218 0
7219 7217 1449 0
7220 7217 7219 0
7220 166 7217 0
7220 6141 166 0
7221 6141 7220 0
7221 853 6141 0
3376 7221 1450 0
7222 7221 3376 0
7222 853 7221 0
7222 2773 853 0
7202 2773 7222 0
7202 42 2773 0
7223 7224 47 0
7225 7224 7223 0
7225 1452 7224 0
3378 7225 1451 0
7226 7225 3378 0
7226 1452 7225 0
7226 4015 1452 0
7227 4015 7226 0
7227 168 4015 0
5772 3379 167 0
7228 3379 5772 0
7228 1453 3379 0
3381 7228 648 0
7229 7228 3381 0
7229 1453 7228 0
7229 7227 1453 0
7230 7227 7229 0
7230 168 7227 0
7230 6154 168 0
7231 6154 7230 0
7231 860 6154 0
3383 7231 1454 0
7232 7231 3383 0
7232 860 7231 0
7232 2780 860 0
7213 2780 7232 0
7213 45 2780 0
7233 7234 49 0
7235 7234 7233 0
7235 1456 7234 0
3385 7235 1455 0
7236 7235 3385 0
7236 1456 7235 0
7236 4037 1456 0
7237 4037 7236 0
7237 170 4037 0
5776 3386 169 0
7238 3386 5776 0
7238 1457 3386 0
3388 7238 650 0
7239 7238 3388 0
7239 1457 7238 0
7239 7237 1457 0
7240 7237 7239 0
7240 170 7237 0
7240 6167 170 0
7241 6167 7240 0
7241 867 6167 0
3390 7241 1458 0
7242 7241 3390 0
7242 867 7241 0
7242 2787 867 0
7223 2787 7242 0
7223 47 2787 0
7212 7243 44 0
7244 7243 7212 0
7244 1459 7243 0
3391 7244 1446 0
7245 7244 3391 0
7245 1459 7244 0
7245 4058 1459 0
7246 4058 7245 0
7246 171 4058 0
5779 3392 164 0
7247 3392 5779 0
7247 1460 3392 0
3394 7247 651 0
7248 7247 3394 0
7248 1460 7247 0
7248 7246 1460 0
7249 7246 7248 0
7249 171 7246 0
7249 6179 171 0
7250 6179 7249 0
7250 873 6179 0
3396 7250 1461 0
7251 7250 3396 0
7251 873 7250 0
7251 2793 873 0
7233 2793 7251 0
7233 49 2793 0
7252 7253 52 0
7254 7253 7252 0
7254 1463 7253 0
3398 7254 1462 0
7255 7254 3398 0
7255 1463 7254 0
7255 4080 1463 0
7256 4080 7255 0
7256 173 4080 0
5783 3399 172 0
7257 3399 5783 0
7257 1464 3399 0
3401 7257 653 0
7258 7257 3401 0
7258 1464 7257 0
7258 7256 1464 0
7259 7256 7258 0
7259 173 7256 0
7259 6192 173 0
7260 6192 7259 0
7260 880 6192 0
3403 7260 1465 0
7261 7260 3403 0
7261 880 7260 0
7261 2800 880 0
7262 2800 7261 0
7262 54 2800 0
7263 7264 55 0
7265 7264 7263 0
7265 1468 7264 0
3406 7265 1467 0
7266 7265 3406 0
7266 1468 7265 0
7266 4103 1468 0
7267 4103 7266 0
7267 176 4103 0
5788 3407 175 0
7268 3407 5788 0
7268 1469 3407 0
3409 7268 656 0
7269 7268 3409 0
7269 1469 7268 0
7269 7267 1469 0
7270 7267 7269 0
7270 176 7267 0
7270 6206 176 0
7271 6206 7270 0
7271 888 6206 0
3411 7271 1470 0
7272 7271 3411 0
7272 888 7271 0
7272 2808 888 0
7252 2808 7272 0
7252 52 2808 0
7273 7274 57 0
7275 7274 7273 0
7275 1472 7274 0
3413 7275 1471 0
7276 7275 3413 0
7276 1472 7275 0
7276 4125 1472 0
7277 4125 7276 0
7277 178 4125 0
5792 3414 177 0
7278 3414 5792 0
7278 1473 3414 0
3416 7278 658 0
7279 7278 3416 0
7279 1473 7278 0
7279 7277 1473 0
7280 7277 7279 0
7280 178 7277 0
7280 6219 178 0
7281 6219 7280 0
7281 895 6219 0
3418 7281 1474 0
7282 7281 3418 0
7282 895 7281 0
7282 2815 895 0
7263 2815 7282 0
7263 55 2815 0
7283 7284 59 0
7285 7284 7283 0
7285 1476 7284 0
3420 7285 1475 0
7286 7285 3420 0
7286 1476 7285 0
7286 4147 1476 0
7287 4147 7286 0
7287 180 4147 0
5796 3421 179 0
7288 3421 5796 0
7288 1477 3421 0
3423 7288 660 0
7289 7288 3423 0
7289 1477 7288 0
7289 7287 1477 0
7290 7287 7289 0
7290 180 7287 0
7290 6232 180 0
7291 6232 7290 0
7291 902 6232 0
3425 7291 1478 0
7292 7291 3425 0
7292 902 7291 0
7292 2822 902 0
7293 2822 7292 0
7293 61 2822 0
7294 7295 62 0
7296 7295 7294 0
7296 1481 7295 0
3428 7296 1480 0
7297 7296 3428 0
7297 1481 7296 0
7297 4170 1481 0
7298 4170 7297 0
7298 183 4170 0
5801 3429 182 0
7299 3429 5801 0
7299 1482 3429 0
3431 7299 663 0
7300 7299 3431 0
7300 1482 7299 0
7300 7298 1482 0
7301 7298 7300 0
7301 183 7298 0
7301 6246 183 0
7302 6246 7301 0
7302 910 6246 0
3433 7302 1483 0
7303 7302 3433 0
7303 910 7302 0
7303 2830 910 0
7283 2830 7303 0
7283 59 2830 0
7304 7305 64 0
7306 7305 7304 0
7306 1485 7305 0
3435 7306 1484 0
7307 7306 3435 0
7307 1485 7306 0
7307 4192 1485 0
7308 4192 7307 0
7308 185 4192 0
5805 3436 184 0
7309 3436 5805 0
7309 1486 3436 0
3438 7309 665 0
7310 7309 3438 0
7310 1486 7309 0
7310 7308 1486 0
7311 7308 7310 0
7311 185 7308 0
7311 6259 185 0
7312 6259 7311 0
7312 917 6259 0
3440 7312 1487 0
7313 7312 3440 0
7313 917 7312 0
7313 2837 917 0
7314 2837 7313 0
7314 66 2837 0
7315 7316 67 0
7317 7316 7315 0
7317 1490 7316 0
3443 7317 1489 0
7318 7317 3443 0
7318 1490 7317 0
7318 4215 1490 0
7319 4215 7318 0
7319 188 4215 0
5810 3444 187 0
7320 3444 5810 0
7320 1491 3444 0
3446 7320 668 0
7321 7320 3446 0
7321 1491 7320 0
7321 7319 1491 0
7322 7319 7321 0
7322 188 7319 0
7322 6273 188 0
7323 6273 7322 0
7323 925 6273 0
3448 7323 1492 0
7324 7323 3448 0
7324 925 7323 0
7324 2845 925 0
7304 2845 7324 0
7304 64 2845 0
7325 7326 69 0
7327 7326 7325 0
7327 1494 7326 0
3450 7327 1493 0
7328 7327 3450 0
7328 1494 7327 0
7328 4237 1494 0
7329 4237 7328 0
7329 190 4237 0
5814 3451 189 0
7330 3451 5814 0
7330 1495 3451 0
3453 7330 670 0
7331 7330 3453 0
7331 1495 7330 0
7331 7329 1495 0
7332 7329 7331 0
7332 190 7329 0
7332 6286 190 0
7333 6286 7332 0
7333 932 6286 0
3455 7333 1496 0
7334 7333 3455 0
7334 932 7333 0
7334 2852 932 0
7335 2852 7334 0
7335 71 2852 0
7336 7337 72 0
7338 7337 7336 0
7338 1499 7337 0
3458 7338 1498 0
7339 7338 3458 0
7339 1499 7338 0
7339 4260 1499 0
7340 4260 7339 0
7340 193 4260 0
5819 3459 192 0
7341 3459 5819 0
7341 1500 3459 0
3461 7341 673 0
7342 7341 3461 0
7342 1500 7341 0
7342 7340 1500 0
7343 7340 7342 0
7343 193 7340 0
7343 6300 193 0
7344 6300 7343 0
7344 940 6300 0
3463 7344 1501 0
7345 7344 3463 0
7345 940 7344 0
7345 2860 940 0
7325 2860 7345 0
7325 69 2860 0
7346 7347 74 0
7348 7347 7346 0
7348 1503 7347 0
3465 7348 1502 0
7349 7348 3465 0
7349 1503 7348 0
7349 4282 1503 0
7350 4282 7349 0
7350 195 4282 0
5823 3466 194 0
7351 3466 5823 0
7351 1504 3466 0
3468 7351 675 0
7352 7351 3468 0
7352 1504 7351 0
7352 7350 1504 0
7353 7350 7352 0
7353 195 7350 0
7353 6313 195 0
7354 6313 7353 0
7354 947 6313 0
3470 7354 1505 0
7355 7354 3470 0
7355 947 7354 0
7355 2867 947 0
7356 2867 7355 0
7356 76 2867 0
7357 7358 77 0
7359 7358 7357 0
7359 1508 7358 0
3473 7359 1507 0
7360 7359 3473 0
7360 1508 7359 0
7360 4305 1508 0
7361 4305 7360 0
7361 198 4305 0
5828 3474 197 0
7362 3474 5828 0
7362 1509 3474 0
3476 7362 678 0
7363 7362 3476 0
7363 1509 7362 0
7363 7361 1509 0
7364 7361 7363 0
7364 198 7361 0
7364 6327 198 0
7365 6327 7364 0
7365 955 6327 0
3478 7365 1510 0
7366 7365 3478 0
7366 955 7365 0
7366 2875 955 0
7367 2875 7366 0
7367 79 2875 0
7368 7369 80 0
7370 7369 7368 0
7370 1513 7369 0
3481 7370 1512 0
7371 7370 3481 0
7371 1513 7370 0
7371 4328 1513 0
7372 4328 7371 0
7372 201 4328 0
5833 3482 200 0
7373 3482 5833 0
7373 1514 3482 0
3484 7373 681 0
7374 7373 3484 0
7374 1514 7373 0
7374 7372 1514 0
7375 7372 7374 0
7375 201 7372 0
7375 6341 201 0
7376 6341 7375 0
7376 963 6341 0
3486 7376 1515 0
7377 7376 3486 0
7377 963 7376 0
7377 2883 963 0
7378 2883 7377 0
7378 82 2883 0
7379 7380 83 0
7381 7380 7379 0
7381 1518 7380 0
3489 7381 1517 0
7382 7381 3489 0
7382 1518 7381 0
7382 4351 1518 0
7383 4351 7382 0
7383 204 4351 0
5838 3490 203 0
7384 3490 5838 0
7384 1519 3490 0
3492 7384 684 0
7385 7384 3492 0
7385 1519 7384 0
7385 7383 1519 0
7386 7383 7385 0
7386 204 7383 0
7386 6355 204 0
7387 6355 7386 0
7387 971 6355 0
3494 7387 1520 0
7388 7387 3494 0
7388 971 7387 0
7388 2891 971 0
7389 2891 7388 0
7389 85 2891 0
7390 7391 86 0
7392 7391 7390 0
7392 1523 7391 0
3497 7392 1522 0
7393 7392 3497 0
7393 1523 7392 0
7393 4374 1523 0
7394 4374 7393 0
7394 207 4374 0
5843 3498 206 0
7395 3498 5843 0
7395 1524 3498 0
3500 7395 687 0
7396 7395 3500 0
7396 1524 7395 0
7396 7394 1524 0
7397 7394 7396 0
7397 207 7394 0
7397 6369 207 0
7398 6369 7397 0
7398 979 6369 0
3502 7398 1525 0
7399 7398 3502 0
7399 979 7398 0
7399 2899 979 0
7400 2899 7399 0
7400 88 2899 0
7401 7402 89 0
7403 7402 7401 0
7403 1528 7402 0
3505 7403 1527 0
7404 7403 3505 0
7404 1528 7403 0
7404 4397 1528 0
7405 4397 7404 0
7405 210 4397 0
5848 3506 209 0
7406 3506 5848 0
7406 1529 3506 0
3508 7406 690 0
7407 7406 3508 0
7407 1529 7406 0
7407 7405 1529 0
7408 7405 7407 0
7408 210 7405 0
7408 6383 210 0
7409 6383 7408 0
7409 987 6383 0
3510 7409 1530 0
7410 7409 3510 0
7410 987 7409 0
7410 2907 987 0
7411 2907 7410 0
7411 91 2907 0
7412 7413 92 0
7414 7413 7412 0
7414 1533 7413 0
3513 7414 1532 0
7415 7414 3513 0
7415 1533 7414 0
7415 4420 1533 0
7416 4420 7415 0
7416 213 4420 0
5853 3514 212 0
7417 3514 5853 0
7417 1534 3514 0
3516 7417 693 0
7418 7417 3516 0
7418 1534 7417 0
7418 7416 1534 0
7419 7416 7418 0
7419 213 7416 0
7419 6397 213 0
7420 6397 7419 0
7420 995 6397 0
3518 7420 1535 0
7421 7420 3518 0
7421 995 7420 0
7421 2915 995 0
7422 2915 7421 0
7422 94 2915 0
7423 7424 43 0
7425 7424 7423 0
7425 1538 7424 0
3521 7425 1537 0
7426 7425 3521 0
7426 1538 7425 0
7426 4443 1538 0
7427 4443 7426 0
7427 216 4443 0
5858 3522 215 0
7428 3522 5858 0
7428 1539 3522 0
3524 7428 696 0
7429 7428 3524 0
7429 1539 7428 0
7429 7427 1539 0
7430 7427 7429 0
7430 216 7427 0
7430 6411 216 0
7431 6411 7430 0
7431 1003 6411 0
3526 7431 1540 0
7432 7431 3526 0
7432 1003 7431 0
7432 2923 1003 0
7433 2923 7432 0
7433 95 2923 0
7433 7434 95 0
7435 7434 7433 0
7435 1542 7434 0
3528 7435 1541 0
7436 7435 3528 0
7436 1542 7435 0
7436 4465 1542 0
7437 4465 7436 0
7437 218 4465 0
5862 3529 217 0
7438 3529 5862 0
7438 1543 3529 0
3531 7438 698 0
7439 7438 3531 0
7439 1543 7438 0
7439 7437 1543 0
7440 7437 7439 0
7440 218 7437 0
7440 6424 218 0
7441 6424 7440 0
7441 1010 6424 0
3533 7441 1544 0
7442 7441 3533 0
7442 1010 7441 0
7442 2930 1010 0
7443 2930 7442 0
7443 96 2930 0
7444 7445 97 0
7446 7445 7444 0
7446 1547 7445 0
3536 7446 1546 0
7447 7446 3536 0
7447 1547 7446 0
7447 4488 1547 0
7448 4488 7447 0
7448 221 4488 0
5867 3537 220 0
7449 3537 5867 0
7449 1548 3537 0
3539 7449 701 0
7450 7449 3539 0
7450 1548 7449 0
7450 7448 1548 0
7451 7448 7450 0
7451 221 7448 0
7451 6438 221 0
7452 6438 7451 0
7452 1018 6438 0
3541 7452 1549 0
7453 7452 3541 0
7453 1018 7452 0
7453 2938 1018 0
7454 2938 7453 0
7454 99 2938 0
7455 7456 46 0
7457 7456 7455 0
7457 1552 7456 0
3544 7457 1551 0
7458 7457 3544 0
7458 1552 7457 0
7458 4511 1552 0
7459 4511 7458 0
7459 224 4511 0
5872 3545 223 0
7460 3545 5872 0
7460 1553 3545 0
3547 7460 704 0
7461 7460 3547 0
7461 1553 7460 0
7461 7459 1553 0
7462 7459 7461 0
7462 224 7459 0
7462 6452 224 0
7463 6452 7462 0
7463 1026 6452 0
3549 7463 1554 0
7464 7463 3549 0
7464 1026 7463 0
7464 2946 1026 0
7465 2946 7464 0
7465 100 2946 0
7465 7466 100 0
7467 7466 7465 0
7467 1556 7466 0
3551 7467 1555 0
7468 7467 3551 0
7468 1556 7467 0
7468 4533 1556 0
7469 4533 7468 0
7469 226 4533 0
5876 3552 225 0
7470 3552 5876 0
7470 1557 3552 0
3554 7470 706 0
7471 7470 3554 0
7471 1557 7470 0
7471 7469 1557 0
7472 7469 7471 0
7472 226 7469 0
7472 6465 226 0
7473 6465 7472 0
7473 1033 6465 0
3556 7473 1558 0
7474 7473 3556 0
7474 1033 7473 0
7474 2953 1033 0
7412 2953 7474 0
7412 92 2953 0
7475 7476 101 0
7477 7476 7475 0
7477 1560 7476 0
3558 7477 1559 0
7478 7477 3558 0
7478 1560 7477 0
7478 4555 1560 0
7479 4555 7478 0
7479 228 4555 0
5880 3559 227 0
7480 3559 5880 0
7480 1561 3559 0
3561 7480 708 0
7481 7480 3561 0
7481 1561 7480 0
7481 7479 1561 0
7482 7479 7481 0
7482 228 7479 0
7482 6478 228 0
7483 6478 7482 0
7483 1040 6478 0
3563 7483 1562 0
7484 7483 3563 0
7484 1040 7483 0
7484 2960 1040 0
7485 2960 7484 0
7485 103 2960 0
7486 7487 48 0
7488 7487 7486 0
7488 1565 7487 0
3566 7488 1564 0
7489 7488 3566 0
7489 1565 7488 0
7489 4578 1565 0
7490 4578 7489 0
7490 231 4578 0
5885 3567 230 0
7491 3567 5885 0
7491 1566 3567 0
3569 7491 711 0
7492 7491 3569 0
7492 1566 7491 0
7492 7490 1566 0
7493 7490 7492 0
7493 231 7490 0
