#!ascii version of 
1050 2096
0.000000  -5.000000  43.500000  0
3.500000  -4.000000  56.000000  0
3.000000  -4.000000  56.500000  0
2.000000  -4.000000  56.500000  0
1.000000  -4.000000  56.500000  0
0.000000  -4.000000  56.500000  0
-1.000000  -4.000000  56.500000  0
-1.500000  -4.000000  56.000000  0
3.500000  -4.000000  55.000000  0
-1.500000  -4.000000  55.000000  0
3.500000  -4.000000  54.000000  0
-1.500000  -4.000000  54.000000  0
3.500000  -4.000000  53.000000  0
-1.500000  -4.000000  53.000000  0
3.500000  -4.000000  52.000000  0
-1.500000  -4.000000  52.000000  0
4.000000  -4.500000  51.000000  0
3.500000  -4.000000  51.000000  0
-1.000000  -4.500000  51.000000  0
-1.500000  -4.000000  51.000000  0
4.500000  -4.000000  50.000000  0
4.000000  -4.000000  50.500000  0
-1.000000  -4.500000  50.000000  0
-1.500000  -4.000000  50.000000  0
4.500000  -4.000000  49.000000  0
-0.500000  -4.000000  49.000000  0
-1.000000  -4.000000  49.500000  0
4.000000  -4.000000  48.500000  0
3.500000  -4.000000  48.000000  0
-0.500000  -4.000000  48.000000  0
3.500000  -4.000000  47.000000  0
-0.500000  -4.000000  47.000000  0
3.500000  -4.000000  46.000000  0
-0.500000  -4.000000  46.000000  0
3.500000  -4.000000  45.000000  0
-0.500000  -4.000000  45.000000  0
3.500000  -4.000000  44.000000  0
-0.500000  -4.000000  44.000000  0
3.000000  -4.500000  43.000000  0
3.500000  -4.000000  43.000000  0
2.500000  -4.000000  43.000000  0
2.000000  -4.000000  43.500000  0
1.000000  -4.000000  43.500000  0
0.000000  -4.000000  43.500000  0
3.000000  -4.000000  42.500000  0
3.500000  -3.000000  56.000000  0
3.000000  -3.000000  56.500000  0
2.000000  -3.000000  56.500000  0
1.000000  -3.000000  56.500000  0
0.000000  -3.000000  56.500000  0
-1.000000  -3.000000  56.500000  0
-1.500000  -3.000000  56.000000  0
3.500000  -3.000000  55.000000  0
-1.500000  -3.000000  55.000000  0
3.500000  -3.000000  54.000000  0
-1.500000  -3.000000  54.000000  0
3.500000  -3.000000  53.000000  0
-1.500000  -3.000000  53.000000  0
3.500000  -3.000000  52.000000  0
-1.500000  -3.000000  52.000000  0
3.500000  -3.000000  51.000000  0
-1.500000  -3.000000  51.000000  0
4.000000  -3.500000  50.000000  0
3.500000  -3.000000  50.000000  0
-1.500000  -3.000000  50.000000  0
4.000000  -3.500000  49.000000  0
3.500000  -3.000000  49.000000  0
-1.000000  -3.500000  49.000000  0
-1.500000  -3.000000  49.000000  0
3.500000  -3.000000  48.000000  0
-0.500000  -3.000000  48.000000  0
-1.000000  -3.000000  48.500000  0
3.500000  -3.000000  47.000000  0
-0.500000  -3.000000  47.000000  0
3.500000  -3.000000  46.000000  0
-0.500000  -3.000000  46.000000  0
3.500000  -3.000000  45.000000  0
-0.500000  -3.000000  45.000000  0
3.500000  -3.000000  44.000000  0
-0.500000  -3.000000  44.000000  0
3.500000  -3.000000  43.000000  0
2.500000  -3.000000  43.000000  0
2.000000  -3.000000  43.500000  0
1.000000  -3.000000  43.500000  0
0.000000  -3.000000  43.500000  0
3.000000  -3.000000  42.500000  0
1.000000  -2.500000  58.000000  0
1.500000  -2.000000  58.000000  0
1.000000  -2.000000  58.500000  0
0.500000  -2.000000  58.000000  0
3.000000  -2.500000  57.000000  0
3.500000  -2.000000  57.000000  0
3.000000  -2.000000  57.500000  0
2.000000  -2.500000  57.000000  0
2.000000  -2.000000  57.500000  0
1.000000  -2.500000  57.000000  0
0.000000  -2.500000  57.000000  0
0.000000  -2.000000  57.500000  0
-0.500000  -2.000000  57.000000  0
3.500000  -2.000000  56.000000  0
-1.000000  -2.000000  56.500000  0
-1.500000  -2.000000  56.000000  0
3.500000  -2.000000  55.000000  0
-1.500000  -2.000000  55.000000  0
3.500000  -2.000000  54.000000  0
-1.500000  -2.000000  54.000000  0
3.500000  -2.000000  53.000000  0
-1.500000  -2.000000  53.000000  0
3.500000  -2.000000  52.000000  0
-1.500000  -2.000000  52.000000  0
3.500000  -2.000000  51.000000  0
-1.500000  -2.000000  51.000000  0
3.500000  -2.000000  50.000000  0
-1.500000  -2.000000  50.000000  0
3.500000  -2.000000  49.000000  0
-1.500000  -2.000000  49.000000  0
3.000000  -2.500000  48.000000  0
3.000000  -2.000000  48.500000  0
2.500000  -2.000000  48.000000  0
-1.000000  -2.500000  48.000000  0
-1.500000  -2.000000  48.000000  0
3.500000  -2.000000  47.000000  0
3.000000  -2.000000  47.500000  0
-1.000000  -2.500000  47.000000  0
-1.500000  -2.000000  47.000000  0
3.500000  -2.000000  46.000000  0
-0.500000  -2.000000  46.000000  0
-1.000000  -2.000000  46.500000  0
3.500000  -2.000000  45.000000  0
-0.500000  -2.000000  45.000000  0
3.500000  -2.000000  44.000000  0
-0.500000  -2.000000  44.000000  0
3.500000  -2.000000  43.000000  0
2.500000  -2.000000  43.000000  0
2.000000  -2.000000  43.500000  0
1.000000  -2.000000  43.500000  0
0.000000  -2.000000  43.500000  0
3.000000  -2.500000  42.000000  0
3.500000  -2.000000  42.000000  0
2.500000  -2.000000  42.000000  0
3.000000  -2.000000  41.500000  0
3.000000  -1.500000  58.000000  0
3.500000  -1.000000  58.000000  0
3.000000  -1.000000  58.500000  0
2.000000  -1.500000  58.000000  0
2.000000  -1.000000  58.500000  0
1.000000  -1.000000  58.500000  0
0.000000  -1.500000  58.000000  0
0.000000  -1.000000  58.500000  0
-0.500000  -1.000000  58.000000  0
3.500000  -1.000000  57.000000  0
-1.000000  -1.500000  57.000000  0
-1.000000  -1.000000  57.500000  0
-1.500000  -1.000000  57.000000  0
3.500000  -1.000000  56.000000  0
-1.500000  -1.000000  56.000000  0
3.500000  -1.000000  55.000000  0
-1.500000  -1.000000  55.000000  0
3.500000  -1.000000  54.000000  0
-1.500000  -1.000000  54.000000  0
3.500000  -1.000000  53.000000  0
-1.500000  -1.000000  53.000000  0
3.500000  -1.000000  52.000000  0
-1.500000  -1.000000  52.000000  0
3.500000  -1.000000  51.000000  0
-1.500000  -1.000000  51.000000  0
3.500000  -1.000000  50.000000  0
-1.500000  -1.000000  50.000000  0
3.500000  -1.000000  49.000000  0
-1.500000  -1.000000  49.000000  0
3.000000  -1.000000  48.500000  0
2.500000  -1.000000  48.000000  0
-1.500000  -1.000000  48.000000  0
3.000000  -1.500000  47.000000  0
2.500000  -1.000000  47.000000  0
-1.500000  -1.000000  47.000000  0
3.000000  -1.500000  46.000000  0
2.500000  -1.000000  46.000000  0
-1.000000  -1.500000  46.000000  0
-1.500000  -1.000000  46.000000  0
3.500000  -1.000000  45.000000  0
3.000000  -1.000000  45.500000  0
-0.500000  -1.000000  45.000000  0
-1.000000  -1.000000  45.500000  0
3.500000  -1.000000  44.000000  0
0.000000  -1.500000  44.000000  0
0.500000  -1.000000  44.000000  0
0.000000  -1.000000  44.500000  0
3.500000  -1.000000  43.000000  0
2.000000  -1.500000  43.000000  0
1.000000  -1.500000  43.000000  0
0.500000  -1.000000  43.000000  0
3.500000  -1.000000  42.000000  0
2.000000  -1.500000  42.000000  0
1.000000  -1.500000  42.000000  0
0.500000  -1.000000  42.000000  0
3.000000  -1.500000  41.000000  0
3.500000  -1.000000  41.000000  0
2.000000  -1.500000  41.000000  0
1.000000  -1.500000  41.000000  0
0.500000  -1.000000  41.000000  0
3.000000  -1.000000  40.500000  0
2.000000  -1.000000  40.500000  0
1.000000  -1.500000  40.000000  0
1.500000  -1.000000  40.000000  0
0.500000  -1.000000  40.000000  0
1.000000  -1.000000  39.500000  0
3.000000  -0.500000  59.000000  0
3.500000  0.000000  59.000000  0
3.000000  0.000000  59.500000  0
2.500000  0.000000  59.000000  0
3.500000  0.000000  58.000000  0
2.000000  0.000000  58.500000  0
1.000000  0.000000  58.500000  0
0.000000  0.000000  58.500000  0
-0.500000  0.000000  58.000000  0
3.500000  0.000000  57.000000  0
-1.000000  0.000000  57.500000  0
-1.500000  0.000000  57.000000  0
3.500000  0.000000  56.000000  0
-1.500000  0.000000  56.000000  0
3.500000  0.000000  55.000000  0
-1.500000  0.000000  55.000000  0
3.500000  0.000000  54.000000  0
-1.500000  0.000000  54.000000  0
3.500000  0.000000  53.000000  0
-1.500000  0.000000  53.000000  0
3.500000  0.000000  52.000000  0
-1.500000  0.000000  52.000000  0
3.500000  0.000000  51.000000  0
-1.500000  0.000000  51.000000  0
3.500000  0.000000  50.000000  0
-1.500000  0.000000  50.000000  0
3.500000  0.000000  49.000000  0
-1.500000  0.000000  49.000000  0
3.000000  0.000000  48.500000  0
2.500000  0.000000  48.000000  0
-1.500000  0.000000  48.000000  0
2.500000  0.000000  47.000000  0
-1.000000  -0.500000  47.000000  0
-0.500000  0.000000  47.000000  0
-1.000000  0.000000  47.500000  0
2.500000  0.000000  46.000000  0
-1.000000  -0.500000  46.000000  0
-0.500000  0.000000  46.000000  0
3.000000  -0.500000  45.000000  0
2.500000  0.000000  45.000000  0
-0.500000  0.000000  45.000000  0
3.500000  0.000000  44.000000  0
3.000000  0.000000  44.500000  0
0.000000  -0.500000  44.000000  0
-0.500000  0.000000  44.000000  0
3.500000  0.000000  43.000000  0
0.500000  0.000000  43.000000  0
0.000000  0.000000  43.500000  0
3.500000  0.000000  42.000000  0
0.500000  0.000000  42.000000  0
3.500000  0.000000  41.000000  0
0.500000  0.000000  41.000000  0
3.000000  0.000000  40.500000  0
2.000000  0.000000  40.500000  0
1.500000  0.000000  40.000000  0
0.500000  0.000000  40.000000  0
1.000000  0.000000  39.500000  0
3.500000  1.000000  59.000000  0
3.000000  1.000000  59.500000  0
2.500000  1.000000  59.000000  0
3.500000  1.000000  58.000000  0
2.000000  1.000000  58.500000  0
1.000000  1.000000  58.500000  0
0.000000  1.000000  58.500000  0
-0.500000  1.000000  58.000000  0
3.500000  1.000000  57.000000  0
-1.000000  1.000000  57.500000  0
-1.500000  1.000000  57.000000  0
3.500000  1.000000  56.000000  0
-1.500000  1.000000  56.000000  0
3.500000  1.000000  55.000000  0
-1.500000  1.000000  55.000000  0
3.500000  1.000000  54.000000  0
-1.500000  1.000000  54.000000  0
3.500000  1.000000  53.000000  0
-1.500000  1.000000  53.000000  0
3.500000  1.000000  52.000000  0
-1.500000  1.000000  52.000000  0
3.500000  1.000000  51.000000  0
-1.500000  1.000000  51.000000  0
3.500000  1.000000  50.000000  0
-1.500000  1.000000  50.000000  0
3.500000  1.000000  49.000000  0
-1.500000  1.000000  49.000000  0
3.000000  1.000000  48.500000  0
2.500000  1.000000  48.000000  0
-1.500000  1.000000  48.000000  0
2.500000  1.000000  47.000000  0
-0.500000  1.000000  47.000000  0
-1.000000  1.000000  47.500000  0
2.500000  1.000000  46.000000  0
-0.500000  1.000000  46.000000  0
2.500000  1.000000  45.000000  0
-0.500000  1.000000  45.000000  0
3.000000  0.500000  44.000000  0
2.500000  1.000000  44.000000  0
-0.500000  1.000000  44.000000  0
3.000000  0.500000  43.000000  0
2.500000  1.000000  43.000000  0
0.000000  0.500000  43.000000  0
-0.500000  1.000000  43.000000  0
3.500000  1.000000  42.000000  0
3.000000  1.000000  42.500000  0
0.500000  1.000000  42.000000  0
0.000000  1.000000  42.500000  0
3.500000  1.000000  41.000000  0
0.500000  1.000000  41.000000  0
3.000000  0.500000  40.000000  0
3.500000  1.000000  40.000000  0
2.000000  0.500000  40.000000  0
0.500000  1.000000  40.000000  0
3.000000  1.000000  39.500000  0
2.000000  1.000000  39.500000  0
1.000000  1.000000  39.500000  0
3.500000  2.000000  59.000000  0
3.000000  2.000000  59.500000  0
2.500000  2.000000  59.000000  0
3.500000  2.000000  58.000000  0
2.000000  2.000000  58.500000  0
1.000000  2.000000  58.500000  0
0.000000  2.000000  58.500000  0
-1.000000  1.500000  58.000000  0
-1.000000  2.000000  58.500000  0
-1.500000  2.000000  58.000000  0
3.500000  2.000000  57.000000  0
-1.500000  2.000000  57.000000  0
3.500000  2.000000  56.000000  0
-1.500000  2.000000  56.000000  0
3.500000  2.000000  55.000000  0
-1.500000  2.000000  55.000000  0
3.500000  2.000000  54.000000  0
-1.500000  2.000000  54.000000  0
3.500000  2.000000  53.000000  0
-1.500000  2.000000  53.000000  0
3.500000  2.000000  52.000000  0
-1.500000  2.000000  52.000000  0
3.500000  2.000000  51.000000  0
-1.500000  2.000000  51.000000  0
3.500000  2.000000  50.000000  0
-1.500000  2.000000  50.000000  0
3.500000  2.000000  49.000000  0
-1.500000  2.000000  49.000000  0
3.000000  2.000000  48.500000  0
2.500000  2.000000  48.000000  0
-1.500000  2.000000  48.000000  0
2.500000  2.000000  47.000000  0
-0.500000  2.000000  47.000000  0
-1.000000  2.000000  47.500000  0
2.500000  2.000000  46.000000  0
-0.500000  2.000000  46.000000  0
2.500000  2.000000  45.000000  0
-0.500000  2.000000  45.000000  0
2.500000  2.000000  44.000000  0
-0.500000  2.000000  44.000000  0
2.500000  2.000000  43.000000  0
-0.500000  2.000000  43.000000  0
3.000000  1.500000  42.000000  0
2.500000  2.000000  42.000000  0
0.000000  1.500000  42.000000  0
-0.500000  2.000000  42.000000  0
3.500000  2.000000  41.000000  0
3.000000  2.000000  41.500000  0
0.000000  1.500000  41.000000  0
-0.500000  2.000000  41.000000  0
3.500000  2.000000  40.000000  0
0.500000  2.000000  40.000000  0
0.000000  2.000000  40.500000  0
3.000000  2.000000  39.500000  0
2.000000  2.000000  39.500000  0
1.000000  2.000000  39.500000  0
3.500000  3.000000  59.000000  0
3.000000  3.000000  59.500000  0
2.500000  3.000000  59.000000  0
3.500000  3.000000  58.000000  0
2.000000  3.000000  58.500000  0
1.000000  3.000000  58.500000  0
0.000000  3.000000  58.500000  0
-1.000000  3.000000  58.500000  0
-1.500000  3.000000  58.000000  0
3.500000  3.000000  57.000000  0
-1.500000  3.000000  57.000000  0
3.500000  3.000000  56.000000  0
-1.500000  3.000000  56.000000  0
3.500000  3.000000  55.000000  0
-1.500000  3.000000  55.000000  0
3.500000  3.000000  54.000000  0
-1.500000  3.000000  54.000000  0
3.500000  3.000000  53.000000  0
-1.500000  3.000000  53.000000  0
3.500000  3.000000  52.000000  0
-1.500000  3.000000  52.000000  0
3.500000  3.000000  51.000000  0
-1.500000  3.000000  51.000000  0
3.500000  3.000000  50.000000  0
-1.500000  3.000000  50.000000  0
3.500000  3.000000  49.000000  0
-1.500000  3.000000  49.000000  0
3.000000  3.000000  48.500000  0
2.500000  3.000000  48.000000  0
-1.500000  3.000000  48.000000  0
2.500000  3.000000  47.000000  0
-0.500000  3.000000  47.000000  0
-1.000000  3.000000  47.500000  0
2.500000  3.000000  46.000000  0
-0.500000  3.000000  46.000000  0
2.500000  3.000000  45.000000  0
-0.500000  3.000000  45.000000  0
2.500000  3.000000  44.000000  0
-0.500000  3.000000  44.000000  0
2.500000  3.000000  43.000000  0
-0.500000  3.000000  43.000000  0
2.500000  3.000000  42.000000  0
-0.500000  3.000000  42.000000  0
3.000000  2.500000  41.000000  0
2.500000  3.000000  41.000000  0
-0.500000  3.000000  41.000000  0
3.000000  2.500000  40.000000  0
2.000000  2.500000  40.000000  0
2.000000  3.000000  40.500000  0
1.500000  3.000000  40.000000  0
0.000000  2.500000  40.000000  0
-0.500000  3.000000  40.000000  0
1.000000  3.000000  39.500000  0
0.000000  3.000000  39.500000  0
3.000000  3.500000  59.000000  0
3.000000  3.500000  58.000000  0
2.500000  4.000000  58.000000  0
2.000000  4.000000  58.500000  0
1.000000  3.500000  58.000000  0
1.500000  4.000000  58.000000  0
0.000000  3.500000  58.000000  0
-1.000000  3.500000  58.000000  0
3.000000  3.500000  57.000000  0
2.500000  4.000000  57.000000  0
1.000000  3.500000  57.000000  0
1.500000  4.000000  57.000000  0
0.000000  3.500000  57.000000  0
-1.000000  3.500000  57.000000  0
3.500000  4.000000  56.000000  0
3.000000  4.000000  56.500000  0
1.000000  4.000000  56.500000  0
0.000000  4.000000  56.500000  0
-1.000000  4.000000  56.500000  0
-1.500000  4.000000  56.000000  0
3.500000  4.000000  55.000000  0
-1.500000  4.000000  55.000000  0
3.500000  4.000000  54.000000  0
-1.500000  4.000000  54.000000  0
3.500000  4.000000  53.000000  0
-1.500000  4.000000  53.000000  0
3.500000  4.000000  52.000000  0
-1.500000  4.000000  52.000000  0
3.500000  4.000000  51.000000  0
-1.500000  4.000000  51.000000  0
3.500000  4.000000  50.000000  0
-1.500000  4.000000  50.000000  0
3.500000  4.000000  49.000000  0
-1.500000  4.000000  49.000000  0
3.000000  4.000000  48.500000  0
2.500000  4.000000  48.000000  0
-1.500000  4.000000  48.000000  0
2.000000  3.500000  47.000000  0
2.000000  4.000000  47.500000  0
1.500000  4.000000  47.000000  0
-0.500000  4.000000  47.000000  0
-1.000000  4.000000  47.500000  0
2.000000  3.500000  46.000000  0
1.500000  4.000000  46.000000  0
-0.500000  4.000000  46.000000  0
2.000000  3.500000  45.000000  0
1.500000  4.000000  45.000000  0
-0.500000  4.000000  45.000000  0
2.000000  3.500000  44.000000  0
1.500000  4.000000  44.000000  0
-0.500000  4.000000  44.000000  0
2.000000  3.500000  43.000000  0
1.500000  4.000000  43.000000  0
-1.000000  3.500000  43.000000  0
-1.000000  4.000000  43.500000  0
-1.500000  4.000000  43.000000  0
2.000000  3.500000  42.000000  0
1.500000  4.000000  42.000000  0
-1.000000  3.500000  42.000000  0
-1.500000  4.000000  42.000000  0
2.000000  3.500000  41.000000  0
1.500000  4.000000  41.000000  0
-1.000000  3.500000  41.000000  0
-1.500000  4.000000  41.000000  0
1.500000  4.000000  40.000000  0
-1.000000  3.500000  40.000000  0
-1.500000  4.000000  40.000000  0
1.000000  3.500000  39.000000  0
1.500000  4.000000  39.000000  0
0.000000  3.500000  39.000000  0
-1.000000  3.500000  39.000000  0
-1.500000  4.000000  39.000000  0
1.000000  3.500000  38.000000  0
1.500000  4.000000  38.000000  0
0.000000  3.500000  38.000000  0
-1.000000  3.500000  38.000000  0
-1.500000  4.000000  38.000000  0
2.000000  3.500000  37.000000  0
2.500000  4.000000  37.000000  0
2.000000  4.000000  37.500000  0
1.000000  3.500000  37.000000  0
0.000000  3.500000  37.000000  0
-0.500000  4.000000  37.000000  0
-1.000000  4.000000  37.500000  0
2.000000  4.000000  36.500000  0
1.000000  4.000000  36.500000  0
0.000000  4.000000  36.500000  0
2.000000  4.500000  58.000000  0
2.500000  5.000000  57.000000  0
2.000000  5.000000  57.500000  0
1.500000  5.000000  57.000000  0
3.500000  5.000000  56.000000  0
3.000000  5.000000  56.500000  0
1.000000  5.000000  56.500000  0
0.000000  5.000000  56.500000  0
-1.000000  5.000000  56.500000  0
-1.500000  5.000000  56.000000  0
3.500000  5.000000  55.000000  0
-1.500000  5.000000  55.000000  0
3.500000  5.000000  54.000000  0
-1.500000  5.000000  54.000000  0
3.500000  5.000000  53.000000  0
-1.500000  5.000000  53.000000  0
3.500000  5.000000  52.000000  0
-1.500000  5.000000  52.000000  0
3.500000  5.000000  51.000000  0
-1.500000  5.000000  51.000000  0
3.500000  5.000000  50.000000  0
-1.500000  5.000000  50.000000  0
3.500000  5.000000  49.000000  0
-1.500000  5.000000  49.000000  0
3.000000  5.000000  48.500000  0
2.500000  5.000000  48.000000  0
-1.500000  5.000000  48.000000  0
2.000000  5.000000  47.500000  0
1.500000  5.000000  47.000000  0
-0.500000  5.000000  47.000000  0
-1.000000  5.000000  47.500000  0
1.500000  5.000000  46.000000  0
-0.500000  5.000000  46.000000  0
1.500000  5.000000  45.000000  0
-0.500000  5.000000  45.000000  0
1.500000  5.000000  44.000000  0
-0.500000  5.000000  44.000000  0
1.500000  5.000000  43.000000  0
-1.000000  5.000000  43.500000  0
-1.500000  5.000000  43.000000  0
1.500000  5.000000  42.000000  0
-1.500000  5.000000  42.000000  0
1.500000  5.000000  41.000000  0
-1.500000  5.000000  41.000000  0
1.500000  5.000000  40.000000  0
-1.500000  5.000000  40.000000  0
1.500000  5.000000  39.000000  0
-1.500000  5.000000  39.000000  0
1.500000  5.000000  38.000000  0
-1.500000  5.000000  38.000000  0
2.000000  4.500000  37.000000  0
1.500000  5.000000  37.000000  0
-1.000000  4.500000  37.000000  0
-1.500000  5.000000  37.000000  0
1.000000  5.000000  36.500000  0
0.000000  5.000000  36.500000  0
-1.000000  5.000000  36.500000  0
2.500000  6.000000  57.000000  0
2.000000  6.000000  57.500000  0
1.500000  6.000000  57.000000  0
3.500000  6.000000  56.000000  0
3.000000  6.000000  56.500000  0
1.000000  6.000000  56.500000  0
0.000000  6.000000  56.500000  0
-1.000000  6.000000  56.500000  0
-1.500000  6.000000  56.000000  0
3.500000  6.000000  55.000000  0
-1.500000  6.000000  55.000000  0
3.500000  6.000000  54.000000  0
-1.500000  6.000000  54.000000  0
3.500000  6.000000  53.000000  0
-1.500000  6.000000  53.000000  0
3.500000  6.000000  52.000000  0
-1.500000  6.000000  52.000000  0
3.500000  6.000000  51.000000  0
-1.500000  6.000000  51.000000  0
3.500000  6.000000  50.000000  0
-1.500000  6.000000  50.000000  0
3.500000  6.000000  49.000000  0
-1.500000  6.000000  49.000000  0
3.000000  6.000000  48.500000  0
2.500000  6.000000  48.000000  0
-1.500000  6.000000  48.000000  0
2.000000  6.000000  47.500000  0
1.500000  6.000000  47.000000  0
-0.500000  6.000000  47.000000  0
-1.000000  6.000000  47.500000  0
1.500000  6.000000  46.000000  0
-0.500000  6.000000  46.000000  0
1.500000  6.000000  45.000000  0
-0.500000  6.000000  45.000000  0
1.500000  6.000000  44.000000  0
-0.500000  6.000000  44.000000  0
1.500000  6.000000  43.000000  0
-1.000000  5.500000  43.000000  0
-0.500000  6.000000  43.000000  0
1.500000  6.000000  42.000000  0
-1.000000  6.000000  42.500000  0
-1.500000  6.000000  42.000000  0
1.500000  6.000000  41.000000  0
-1.500000  6.000000  41.000000  0
1.500000  6.000000  40.000000  0
-1.500000  6.000000  40.000000  0
1.500000  6.000000  39.000000  0
-1.500000  6.000000  39.000000  0
1.500000  6.000000  38.000000  0
-1.500000  6.000000  38.000000  0
1.500000  6.000000  37.000000  0
-1.500000  6.000000  37.000000  0
1.000000  5.500000  36.000000  0
1.500000  6.000000  36.000000  0
0.000000  5.500000  36.000000  0
-1.000000  5.500000  36.000000  0
-1.500000  6.000000  36.000000  0
1.000000  5.500000  35.000000  0
1.500000  6.000000  35.000000  0
0.000000  5.500000  35.000000  0
-1.000000  5.500000  35.000000  0
-1.500000  6.000000  35.000000  0
1.000000  5.500000  34.000000  0
1.500000  6.000000  34.000000  0
0.000000  5.500000  34.000000  0
-0.500000  6.000000  34.000000  0
-1.000000  6.000000  34.500000  0
1.000000  5.500000  33.000000  0
1.500000  6.000000  33.000000  0
0.500000  6.000000  33.000000  0
0.000000  6.000000  33.500000  0
1.000000  6.000000  32.500000  0
3.000000  6.500000  57.000000  0
3.500000  7.000000  57.000000  0
3.000000  7.000000  57.500000  0
2.000000  7.000000  57.500000  0
1.000000  6.500000  57.000000  0
1.000000  7.000000  57.500000  0
0.000000  6.500000  57.000000  0
0.000000  7.000000  57.500000  0
-0.500000  7.000000  57.000000  0
3.500000  7.000000  56.000000  0
-1.000000  7.000000  56.500000  0
-1.500000  7.000000  56.000000  0
3.500000  7.000000  55.000000  0
-1.500000  7.000000  55.000000  0
3.500000  7.000000  54.000000  0
-1.500000  7.000000  54.000000  0
3.500000  7.000000  53.000000  0
-1.500000  7.000000  53.000000  0
3.500000  7.000000  52.000000  0
-1.500000  7.000000  52.000000  0
3.500000  7.000000  51.000000  0
-1.500000  7.000000  51.000000  0
3.500000  7.000000  50.000000  0
-1.500000  7.000000  50.000000  0
3.500000  7.000000  49.000000  0
-1.500000  7.000000  49.000000  0
3.000000  7.000000  48.500000  0
2.500000  7.000000  48.000000  0
-1.500000  7.000000  48.000000  0
2.000000  7.000000  47.500000  0
1.500000  7.000000  47.000000  0
-0.500000  7.000000  47.000000  0
-1.000000  7.000000  47.500000  0
1.500000  7.000000  46.000000  0
-0.500000  7.000000  46.000000  0
1.500000  7.000000  45.000000  0
-0.500000  7.000000  45.000000  0
1.500000  7.000000  44.000000  0
-0.500000  7.000000  44.000000  0
1.500000  7.000000  43.000000  0
-0.500000  7.000000  43.000000  0
1.500000  7.000000  42.000000  0
-1.000000  6.500000  42.000000  0
-0.500000  7.000000  42.000000  0
1.500000  7.000000  41.000000  0
-1.000000  7.000000  41.500000  0
-1.500000  7.000000  41.000000  0
1.500000  7.000000  40.000000  0
-1.500000  7.000000  40.000000  0
1.500000  7.000000  39.000000  0
-1.500000  7.000000  39.000000  0
1.500000  7.000000  38.000000  0
-1.500000  7.000000  38.000000  0
1.500000  7.000000  37.000000  0
-1.500000  7.000000  37.000000  0
1.500000  7.000000  36.000000  0
-1.500000  7.000000  36.000000  0
1.500000  7.000000  35.000000  0
-1.500000  7.000000  35.000000  0
1.500000  7.000000  34.000000  0
-1.000000  6.500000  34.000000  0
-1.500000  7.000000  34.000000  0
1.500000  7.000000  33.000000  0
0.000000  6.500000  33.000000  0
-0.500000  7.000000  33.000000  0
-1.000000  7.000000  33.500000  0
1.000000  7.000000  32.500000  0
0.000000  7.000000  32.500000  0
3.500000  8.000000  57.000000  0
3.000000  8.000000  57.500000  0
2.000000  8.000000  57.500000  0
1.000000  8.000000  57.500000  0
0.000000  8.000000  57.500000  0
-1.000000  7.500000  57.000000  0
-1.000000  8.000000  57.500000  0
-1.500000  8.000000  57.000000  0
3.500000  8.000000  56.000000  0
-1.500000  8.000000  56.000000  0
3.500000  8.000000  55.000000  0
-1.500000  8.000000  55.000000  0
3.500000  8.000000  54.000000  0
-1.500000  8.000000  54.000000  0
3.500000  8.000000  53.000000  0
-1.500000  8.000000  53.000000  0
3.500000  8.000000  52.000000  0
-1.500000  8.000000  52.000000  0
3.500000  8.000000  51.000000  0
-1.500000  8.000000  51.000000  0
3.500000  8.000000  50.000000  0
-1.500000  8.000000  50.000000  0
3.500000  8.000000  49.000000  0
-1.500000  8.000000  49.000000  0
3.000000  8.000000  48.500000  0
2.500000  8.000000  48.000000  0
-1.500000  8.000000  48.000000  0
2.000000  8.000000  47.500000  0
1.500000  8.000000  47.000000  0
-0.500000  8.000000  47.000000  0
-1.000000  8.000000  47.500000  0
1.500000  8.000000  46.000000  0
-0.500000  8.000000  46.000000  0
1.500000  8.000000  45.000000  0
-0.500000  8.000000  45.000000  0
1.500000  8.000000  44.000000  0
-0.500000  8.000000  44.000000  0
1.500000  8.000000  43.000000  0
-0.500000  8.000000  43.000000  0
1.500000  8.000000  42.000000  0
-0.500000  8.000000  42.000000  0
1.500000  8.000000  41.000000  0
-1.000000  8.000000  41.500000  0
-1.500000  8.000000  41.000000  0
1.500000  8.000000  40.000000  0
-1.500000  8.000000  40.000000  0
1.500000  8.000000  39.000000  0
-1.500000  8.000000  39.000000  0
1.500000  8.000000  38.000000  0
-1.500000  8.000000  38.000000  0
1.500000  8.000000  37.000000  0
-1.500000  8.000000  37.000000  0
1.500000  8.000000  36.000000  0
-1.500000  8.000000  36.000000  0
1.000000  7.500000  35.000000  0
1.000000  8.000000  35.500000  0
0.000000  7.500000  35.000000  0
0.000000  8.000000  35.500000  0
-1.000000  7.500000  35.000000  0
-1.000000  8.000000  35.500000  0
1.000000  7.500000  34.000000  0
0.000000  7.500000  34.000000  0
-1.000000  7.500000  34.000000  0
1.000000  7.500000  33.000000  0
0.000000  7.500000  33.000000  0
3.000000  8.500000  57.000000  0
2.000000  8.500000  57.000000  0
1.000000  8.500000  57.000000  0
0.000000  8.500000  57.000000  0
-1.000000  8.500000  57.000000  0
3.000000  8.500000  56.000000  0
2.000000  8.500000  56.000000  0
1.000000  8.500000  56.000000  0
0.000000  8.500000  56.000000  0
-1.000000  8.500000  56.000000  0
3.500000  9.000000  55.000000  0
3.000000  9.000000  55.500000  0
2.000000  9.000000  55.500000  0
1.000000  9.000000  55.500000  0
0.000000  9.000000  55.500000  0
-1.000000  9.000000  55.500000  0
-1.500000  9.000000  55.000000  0
3.500000  9.000000  54.000000  0
-1.500000  9.000000  54.000000  0
3.500000  9.000000  53.000000  0
-1.500000  9.000000  53.000000  0
3.500000  9.000000  52.000000  0
-1.500000  9.000000  52.000000  0
3.500000  9.000000  51.000000  0
-1.500000  9.000000  51.000000  0
3.500000  9.000000  50.000000  0
-1.500000  9.000000  50.000000  0
3.500000  9.000000  49.000000  0
-1.500000  9.000000  49.000000  0
3.000000  8.500000  48.000000  0
3.500000  9.000000  48.000000  0
-1.500000  9.000000  48.000000  0
3.000000  9.000000  47.500000  0
2.000000  8.500000  47.000000  0
2.500000  9.000000  47.000000  0
-0.500000  9.000000  47.000000  0
-1.000000  9.000000  47.500000  0
2.000000  9.000000  46.500000  0
1.500000  9.000000  46.000000  0
-0.500000  9.000000  46.000000  0
1.000000  8.500000  45.000000  0
1.000000  9.000000  45.500000  0
0.000000  8.500000  45.000000  0
0.000000  9.000000  45.500000  0
1.000000  8.500000  44.000000  0
0.000000  8.500000  44.000000  0
1.000000  8.500000  43.000000  0
0.000000  8.500000  43.000000  0
1.000000  8.500000  42.000000  0
0.000000  8.500000  42.000000  0
1.000000  8.500000  41.000000  0
0.000000  8.500000  41.000000  0
-1.000000  8.500000  41.000000  0
1.000000  8.500000  40.000000  0
0.000000  8.500000  40.000000  0
-1.000000  8.500000  40.000000  0
1.000000  8.500000  39.000000  0
0.000000  8.500000  39.000000  0
-1.000000  8.500000  39.000000  0
1.000000  8.500000  38.000000  0
0.000000  8.500000  38.000000  0
-1.000000  8.500000  38.000000  0
1.000000  8.500000  37.000000  0
0.000000  8.500000  37.000000  0
-1.000000  8.500000  37.000000  0
1.000000  8.500000  36.000000  0
0.000000  8.500000  36.000000  0
-1.000000  8.500000  36.000000  0
3.500000  10.000000  55.000000  0
3.000000  10.000000  55.500000  0
2.000000  10.000000  55.500000  0
1.000000  10.000000  55.500000  0
0.000000  9.500000  55.000000  0
0.500000  10.000000  55.000000  0
-1.000000  9.500000  55.000000  0
3.000000  9.500000  54.000000  0
3.000000  10.000000  54.500000  0
2.000000  9.500000  54.000000  0
2.000000  10.000000  54.500000  0
1.000000  9.500000  54.000000  0
1.000000  10.000000  54.500000  0
0.000000  9.500000  54.000000  0
-1.000000  9.500000  54.000000  0
3.000000  9.500000  53.000000  0
2.000000  9.500000  53.000000  0
1.000000  9.500000  53.000000  0
0.000000  9.500000  53.000000  0
-1.000000  9.500000  53.000000  0
3.000000  9.500000  52.000000  0
2.000000  9.500000  52.000000  0
1.000000  9.500000  52.000000  0
0.000000  9.500000  52.000000  0
-1.000000  9.500000  52.000000  0
3.000000  9.500000  51.000000  0
2.000000  9.500000  51.000000  0
1.000000  9.500000  51.000000  0
0.000000  9.500000  51.000000  0
-1.000000  9.500000  51.000000  0
3.000000  9.500000  50.000000  0
2.000000  9.500000  50.000000  0
1.000000  9.500000  50.000000  0
0.000000  9.500000  50.000000  0
-1.000000  9.500000  50.000000  0
3.000000  9.500000  49.000000  0
2.000000  9.500000  49.000000  0
1.000000  9.500000  49.000000  0
0.000000  9.500000  49.000000  0
-1.000000  9.500000  49.000000  0
3.000000  9.500000  48.000000  0
2.000000  9.500000  48.000000  0
1.000000  9.500000  48.000000  0
0.000000  9.500000  48.000000  0
-1.000000  9.500000  48.000000  0
2.000000  9.500000  47.000000  0
1.000000  9.500000  47.000000  0
0.000000  9.500000  47.000000  0
1.000000  9.500000  46.000000  0
0.000000  9.500000  46.000000  0
3.000000  10.500000  55.000000  0
2.000000  10.500000  55.000000  0
1.000000  10.500000  55.000000  0
2 0 1 0
2 3 0 0
4 3 2 0
4 5 3 0
6 5 4 0
6 7 5 0
8 7 6 0
9 7 8 0
0 11 1 0
10 11 0 0
12 0 3 0
10 0 12 0
13 3 5 0
12 3 13 0
14 5 7 0
13 5 14 0
9 14 7 0
15 14 9 0
11 10 16 0
10 17 16 0
12 17 10 0
12 18 17 0
13 18 12 0
13 19 18 0
14 19 13 0
14 15 19 0
22 20 21 0
22 23 20 0
24 23 22 0
24 25 23 0
26 25 24 0
26 27 25 0
28 27 26 0
28 29 27 0
30 29 28 0
31 29 30 0
20 33 21 0
32 33 20 0
34 20 23 0
32 20 34 0
35 23 25 0
34 23 35 0
36 25 27 0
35 25 36 0
37 27 29 0
36 27 37 0
31 37 29 0
38 37 31 0
41 39 40 0
32 42 39 0
33 32 39 0
41 33 39 0
43 32 34 0
42 32 43 0
44 34 35 0
43 34 44 0
45 35 36 0
44 35 45 0
45 36 37 0
46 45 37 0
47 46 37 0
37 38 47 0
39 49 40 0
48 49 39 0
50 39 42 0
48 39 50 0
51 42 43 0
50 42 51 0
52 43 44 0
51 43 52 0
53 44 45 0
52 44 53 0
46 53 45 0
54 53 46 0
48 56 49 0
55 56 48 0
57 48 50 0
55 48 57 0
58 50 51 0
57 50 58 0
59 51 52 0
58 51 59 0
60 52 53 0
59 52 60 0
54 60 53 0
61 60 54 0
55 63 56 0
62 63 55 0
64 55 57 0
62 55 64 0
65 57 58 0
64 57 65 0
66 58 59 0
65 58 66 0
67 59 60 0
66 59 67 0
61 67 60 0
68 67 61 0
62 70 63 0
69 70 62 0
71 62 64 0
69 62 71 0
72 64 65 0
71 64 72 0
73 65 66 0
72 65 73 0
74 66 67 0
73 66 74 0
68 74 67 0
75 74 68 0
70 69 76 0
69 71 77 0
76 69 77 0
78 76 77 0
79 71 72 0
77 71 79 0
80 72 73 0
79 72 80 0
81 73 74 0
80 73 81 0
75 81 74 0
82 81 75 0
77 84 78 0
83 84 77 0
85 77 79 0
83 77 85 0
86 79 80 0
85 79 86 0
87 80 81 0
86 80 87 0
82 87 81 0
88 87 82 0
83 90 84 0
89 90 83 0
91 83 85 0
89 83 91 0
92 85 86 0
91 85 92 0
93 86 87 0
92 86 93 0
88 93 87 0
94 93 88 0
1 95 90 0
2 1 90 0
89 2 90 0
89 91 2 0
2 91 4 0
91 92 4 0
4 92 6 0
92 93 6 0
6 93 8 0
94 96 9 0
93 94 9 0
8 93 9 0
1 97 95 0
11 97 1 0
15 96 98 0
9 96 15 0
97 16 99 0
11 16 97 0
99 17 100 0
16 17 99 0
100 18 101 0
17 18 100 0
101 19 102 0
18 19 101 0
15 102 19 0
98 102 15 0
105 103 104 0
105 106 103 0
107 106 105 0
107 108 106 0
109 108 107 0
109 110 108 0
111 110 109 0
111 112 110 0
113 112 111 0
114 112 113 0
21 115 104 0
22 21 104 0
103 22 104 0
103 106 22 0
22 106 24 0
106 108 24 0
24 108 26 0
108 110 26 0
26 110 28 0
110 112 28 0
28 112 30 0
114 116 31 0
112 114 31 0
30 112 31 0
21 117 115 0
33 117 21 0
38 116 118 0
31 116 38 0
41 40 119 0
120 117 33 0
120 33 41 0
120 41 119 0
121 46 47 0
38 118 122 0
47 38 122 0
121 47 122 0
123 40 49 0
119 40 123 0
119 123 120 0
120 123 124 0
54 46 125 0
125 46 121 0
122 125 121 0
126 125 122 0
49 56 127 0
123 49 127 0
128 123 127 0
128 124 123 0
129 61 54 0
129 54 125 0
129 125 130 0
125 126 130 0
56 131 127 0
63 131 56 0
68 129 132 0
61 129 68 0
63 133 131 0
70 133 63 0
75 132 134 0
68 132 75 0
133 76 135 0
70 76 133 0
135 76 136 0
136 76 78 0
82 134 137 0
75 134 82 0
78 138 136 0
84 138 78 0
88 137 139 0
82 137 88 0
84 140 138 0
90 140 84 0
94 139 141 0
88 139 94 0
90 142 140 0
95 142 90 0
96 141 143 0
94 141 96 0
95 144 142 0
97 144 95 0
98 143 145 0
96 143 98 0
144 99 146 0
97 99 144 0
146 100 147 0
99 100 146 0
147 101 148 0
100 101 147 0
148 102 149 0
101 102 148 0
98 149 102 0
145 149 98 0
151 104 150 0
105 104 151 0
152 105 151 0
107 105 152 0
153 107 152 0
109 107 153 0
154 109 153 0
111 109 154 0
155 111 154 0
113 111 155 0
156 113 155 0
114 113 156 0
104 157 150 0
115 157 104 0
116 156 158 0
114 156 116 0
115 159 157 0
117 159 115 0
118 158 160 0
116 158 118 0
117 161 159 0
120 161 117 0
122 160 162 0
118 160 122 0
120 163 161 0
124 163 120 0
126 162 164 0
122 162 126 0
128 127 165 0
166 163 124 0
166 124 128 0
166 128 165 0
167 129 130 0
126 164 168 0
130 126 168 0
167 130 168 0
127 131 169 0
165 127 169 0
170 165 169 0
170 166 165 0
132 129 171 0
171 129 167 0
168 171 167 0
172 171 168 0
131 173 169 0
133 173 131 0
174 134 132 0
174 132 171 0
174 171 175 0
171 172 175 0
173 135 176 0
133 135 173 0
176 135 177 0
177 135 136 0
137 174 178 0
134 174 137 0
136 179 177 0
138 179 136 0
139 178 180 0
137 178 139 0
138 181 179 0
140 181 138 0
141 180 182 0
139 180 141 0
140 183 181 0
142 183 140 0
143 182 184 0
141 182 143 0
142 185 183 0
144 185 142 0
145 184 186 0
143 184 145 0
188 185 144 0
187 188 144 0
146 187 144 0
146 147 190 0
146 190 189 0
146 189 187 0
190 148 191 0
147 148 190 0
191 149 192 0
148 149 191 0
145 192 149 0
186 192 145 0
188 187 193 0
187 189 193 0
195 150 194 0
151 150 195 0
196 151 195 0
152 151 196 0
197 152 196 0
153 152 197 0
198 153 197 0
154 153 198 0
199 154 198 0
155 154 199 0
200 155 199 0
156 155 200 0
150 201 194 0
157 201 150 0
158 200 202 0
156 200 158 0
157 203 201 0
159 203 157 0
160 202 204 0
158 202 160 0
159 205 203 0
161 205 159 0
162 204 206 0
160 204 162 0
161 207 205 0
163 207 161 0
164 206 208 0
162 206 164 0
163 209 207 0
166 209 163 0
168 208 210 0
164 208 168 0
170 169 211 0
212 209 166 0
212 166 170 0
212 170 211 0
172 210 213 0
168 210 172 0
214 169 173 0
211 169 214 0
211 214 212 0
212 214 215 0
216 174 175 0
172 213 217 0
175 172 217 0
216 175 217 0
214 173 176 0
177 218 215 0
177 215 214 0
177 214 176 0
219 178 174 0
219 174 216 0
219 216 220 0
216 217 220 0
177 221 218 0
179 221 177 0
180 219 222 0
178 219 180 0
179 223 221 0
181 223 179 0
182 222 224 0
180 222 182 0
181 225 223 0
183 225 181 0
184 224 226 0
182 224 184 0
183 227 225 0
185 227 183 0
186 226 228 0
184 226 186 0
185 229 227 0
188 229 185 0
230 189 231 0
231 189 190 0
231 191 232 0
190 191 231 0
232 192 233 0
191 192 232 0
186 233 192 0
228 233 186 0
229 193 234 0
188 193 229 0
189 234 193 0
230 234 189 0
237 235 236 0
238 235 237 0
241 239 240 0
241 242 239 0
243 242 241 0
235 244 242 0
236 235 242 0
243 236 242 0
245 244 235 0
246 245 235 0
238 246 235 0
247 245 246 0
194 248 240 0
195 194 240 0
239 195 240 0
239 242 195 0
195 242 196 0
242 244 196 0
196 244 197 0
244 245 197 0
197 245 198 0
249 199 198 0
249 198 245 0
249 245 247 0
250 199 249 0
200 199 250 0
194 251 248 0
201 251 194 0
202 250 252 0
200 250 202 0
201 253 251 0
203 253 201 0
204 252 254 0
202 252 204 0
203 255 253 0
205 255 203 0
206 254 256 0
204 254 206 0
205 257 255 0
207 257 205 0
208 256 258 0
206 256 208 0
207 259 257 0
209 259 207 0
210 258 260 0
208 258 210 0
209 261 259 0
212 261 209 0
213 260 262 0
210 260 213 0
212 263 261 0
215 263 212 0
217 262 264 0
213 262 217 0
263 215 218 0
266 263 218 0
265 266 218 0
266 265 267 0
268 219 220 0
217 264 269 0
220 217 269 0
268 220 269 0
218 221 270 0
265 218 270 0
271 265 270 0
271 267 265 0
222 219 272 0
272 219 268 0
269 272 268 0
273 272 269 0
221 274 270 0
223 274 221 0
275 224 222 0
275 222 272 0
275 272 276 0
272 273 276 0
223 277 274 0
225 277 223 0
226 275 278 0
224 275 226 0
225 279 277 0
227 279 225 0
228 278 280 0
226 278 228 0
227 281 279 0
229 281 227 0
282 230 283 0
283 230 231 0
283 232 284 0
231 232 283 0
284 233 285 0
232 233 284 0
228 285 233 0
280 285 228 0
287 281 229 0
286 287 229 0
234 286 229 0
230 282 288 0
234 230 288 0
286 234 288 0
287 286 289 0
286 288 289 0
292 290 291 0
292 293 290 0
294 293 292 0
294 295 237 0
293 294 237 0
236 293 237 0
237 295 297 0
238 237 297 0
296 238 297 0
298 296 297 0
240 299 291 0
241 240 291 0
290 241 291 0
290 293 241 0
241 293 243 0
293 236 243 0
246 238 296 0
301 296 298 0
301 300 296 0
300 246 296 0
247 246 300 0
302 300 301 0
240 303 299 0
248 303 240 0
249 247 300 0
302 304 250 0
300 302 250 0
249 300 250 0
248 305 303 0
251 305 248 0
252 304 306 0
250 304 252 0
251 307 305 0
253 307 251 0
254 306 308 0
252 306 254 0
253 309 307 0
255 309 253 0
256 308 310 0
254 308 256 0
255 311 309 0
257 311 255 0
258 310 312 0
256 310 258 0
257 313 311 0
259 313 257 0
260 312 314 0
258 312 260 0
259 315 313 0
261 315 259 0
262 314 316 0
260 314 262 0
261 317 315 0
263 317 261 0
264 316 318 0
262 316 264 0
317 266 319 0
263 266 317 0
319 266 320 0
320 266 267 0
269 318 321 0
264 318 269 0
271 270 322 0
323 320 267 0
323 267 271 0
323 271 322 0
273 321 324 0
269 321 273 0
325 270 274 0
322 270 325 0
322 325 323 0
323 325 326 0
327 275 276 0
273 324 328 0
276 273 328 0
327 276 328 0
274 277 329 0
325 274 329 0
330 325 329 0
330 326 325 0
331 278 275 0
331 275 327 0
331 327 332 0
327 328 332 0
277 333 329 0
279 333 277 0
335 334 336 0
280 278 331 0
334 280 331 0
336 334 331 0
279 337 333 0
281 337 279 0
338 282 283 0
339 338 284 0
284 338 283 0
335 340 334 0
340 285 334 0
340 339 285 0
339 284 285 0
285 280 334 0
281 341 337 0
287 341 281 0
288 282 342 0
342 282 338 0
343 338 339 0
342 338 343 0
340 343 339 0
344 343 340 0
346 341 287 0
345 346 287 0
289 345 287 0
342 347 345 0
342 345 289 0
342 289 288 0
348 342 343 0
347 342 348 0
344 348 343 0
349 348 344 0
346 345 350 0
345 351 350 0
347 351 345 0
347 348 352 0
351 347 352 0
353 351 352 0
349 352 348 0
354 352 349 0
353 352 355 0
352 354 355 0
358 356 357 0
359 356 358 0
291 360 357 0
292 291 357 0
356 292 357 0
361 294 292 0
361 292 356 0
361 356 359 0
362 294 361 0
295 294 362 0
363 295 362 0
297 295 363 0
364 297 363 0
298 297 364 0
291 365 360 0
299 365 291 0
366 301 364 0
364 301 298 0
367 301 366 0
302 301 367 0
299 368 365 0
303 368 299 0
304 367 369 0
302 367 304 0
303 370 368 0
305 370 303 0
306 369 371 0
304 369 306 0
305 372 370 0
307 372 305 0
308 371 373 0
306 371 308 0
307 374 372 0
309 374 307 0
310 373 375 0
308 373 310 0
309 376 374 0
311 376 309 0
312 375 377 0
310 375 312 0
311 378 376 0
313 378 311 0
314 377 379 0
312 377 314 0
313 380 378 0
315 380 313 0
316 379 381 0
314 379 316 0
315 382 380 0
317 382 315 0
318 381 383 0
316 381 318 0
382 319 384 0
317 319 382 0
384 319 385 0
385 319 320 0
321 383 386 0
318 383 321 0
320 387 385 0
323 387 320 0
389 388 390 0
324 321 386 0
388 324 386 0
390 388 386 0
323 391 387 0
326 391 323 0
389 393 388 0
388 393 392 0
388 328 324 0
392 328 388 0
330 329 394 0
395 391 326 0
395 326 330 0
395 330 394 0
393 396 331 0
393 331 332 0
393 332 392 0
332 328 392 0
329 333 397 0
394 329 397 0
398 394 397 0
398 395 394 0
399 335 336 0
331 396 400 0
336 331 400 0
399 336 400 0
333 401 397 0
337 401 333 0
402 340 335 0
402 335 399 0
402 399 403 0
399 400 403 0
337 404 401 0
341 404 337 0
344 402 405 0
340 402 344 0
341 406 404 0
346 406 341 0
349 405 407 0
344 405 349 0
406 350 408 0
346 350 406 0
408 351 409 0
350 351 408 0
409 351 410 0
410 351 353 0
354 407 411 0
349 407 354 0
410 355 412 0
353 355 410 0
354 412 355 0
411 412 354 0
414 357 413 0
358 357 414 0
415 358 414 0
359 358 415 0
357 416 413 0
360 416 357 0
417 361 415 0
415 361 359 0
418 361 417 0
362 361 418 0
419 362 418 0
363 362 419 0
420 363 419 0
364 363 420 0
360 421 416 0
365 421 360 0
422 366 420 0
420 366 364 0
423 366 422 0
367 366 423 0
365 424 421 0
368 424 365 0
369 423 425 0
367 423 369 0
368 426 424 0
370 426 368 0
371 425 427 0
369 425 371 0
370 428 426 0
372 428 370 0
373 427 429 0
371 427 373 0
372 430 428 0
374 430 372 0
375 429 431 0
373 429 375 0
374 432 430 0
376 432 374 0
377 431 433 0
375 431 377 0
376 434 432 0
378 434 376 0
379 433 435 0
377 433 379 0
378 436 434 0
380 436 378 0
381 435 437 0
379 435 381 0
380 438 436 0
382 438 380 0
383 437 439 0
381 437 383 0
438 384 440 0
382 384 438 0
440 384 441 0
441 384 385 0
386 439 442 0
383 439 386 0
385 443 441 0
387 443 385 0
444 389 445 0
445 389 390 0
386 445 390 0
442 445 386 0
387 446 443 0
391 446 387 0
393 444 447 0
389 444 393 0
391 448 446 0
395 448 391 0
396 447 449 0
393 447 396 0
398 397 450 0
451 448 395 0
451 395 398 0
451 398 450 0
400 449 452 0
396 449 400 0
453 397 401 0
450 397 453 0
450 453 451 0
451 453 454 0
455 402 403 0
400 452 456 0
403 400 456 0
455 403 456 0
401 404 457 0
453 401 457 0
458 453 457 0
458 454 453 0
459 405 402 0
459 402 455 0
459 455 460 0
455 456 460 0
404 461 457 0
406 461 404 0
407 459 462 0
405 459 407 0
464 461 406 0
463 464 406 0
408 463 406 0
465 463 409 0
409 463 408 0
410 465 409 0
411 462 466 0
407 462 411 0
464 463 467 0
463 468 467 0
465 468 463 0
412 469 468 0
410 412 468 0
465 410 468 0
411 469 412 0
466 469 411 0
471 413 470 0
414 413 471 0
472 414 471 0
415 414 472 0
413 473 470 0
416 473 413 0
474 417 472 0
472 417 415 0
475 417 474 0
418 417 475 0
476 418 475 0
419 418 476 0
419 476 478 0
420 419 478 0
477 420 478 0
479 477 478 0
416 480 473 0
421 480 416 0
422 420 477 0
479 481 423 0
477 479 423 0
422 477 423 0
421 482 480 0
424 482 421 0
425 481 483 0
423 481 425 0
424 484 482 0
426 484 424 0
427 483 485 0
425 483 427 0
426 486 484 0
428 486 426 0
429 485 487 0
427 485 429 0
428 488 486 0
430 488 428 0
431 487 489 0
429 487 431 0
430 490 488 0
432 490 430 0
433 489 491 0
431 489 433 0
432 492 490 0
434 492 432 0
435 491 493 0
433 491 435 0
434 494 492 0
436 494 434 0
437 493 495 0
435 493 437 0
436 496 494 0
438 496 436 0
439 495 497 0
437 495 439 0
496 440 498 0
438 440 496 0
498 440 499 0
499 440 441 0
442 497 500 0
439 497 442 0
441 501 499 0
443 501 441 0
502 444 503 0
503 444 445 0
442 503 445 0
500 503 442 0
443 504 501 0
446 504 443 0
447 502 505 0
444 502 447 0
446 506 504 0
448 506 446 0
449 505 507 0
447 505 449 0
448 508 506 0
451 508 448 0
452 507 509 0
449 507 452 0
451 510 508 0
454 510 451 0
456 509 511 0
452 509 456 0
458 457 512 0
513 510 454 0
513 454 458 0
513 458 512 0
514 459 460 0
456 511 515 0
460 456 515 0
514 460 515 0
457 461 516 0
512 457 516 0
517 512 516 0
517 513 512 0
462 459 518 0
518 459 514 0
515 518 514 0
519 518 515 0
461 520 516 0
464 520 461 0
521 466 462 0
521 462 518 0
521 518 522 0
518 519 522 0
520 467 523 0
464 467 520 0
523 468 524 0
467 468 523 0
524 469 525 0
468 469 524 0
466 525 469 0
521 525 466 0
527 470 526 0
471 470 527 0
528 471 527 0
472 471 528 0
470 529 526 0
473 529 470 0
530 474 528 0
528 474 472 0
531 474 530 0
475 474 531 0
532 475 531 0
476 475 532 0
533 476 532 0
478 476 533 0
534 478 533 0
479 478 534 0
473 535 529 0
480 535 473 0
481 534 536 0
479 534 481 0
480 537 535 0
482 537 480 0
483 536 538 0
481 536 483 0
482 539 537 0
484 539 482 0
485 538 540 0
483 538 485 0
484 541 539 0
486 541 484 0
487 540 542 0
485 540 487 0
486 543 541 0
488 543 486 0
489 542 544 0
487 542 489 0
488 545 543 0
490 545 488 0
491 544 546 0
489 544 491 0
490 547 545 0
492 547 490 0
493 546 548 0
491 546 493 0
492 549 547 0
494 549 492 0
495 548 550 0
493 548 495 0
494 551 549 0
496 551 494 0
497 550 552 0
495 550 497 0
551 498 553 0
496 498 551 0
553 498 554 0
554 498 499 0
500 552 555 0
497 552 500 0
499 556 554 0
501 556 499 0
557 502 558 0
558 502 503 0
500 558 503 0
555 558 500 0
501 559 556 0
504 559 501 0
505 557 560 0
502 557 505 0
504 561 559 0
506 561 504 0
507 560 562 0
505 560 507 0
506 563 561 0
508 563 506 0
509 562 564 0
507 562 509 0
508 565 563 0
510 565 508 0
511 564 566 0
509 564 511 0
510 567 565 0
513 567 510 0
515 566 568 0
511 566 515 0
517 516 569 0
570 567 513 0
570 513 517 0
570 517 569 0
519 568 571 0
515 568 519 0
572 516 520 0
569 516 572 0
569 572 573 0
569 573 574 0
569 574 570 0
574 573 575 0
576 521 522 0
519 571 577 0
522 519 577 0
576 522 577 0
572 520 523 0
523 573 572 0
524 573 523 0
524 525 578 0
573 524 578 0
575 573 578 0
579 578 525 0
576 579 525 0
521 576 525 0
576 577 579 0
527 526 580 0
527 580 528 0
581 526 529 0
580 526 581 0
581 528 580 0
581 530 528 0
582 530 581 0
583 530 582 0
531 530 583 0
584 531 583 0
585 584 583 0
532 584 586 0
531 584 532 0
533 586 587 0
532 586 533 0
533 587 534 0
588 529 535 0
581 529 588 0
581 588 582 0
582 588 589 0
585 591 584 0
584 591 590 0
590 586 584 0
592 586 590 0
592 587 586 0
593 587 592 0
587 536 534 0
593 536 587 0
535 537 594 0
588 535 594 0
595 588 594 0
595 589 588 0
596 590 591 0
596 597 590 0
590 597 592 0
597 598 592 0
592 598 593 0
599 538 536 0
598 599 536 0
593 598 536 0
537 600 594 0
539 600 537 0
540 599 601 0
538 599 540 0
539 602 600 0
541 602 539 0
542 601 603 0
540 601 542 0
541 604 602 0
543 604 541 0
544 603 605 0
542 603 544 0
543 606 604 0
545 606 543 0
546 605 607 0
544 605 546 0
545 608 606 0
547 608 545 0
548 607 609 0
546 607 548 0
547 610 608 0
549 610 547 0
550 609 611 0
548 609 550 0
549 612 610 0
551 612 549 0
552 611 613 0
550 611 552 0
612 553 614 0
551 553 612 0
614 553 615 0
615 553 554 0
555 613 616 0
552 613 555 0
615 554 556 0
618 615 556 0
617 618 556 0
618 617 619 0
620 557 621 0
621 557 558 0
555 621 558 0
616 621 555 0
622 556 559 0
617 556 622 0
617 622 619 0
619 622 623 0
560 620 624 0
557 620 560 0
625 559 561 0
622 559 625 0
622 625 623 0
623 625 626 0
562 624 627 0
560 624 562 0
628 561 563 0
625 561 628 0
625 628 626 0
626 628 629 0
564 627 630 0
562 627 564 0
631 563 565 0
628 563 631 0
628 631 629 0
629 631 632 0
566 564 630 0
566 630 634 0
566 634 633 0
635 633 634 0
636 565 567 0
631 565 636 0
631 636 632 0
632 636 637 0
568 566 638 0
638 566 633 0
635 638 633 0
639 638 635 0
640 567 570 0
636 567 640 0
636 640 637 0
637 640 641 0
571 568 642 0
642 568 638 0
639 642 638 0
643 642 639 0
640 570 574 0
575 644 641 0
575 641 640 0
575 640 574 0
577 571 645 0
645 571 642 0
643 645 642 0
646 645 643 0
648 644 575 0
647 648 575 0
578 647 575 0
649 647 579 0
579 647 578 0
645 650 649 0
645 649 579 0
645 579 577 0
646 650 645 0
651 650 646 0
647 653 648 0
652 653 647 0
654 647 649 0
652 647 654 0
655 649 650 0
654 649 655 0
651 655 650 0
656 655 651 0
659 657 658 0
652 660 657 0
653 652 657 0
659 653 657 0
661 652 654 0
660 652 661 0
661 654 655 0
662 661 655 0
663 662 655 0
655 656 663 0
658 657 664 0
657 665 664 0
660 665 657 0
660 666 665 0
661 666 660 0
661 662 666 0
583 582 667 0
583 667 585 0
582 589 668 0
667 582 668 0
669 667 668 0
670 591 585 0
669 670 585 0
667 669 585 0
672 594 671 0
595 594 672 0
595 672 589 0
589 672 668 0
673 596 670 0
670 596 591 0
674 596 673 0
597 596 674 0
675 597 674 0
598 597 675 0
676 598 675 0
599 598 676 0
594 677 671 0
600 677 594 0
601 676 678 0
599 676 601 0
600 679 677 0
602 679 600 0
603 678 680 0
601 678 603 0
602 681 679 0
604 681 602 0
605 680 682 0
603 680 605 0
604 683 681 0
606 683 604 0
607 682 684 0
605 682 607 0
