#!ascii version of 
1170 2336
5.000000  -24.500000  33.000000  0
5.500000  -24.000000  33.000000  0
4.000000  -24.500000  33.000000  0
3.000000  -24.500000  33.000000  0
2.000000  -24.500000  33.000000  0
1.000000  -24.500000  33.000000  0
0.500000  -24.000000  33.000000  0
5.000000  -24.500000  32.000000  0
5.500000  -24.000000  32.000000  0
4.000000  -24.500000  32.000000  0
3.000000  -24.500000  32.000000  0
2.000000  -24.500000  32.000000  0
1.000000  -24.500000  32.000000  0
0.500000  -24.000000  32.000000  0
5.000000  -24.500000  31.000000  0
5.500000  -24.000000  31.000000  0
4.000000  -24.500000  31.000000  0
3.000000  -24.500000  31.000000  0
2.000000  -24.500000  31.000000  0
1.000000  -24.500000  31.000000  0
0.500000  -24.000000  31.000000  0
5.000000  -24.500000  30.000000  0
5.500000  -24.000000  30.000000  0
4.000000  -24.500000  30.000000  0
3.000000  -24.500000  30.000000  0
2.000000  -24.500000  30.000000  0
1.000000  -24.500000  30.000000  0
0.500000  -24.000000  30.000000  0
5.000000  -24.000000  29.500000  0
4.000000  -24.500000  29.000000  0
4.500000  -24.000000  29.000000  0
3.000000  -24.500000  29.000000  0
2.000000  -24.500000  29.000000  0
1.000000  -24.500000  29.000000  0
0.500000  -24.000000  29.000000  0
4.000000  -24.000000  28.500000  0
3.000000  -24.500000  28.000000  0
3.500000  -24.000000  28.000000  0
2.000000  -24.500000  28.000000  0
1.000000  -24.500000  28.000000  0
0.500000  -24.000000  28.000000  0
3.000000  -24.000000  27.500000  0
2.000000  -24.000000  27.500000  0
1.000000  -24.000000  27.500000  0
4.000000  -23.500000  46.000000  0
4.500000  -23.000000  46.000000  0
4.000000  -23.000000  46.500000  0
3.000000  -23.500000  46.000000  0
3.000000  -23.000000  46.500000  0
2.000000  -23.500000  46.000000  0
2.000000  -23.000000  46.500000  0
1.000000  -23.500000  46.000000  0
1.000000  -23.000000  46.500000  0
0.000000  -23.500000  46.000000  0
0.000000  -23.000000  46.500000  0
-0.500000  -23.000000  46.000000  0
4.000000  -23.500000  45.000000  0
4.500000  -23.000000  45.000000  0
3.000000  -23.500000  45.000000  0
2.000000  -23.500000  45.000000  0
1.000000  -23.500000  45.000000  0
0.000000  -23.500000  45.000000  0
-0.500000  -23.000000  45.000000  0
4.000000  -23.500000  44.000000  0
4.500000  -23.000000  44.000000  0
3.000000  -23.500000  44.000000  0
2.000000  -23.500000  44.000000  0
1.000000  -23.500000  44.000000  0
0.000000  -23.500000  44.000000  0
-0.500000  -23.000000  44.000000  0
4.000000  -23.500000  43.000000  0
4.500000  -23.000000  43.000000  0
3.000000  -23.500000  43.000000  0
2.000000  -23.500000  43.000000  0
1.000000  -23.500000  43.000000  0
0.000000  -23.500000  43.000000  0
-0.500000  -23.000000  43.000000  0
5.000000  -23.500000  42.000000  0
5.500000  -23.000000  42.000000  0
5.000000  -23.000000  42.500000  0
4.000000  -23.500000  42.000000  0
3.000000  -23.500000  42.000000  0
2.000000  -23.500000  42.000000  0
1.000000  -23.500000  42.000000  0
0.500000  -23.000000  42.000000  0
0.000000  -23.000000  42.500000  0
5.000000  -23.500000  41.000000  0
5.500000  -23.000000  41.000000  0
4.000000  -23.500000  41.000000  0
3.000000  -23.500000  41.000000  0
2.000000  -23.500000  41.000000  0
1.000000  -23.500000  41.000000  0
0.500000  -23.000000  41.000000  0
5.000000  -23.500000  40.000000  0
5.500000  -23.000000  40.000000  0
4.000000  -23.500000  40.000000  0
3.000000  -23.500000  40.000000  0
2.000000  -23.500000  40.000000  0
1.000000  -23.500000  40.000000  0
0.500000  -23.000000  40.000000  0
5.000000  -23.500000  39.000000  0
5.500000  -23.000000  39.000000  0
4.000000  -23.500000  39.000000  0
3.000000  -23.500000  39.000000  0
2.000000  -23.500000  39.000000  0
1.000000  -23.500000  39.000000  0
0.500000  -23.000000  39.000000  0
5.000000  -23.500000  38.000000  0
5.500000  -23.000000  38.000000  0
4.000000  -23.500000  38.000000  0
3.000000  -23.500000  38.000000  0
2.000000  -23.500000  38.000000  0
1.000000  -23.500000  38.000000  0
0.500000  -23.000000  38.000000  0
5.000000  -23.500000  37.000000  0
5.500000  -23.000000  37.000000  0
4.000000  -23.500000  37.000000  0
3.000000  -23.500000  37.000000  0
2.000000  -23.500000  37.000000  0
1.000000  -23.500000  37.000000  0
0.500000  -23.000000  37.000000  0
5.500000  -23.000000  36.000000  0
0.500000  -23.000000  36.000000  0
5.500000  -23.000000  35.000000  0
0.500000  -23.000000  35.000000  0
5.500000  -23.000000  34.000000  0
0.500000  -23.000000  34.000000  0
5.500000  -23.000000  33.000000  0
0.500000  -23.000000  33.000000  0
5.500000  -23.000000  32.000000  0
0.500000  -23.000000  32.000000  0
5.500000  -23.000000  31.000000  0
0.500000  -23.000000  31.000000  0
5.500000  -23.000000  30.000000  0
0.500000  -23.000000  30.000000  0
5.000000  -23.000000  29.500000  0
4.000000  -23.500000  29.000000  0
4.000000  -23.000000  29.500000  0
3.000000  -23.500000  29.000000  0
3.000000  -23.000000  29.500000  0
2.000000  -23.500000  29.000000  0
2.000000  -23.000000  29.500000  0
1.000000  -23.500000  29.000000  0
1.000000  -23.000000  29.500000  0
3.000000  -23.500000  28.000000  0
2.000000  -23.500000  28.000000  0
1.000000  -23.500000  28.000000  0
4.000000  -22.500000  56.000000  0
4.500000  -22.000000  56.000000  0
4.000000  -22.000000  56.500000  0
3.000000  -22.500000  56.000000  0
3.000000  -22.000000  56.500000  0
2.000000  -22.500000  56.000000  0
2.000000  -22.000000  56.500000  0
1.000000  -22.500000  56.000000  0
1.000000  -22.000000  56.500000  0
0.000000  -22.500000  56.000000  0
0.000000  -22.000000  56.500000  0
-0.500000  -22.000000  56.000000  0
4.000000  -22.500000  55.000000  0
4.500000  -22.000000  55.000000  0
3.000000  -22.500000  55.000000  0
2.000000  -22.500000  55.000000  0
1.000000  -22.500000  55.000000  0
0.000000  -22.500000  55.000000  0
-0.500000  -22.000000  55.000000  0
4.000000  -22.500000  54.000000  0
4.500000  -22.000000  54.000000  0
3.000000  -22.500000  54.000000  0
2.000000  -22.500000  54.000000  0
1.000000  -22.500000  54.000000  0
0.000000  -22.500000  54.000000  0
-0.500000  -22.000000  54.000000  0
4.000000  -22.500000  53.000000  0
4.500000  -22.000000  53.000000  0
3.000000  -22.500000  53.000000  0
2.000000  -22.500000  53.000000  0
1.000000  -22.500000  53.000000  0
0.000000  -22.500000  53.000000  0
-0.500000  -22.000000  53.000000  0
4.000000  -22.500000  52.000000  0
4.500000  -22.000000  52.000000  0
3.000000  -22.500000  52.000000  0
2.000000  -22.500000  52.000000  0
1.000000  -22.500000  52.000000  0
0.000000  -22.500000  52.000000  0
-0.500000  -22.000000  52.000000  0
4.000000  -22.500000  51.000000  0
4.500000  -22.000000  51.000000  0
3.000000  -22.500000  51.000000  0
2.000000  -22.500000  51.000000  0
1.000000  -22.500000  51.000000  0
0.000000  -22.500000  51.000000  0
-0.500000  -22.000000  51.000000  0
4.000000  -22.500000  50.000000  0
4.500000  -22.000000  50.000000  0
3.000000  -22.500000  50.000000  0
2.000000  -22.500000  50.000000  0
1.000000  -22.500000  50.000000  0
0.000000  -22.500000  50.000000  0
-0.500000  -22.000000  50.000000  0
4.000000  -22.500000  49.000000  0
4.500000  -22.000000  49.000000  0
3.000000  -22.500000  49.000000  0
2.000000  -22.500000  49.000000  0
1.000000  -22.500000  49.000000  0
0.000000  -22.500000  49.000000  0
-0.500000  -22.000000  49.000000  0
4.000000  -22.500000  48.000000  0
4.500000  -22.000000  48.000000  0
3.000000  -22.500000  48.000000  0
2.000000  -22.500000  48.000000  0
1.000000  -22.500000  48.000000  0
0.000000  -22.500000  48.000000  0
-0.500000  -22.000000  48.000000  0
4.000000  -22.500000  47.000000  0
4.500000  -22.000000  47.000000  0
3.000000  -22.500000  47.000000  0
2.000000  -22.500000  47.000000  0
1.000000  -22.500000  47.000000  0
0.000000  -22.500000  47.000000  0
-0.500000  -22.000000  47.000000  0
4.500000  -22.000000  46.000000  0
-0.500000  -22.000000  46.000000  0
4.500000  -22.000000  45.000000  0
-0.500000  -22.000000  45.000000  0
4.500000  -22.000000  44.000000  0
-0.500000  -22.000000  44.000000  0
4.500000  -22.000000  43.000000  0
-0.500000  -22.000000  43.000000  0
5.000000  -22.500000  42.000000  0
4.500000  -22.000000  42.000000  0
0.000000  -22.500000  42.000000  0
-0.500000  -22.000000  42.000000  0
5.500000  -22.000000  41.000000  0
5.000000  -22.000000  41.500000  0
0.500000  -22.000000  41.000000  0
0.000000  -22.000000  41.500000  0
5.500000  -22.000000  40.000000  0
0.500000  -22.000000  40.000000  0
5.500000  -22.000000  39.000000  0
0.500000  -22.000000  39.000000  0
5.500000  -22.000000  38.000000  0
1.000000  -22.500000  38.000000  0
1.500000  -22.000000  38.000000  0
1.000000  -22.000000  38.500000  0
5.500000  -22.000000  37.000000  0
1.000000  -22.500000  37.000000  0
1.500000  -22.000000  37.000000  0
5.500000  -22.000000  36.000000  0
4.000000  -22.500000  36.000000  0
4.500000  -22.000000  36.000000  0
4.000000  -22.000000  36.500000  0
3.000000  -22.500000  36.000000  0
3.000000  -22.000000  36.500000  0
2.000000  -22.500000  36.000000  0
2.000000  -22.000000  36.500000  0
1.000000  -22.500000  36.000000  0
5.500000  -22.000000  35.000000  0
4.000000  -22.500000  35.000000  0
4.500000  -22.000000  35.000000  0
3.000000  -22.500000  35.000000  0
2.000000  -22.500000  35.000000  0
1.000000  -22.500000  35.000000  0
5.500000  -22.000000  34.000000  0
4.000000  -22.500000  34.000000  0
4.500000  -22.000000  34.000000  0
3.000000  -22.500000  34.000000  0
2.000000  -22.500000  34.000000  0
1.000000  -22.500000  34.000000  0
5.000000  -22.500000  33.000000  0
5.000000  -22.000000  33.500000  0
4.000000  -22.500000  33.000000  0
3.000000  -22.500000  33.000000  0
2.000000  -22.500000  33.000000  0
1.000000  -22.500000  33.000000  0
5.000000  -22.500000  32.000000  0
4.000000  -22.500000  32.000000  0
3.000000  -22.500000  32.000000  0
2.000000  -22.500000  32.000000  0
1.000000  -22.500000  32.000000  0
5.000000  -22.500000  31.000000  0
4.000000  -22.500000  31.000000  0
3.000000  -22.500000  31.000000  0
2.000000  -22.500000  31.000000  0
1.000000  -22.500000  31.000000  0
5.000000  -22.500000  30.000000  0
4.000000  -22.500000  30.000000  0
3.000000  -22.500000  30.000000  0
2.000000  -22.500000  30.000000  0
1.000000  -22.500000  30.000000  0
3.000000  -21.500000  57.000000  0
3.500000  -21.000000  57.000000  0
3.000000  -21.000000  57.500000  0
2.000000  -21.500000  57.000000  0
2.000000  -21.000000  57.500000  0
1.000000  -21.500000  57.000000  0
1.000000  -21.000000  57.500000  0
0.000000  -21.500000  57.000000  0
0.000000  -21.000000  57.500000  0
-0.500000  -21.000000  57.000000  0
4.500000  -21.000000  56.000000  0
4.000000  -21.000000  56.500000  0
-0.500000  -21.000000  56.000000  0
4.500000  -21.000000  55.000000  0
-0.500000  -21.000000  55.000000  0
4.500000  -21.000000  54.000000  0
-0.500000  -21.000000  54.000000  0
4.500000  -21.000000  53.000000  0
-0.500000  -21.000000  53.000000  0
4.500000  -21.000000  52.000000  0
-0.500000  -21.000000  52.000000  0
4.500000  -21.000000  51.000000  0
-0.500000  -21.000000  51.000000  0
4.500000  -21.000000  50.000000  0
-0.500000  -21.000000  50.000000  0
4.500000  -21.000000  49.000000  0
-0.500000  -21.000000  49.000000  0
4.500000  -21.000000  48.000000  0
-0.500000  -21.000000  48.000000  0
4.500000  -21.000000  47.000000  0
-0.500000  -21.000000  47.000000  0
4.500000  -21.000000  46.000000  0
-0.500000  -21.000000  46.000000  0
4.500000  -21.000000  45.000000  0
-0.500000  -21.000000  45.000000  0
4.500000  -21.000000  44.000000  0
-0.500000  -21.000000  44.000000  0
4.500000  -21.000000  43.000000  0
-0.500000  -21.000000  43.000000  0
4.500000  -21.000000  42.000000  0
-0.500000  -21.000000  42.000000  0
5.000000  -21.500000  41.000000  0
4.500000  -21.000000  41.000000  0
0.000000  -21.500000  41.000000  0
-0.500000  -21.000000  41.000000  0
5.000000  -21.500000  40.000000  0
4.500000  -21.000000  40.000000  0
3.000000  -21.500000  40.000000  0
3.500000  -21.000000  40.000000  0
3.000000  -21.000000  40.500000  0
2.000000  -21.500000  40.000000  0
2.000000  -21.000000  40.500000  0
1.000000  -21.500000  40.000000  0
1.000000  -21.000000  40.500000  0
0.000000  -21.000000  40.500000  0
5.500000  -21.000000  39.000000  0
5.000000  -21.000000  39.500000  0
4.000000  -21.500000  39.000000  0
4.500000  -21.000000  39.000000  0
4.000000  -21.000000  39.500000  0
3.000000  -21.500000  39.000000  0
2.000000  -21.500000  39.000000  0
1.000000  -21.500000  39.000000  0
5.500000  -21.000000  38.000000  0
4.000000  -21.500000  38.000000  0
4.500000  -21.000000  38.000000  0
3.000000  -21.500000  38.000000  0
2.000000  -21.500000  38.000000  0
5.500000  -21.000000  37.000000  0
4.000000  -21.500000  37.000000  0
4.500000  -21.000000  37.000000  0
3.000000  -21.500000  37.000000  0
2.000000  -21.500000  37.000000  0
5.500000  -21.000000  36.000000  0
4.500000  -21.000000  36.000000  0
5.500000  -21.000000  35.000000  0
4.500000  -21.000000  35.000000  0
5.500000  -21.000000  34.000000  0
4.500000  -21.000000  34.000000  0
5.000000  -21.000000  33.500000  0
4.000000  -20.500000  58.000000  0
4.500000  -20.000000  58.000000  0
4.000000  -20.000000  58.500000  0
3.500000  -20.000000  58.000000  0
4.000000  -20.500000  57.000000  0
4.500000  -20.000000  57.000000  0
3.000000  -20.000000  57.500000  0
2.000000  -20.000000  57.500000  0
1.000000  -20.000000  57.500000  0
0.000000  -20.000000  57.500000  0
-0.500000  -20.000000  57.000000  0
4.500000  -20.000000  56.000000  0
-0.500000  -20.000000  56.000000  0
4.500000  -20.000000  55.000000  0
-0.500000  -20.000000  55.000000  0
4.500000  -20.000000  54.000000  0
-0.500000  -20.000000  54.000000  0
4.500000  -20.000000  53.000000  0
-0.500000  -20.000000  53.000000  0
4.500000  -20.000000  52.000000  0
-0.500000  -20.000000  52.000000  0
4.500000  -20.000000  51.000000  0
-0.500000  -20.000000  51.000000  0
4.500000  -20.000000  50.000000  0
-0.500000  -20.000000  50.000000  0
4.500000  -20.000000  49.000000  0
-0.500000  -20.000000  49.000000  0
4.500000  -20.000000  48.000000  0
-0.500000  -20.000000  48.000000  0
4.500000  -20.000000  47.000000  0
-0.500000  -20.000000  47.000000  0
4.500000  -20.000000  46.000000  0
-0.500000  -20.000000  46.000000  0
4.500000  -20.000000  45.000000  0
-0.500000  -20.000000  45.000000  0
4.500000  -20.000000  44.000000  0
-0.500000  -20.000000  44.000000  0
4.500000  -20.000000  43.000000  0
-0.500000  -20.000000  43.000000  0
4.500000  -20.000000  42.000000  0
-0.500000  -20.000000  42.000000  0
4.500000  -20.000000  41.000000  0
3.000000  -20.500000  41.000000  0
3.500000  -20.000000  41.000000  0
3.000000  -20.000000  41.500000  0
2.000000  -20.500000  41.000000  0
2.000000  -20.000000  41.500000  0
1.000000  -20.500000  41.000000  0
1.000000  -20.000000  41.500000  0
0.000000  -20.500000  41.000000  0
0.000000  -20.000000  41.500000  0
4.500000  -20.000000  40.000000  0
3.500000  -20.000000  40.000000  0
5.000000  -20.500000  39.000000  0
4.000000  -20.500000  39.000000  0
4.500000  -20.000000  39.000000  0
3.500000  -20.000000  39.000000  0
5.500000  -20.000000  38.000000  0
5.000000  -20.000000  38.500000  0
4.500000  -20.000000  38.000000  0
4.000000  -20.000000  38.500000  0
5.500000  -20.000000  37.000000  0
4.500000  -20.000000  37.000000  0
5.000000  -20.500000  36.000000  0
5.000000  -20.000000  36.500000  0
5.000000  -20.500000  35.000000  0
5.000000  -20.500000  34.000000  0
4.500000  -19.000000  58.000000  0
4.000000  -19.000000  58.500000  0
3.500000  -19.000000  58.000000  0
4.500000  -19.000000  57.000000  0
3.000000  -19.000000  57.500000  0
2.000000  -19.000000  57.500000  0
1.000000  -19.000000  57.500000  0
0.000000  -19.000000  57.500000  0
-0.500000  -19.000000  57.000000  0
4.500000  -19.000000  56.000000  0
-0.500000  -19.000000  56.000000  0
4.500000  -19.000000  55.000000  0
-0.500000  -19.000000  55.000000  0
4.500000  -19.000000  54.000000  0
-0.500000  -19.000000  54.000000  0
4.500000  -19.000000  53.000000  0
-0.500000  -19.000000  53.000000  0
4.500000  -19.000000  52.000000  0
-0.500000  -19.000000  52.000000  0
4.500000  -19.000000  51.000000  0
-0.500000  -19.000000  51.000000  0
4.500000  -19.000000  50.000000  0
-0.500000  -19.000000  50.000000  0
4.500000  -19.000000  49.000000  0
-0.500000  -19.000000  49.000000  0
4.500000  -19.000000  48.000000  0
-0.500000  -19.000000  48.000000  0
4.500000  -19.000000  47.000000  0
-0.500000  -19.000000  47.000000  0
4.500000  -19.000000  46.000000  0
-0.500000  -19.000000  46.000000  0
4.500000  -19.000000  45.000000  0
-0.500000  -19.000000  45.000000  0
4.500000  -19.000000  44.000000  0
-0.500000  -19.000000  44.000000  0
4.500000  -19.000000  43.000000  0
-0.500000  -19.000000  43.000000  0
4.500000  -19.000000  42.000000  0
3.000000  -19.500000  42.000000  0
3.500000  -19.000000  42.000000  0
3.000000  -19.000000  42.500000  0
2.000000  -19.500000  42.000000  0
2.000000  -19.000000  42.500000  0
1.000000  -19.500000  42.000000  0
1.000000  -19.000000  42.500000  0
0.500000  -19.000000  42.000000  0
-0.500000  -19.000000  42.000000  0
4.500000  -19.000000  41.000000  0
3.500000  -19.000000  41.000000  0
0.000000  -19.000000  41.500000  0
4.500000  -19.000000  40.000000  0
3.500000  -19.000000  40.000000  0
4.500000  -19.000000  39.000000  0
3.500000  -19.000000  39.000000  0
5.000000  -19.500000  38.000000  0
4.000000  -19.500000  38.000000  0
4.500000  -19.000000  38.000000  0
3.500000  -19.000000  38.000000  0
5.000000  -19.500000  37.000000  0
4.000000  -19.500000  37.000000  0
4.500000  -19.000000  37.000000  0
3.500000  -19.000000  37.000000  0
4.000000  -19.000000  36.500000  0
4.000000  -18.500000  59.000000  0
4.500000  -18.000000  59.000000  0
4.000000  -18.000000  59.500000  0
3.500000  -18.000000  59.000000  0
4.500000  -18.000000  58.000000  0
3.500000  -18.000000  58.000000  0
4.500000  -18.000000  57.000000  0
3.000000  -18.000000  57.500000  0
2.000000  -18.000000  57.500000  0
1.000000  -18.000000  57.500000  0
0.000000  -18.000000  57.500000  0
-0.500000  -18.000000  57.000000  0
4.500000  -18.000000  56.000000  0
-0.500000  -18.000000  56.000000  0
4.500000  -18.000000  55.000000  0
-0.500000  -18.000000  55.000000  0
4.500000  -18.000000  54.000000  0
-0.500000  -18.000000  54.000000  0
4.500000  -18.000000  53.000000  0
-0.500000  -18.000000  53.000000  0
4.500000  -18.000000  52.000000  0
-0.500000  -18.000000  52.000000  0
4.500000  -18.000000  51.000000  0
-0.500000  -18.000000  51.000000  0
4.500000  -18.000000  50.000000  0
-0.500000  -18.000000  50.000000  0
4.500000  -18.000000  49.000000  0
-0.500000  -18.000000  49.000000  0
4.500000  -18.000000  48.000000  0
-0.500000  -18.000000  48.000000  0
4.500000  -18.000000  47.000000  0
-0.500000  -18.000000  47.000000  0
4.500000  -18.000000  46.000000  0
-0.500000  -18.000000  46.000000  0
4.500000  -18.000000  45.000000  0
-0.500000  -18.000000  45.000000  0
4.500000  -18.000000  44.000000  0
-0.500000  -18.000000  44.000000  0
4.500000  -18.000000  43.000000  0
-0.500000  -18.000000  43.000000  0
4.500000  -18.000000  42.000000  0
3.500000  -18.000000  42.000000  0
3.000000  -18.000000  42.500000  0
2.000000  -18.000000  42.500000  0
1.000000  -18.000000  42.500000  0
0.500000  -18.000000  42.000000  0
-0.500000  -18.000000  42.000000  0
4.500000  -18.000000  41.000000  0
3.500000  -18.000000  41.000000  0
0.000000  -18.000000  41.500000  0
4.500000  -18.000000  40.000000  0
3.500000  -18.000000  40.000000  0
4.500000  -18.000000  39.000000  0
3.500000  -18.000000  39.000000  0
4.500000  -18.000000  38.000000  0
3.500000  -18.000000  38.000000  0
4.500000  -18.000000  37.000000  0
3.500000  -18.000000  37.000000  0
4.000000  -18.000000  36.500000  0
4.500000  -17.000000  59.000000  0
4.000000  -17.000000  59.500000  0
3.500000  -17.000000  59.000000  0
4.500000  -17.000000  58.000000  0
3.000000  -17.500000  58.000000  0
3.000000  -17.000000  58.500000  0
2.500000  -17.000000  58.000000  0
4.500000  -17.000000  57.000000  0
2.000000  -17.000000  57.500000  0
1.000000  -17.000000  57.500000  0
0.000000  -17.000000  57.500000  0
-0.500000  -17.000000  57.000000  0
4.500000  -17.000000  56.000000  0
0.000000  -17.500000  56.000000  0
0.500000  -17.000000  56.000000  0
0.000000  -17.000000  56.500000  0
4.500000  -17.000000  55.000000  0
0.000000  -17.500000  55.000000  0
0.500000  -17.000000  55.000000  0
4.500000  -17.000000  54.000000  0
0.000000  -17.500000  54.000000  0
0.500000  -17.000000  54.000000  0
4.500000  -17.000000  53.000000  0
0.000000  -17.000000  53.500000  0
-0.500000  -17.000000  53.000000  0
4.500000  -17.000000  52.000000  0
-0.500000  -17.000000  52.000000  0
4.500000  -17.000000  51.000000  0
-0.500000  -17.000000  51.000000  0
4.500000  -17.000000  50.000000  0
-0.500000  -17.000000  50.000000  0
4.500000  -17.000000  49.000000  0
-0.500000  -17.000000  49.000000  0
4.500000  -17.000000  48.000000  0
-0.500000  -17.000000  48.000000  0
4.500000  -17.000000  47.000000  0
-0.500000  -17.000000  47.000000  0
4.500000  -17.000000  46.000000  0
-0.500000  -17.000000  46.000000  0
4.500000  -17.000000  45.000000  0
-0.500000  -17.000000  45.000000  0
4.500000  -17.000000  44.000000  0
-0.500000  -17.000000  44.000000  0
4.500000  -17.000000  43.000000  0
-0.500000  -17.000000  43.000000  0
4.500000  -17.000000  42.000000  0
3.500000  -17.000000  42.000000  0
3.000000  -17.000000  42.500000  0
2.000000  -17.000000  42.500000  0
1.000000  -17.000000  42.500000  0
0.000000  -17.500000  42.000000  0
0.000000  -17.000000  42.500000  0
4.500000  -17.000000  41.000000  0
3.500000  -17.000000  41.000000  0
4.500000  -17.000000  40.000000  0
3.500000  -17.000000  40.000000  0
4.500000  -17.000000  39.000000  0
3.500000  -17.000000  39.000000  0
4.500000  -17.000000  38.000000  0
3.500000  -17.000000  38.000000  0
4.500000  -17.000000  37.000000  0
3.500000  -17.000000  37.000000  0
4.000000  -17.000000  36.500000  0
4.500000  -16.000000  59.000000  0
4.000000  -16.000000  59.500000  0
3.500000  -16.000000  59.000000  0
4.500000  -16.000000  58.000000  0
3.000000  -16.000000  58.500000  0
2.500000  -16.000000  58.000000  0
4.500000  -16.000000  57.000000  0
2.000000  -16.000000  57.500000  0
1.000000  -16.500000  57.000000  0
1.500000  -16.000000  57.000000  0
0.000000  -16.500000  57.000000  0
4.500000  -16.000000  56.000000  0
1.000000  -16.000000  56.500000  0
0.500000  -16.000000  56.000000  0
4.500000  -16.000000  55.000000  0
0.500000  -16.000000  55.000000  0
4.500000  -16.000000  54.000000  0
0.500000  -16.000000  54.000000  0
4.500000  -16.000000  53.000000  0
0.000000  -16.000000  53.500000  0
-0.500000  -16.000000  53.000000  0
4.500000  -16.000000  52.000000  0
-0.500000  -16.000000  52.000000  0
4.500000  -16.000000  51.000000  0
-0.500000  -16.000000  51.000000  0
4.500000  -16.000000  50.000000  0
-0.500000  -16.000000  50.000000  0
4.500000  -16.000000  49.000000  0
-0.500000  -16.000000  49.000000  0
4.500000  -16.000000  48.000000  0
-0.500000  -16.000000  48.000000  0
4.500000  -16.000000  47.000000  0
-0.500000  -16.000000  47.000000  0
4.500000  -16.000000  46.000000  0
-0.500000  -16.000000  46.000000  0
4.500000  -16.000000  45.000000  0
-0.500000  -16.000000  45.000000  0
4.500000  -16.000000  44.000000  0
-0.500000  -16.000000  44.000000  0
4.500000  -16.000000  43.000000  0
-0.500000  -16.000000  43.000000  0
4.000000  -16.500000  42.000000  0
4.000000  -16.000000  42.500000  0
3.000000  -16.000000  42.500000  0
2.000000  -16.000000  42.500000  0
1.000000  -16.000000  42.500000  0
0.000000  -16.000000  42.500000  0
4.000000  -16.500000  41.000000  0
4.000000  -16.500000  40.000000  0
4.500000  -16.000000  39.000000  0
4.000000  -16.000000  39.500000  0
3.500000  -16.000000  39.000000  0
4.500000  -16.000000  38.000000  0
3.500000  -16.000000  38.000000  0
4.000000  -16.500000  37.000000  0
4.000000  -16.000000  37.500000  0
4.500000  -15.000000  59.000000  0
4.000000  -15.000000  59.500000  0
3.500000  -15.000000  59.000000  0
4.500000  -15.000000  58.000000  0
3.000000  -15.000000  58.500000  0
2.500000  -15.000000  58.000000  0
4.500000  -15.000000  57.000000  0
2.000000  -15.000000  57.500000  0
1.500000  -15.000000  57.000000  0
4.500000  -15.000000  56.000000  0
1.000000  -15.000000  56.500000  0
0.500000  -15.000000  56.000000  0
4.500000  -15.000000  55.000000  0
0.500000  -15.000000  55.000000  0
4.500000  -15.000000  54.000000  0
0.500000  -15.000000  54.000000  0
4.500000  -15.000000  53.000000  0
0.000000  -15.000000  53.500000  0
-0.500000  -15.000000  53.000000  0
4.500000  -15.000000  52.000000  0
-0.500000  -15.000000  52.000000  0
4.500000  -15.000000  51.000000  0
-0.500000  -15.000000  51.000000  0
4.500000  -15.000000  50.000000  0
-0.500000  -15.000000  50.000000  0
4.500000  -15.000000  49.000000  0
-0.500000  -15.000000  49.000000  0
4.500000  -15.000000  48.000000  0
-0.500000  -15.000000  48.000000  0
4.500000  -15.000000  47.000000  0
-0.500000  -15.000000  47.000000  0
4.500000  -15.000000  46.000000  0
-0.500000  -15.000000  46.000000  0
4.500000  -15.000000  45.000000  0
-0.500000  -15.000000  45.000000  0
4.500000  -15.000000  44.000000  0
-0.500000  -15.000000  44.000000  0
4.000000  -15.500000  43.000000  0
4.000000  -15.000000  43.500000  0
3.000000  -15.500000  43.000000  0
3.000000  -15.000000  43.500000  0
2.000000  -15.500000  43.000000  0
2.000000  -15.000000  43.500000  0
1.000000  -15.500000  43.000000  0
1.000000  -15.000000  43.500000  0
0.000000  -15.500000  43.000000  0
0.000000  -15.000000  43.500000  0
4.000000  -15.500000  39.000000  0
4.000000  -15.500000  38.000000  0
4.500000  -14.000000  59.000000  0
4.000000  -14.000000  59.500000  0
3.500000  -14.000000  59.000000  0
4.500000  -14.000000  58.000000  0
3.000000  -14.000000  58.500000  0
2.500000  -14.000000  58.000000  0
4.500000  -14.000000  57.000000  0
2.000000  -14.500000  57.000000  0
2.500000  -14.000000  57.000000  0
4.500000  -14.000000  56.000000  0
2.000000  -14.000000  56.500000  0
1.000000  -14.000000  56.500000  0
0.000000  -14.500000  56.000000  0
0.000000  -14.000000  56.500000  0
-0.500000  -14.000000  56.000000  0
4.500000  -14.000000  55.000000  0
0.000000  -14.500000  55.000000  0
-0.500000  -14.000000  55.000000  0
4.500000  -14.000000  54.000000  0
0.000000  -14.500000  54.000000  0
-0.500000  -14.000000  54.000000  0
4.500000  -14.000000  53.000000  0
-0.500000  -14.000000  53.000000  0
4.500000  -14.000000  52.000000  0
-0.500000  -14.000000  52.000000  0
4.500000  -14.000000  51.000000  0
-0.500000  -14.000000  51.000000  0
4.500000  -14.000000  50.000000  0
-0.500000  -14.000000  50.000000  0
4.500000  -14.000000  49.000000  0
-0.500000  -14.000000  49.000000  0
4.500000  -14.000000  48.000000  0
-0.500000  -14.000000  48.000000  0
4.500000  -14.000000  47.000000  0
-0.500000  -14.000000  47.000000  0
4.500000  -14.000000  46.000000  0
-0.500000  -14.000000  46.000000  0
4.500000  -14.000000  45.000000  0
-0.500000  -14.000000  45.000000  0
4.500000  -14.000000  44.000000  0
-0.500000  -14.000000  44.000000  0
4.000000  -14.000000  43.500000  0
3.000000  -14.000000  43.500000  0
2.000000  -14.000000  43.500000  0
1.000000  -14.000000  43.500000  0
0.000000  -14.000000  43.500000  0
4.500000  -13.000000  59.000000  0
4.000000  -13.000000  59.500000  0
3.500000  -13.000000  59.000000  0
4.500000  -13.000000  58.000000  0
3.000000  -13.500000  58.000000  0
3.500000  -13.000000  58.000000  0
4.500000  -13.000000  57.000000  0
3.000000  -13.000000  57.500000  0
2.500000  -13.000000  57.000000  0
4.500000  -13.000000  56.000000  0
2.000000  -13.000000  56.500000  0
1.000000  -13.000000  56.500000  0
0.000000  -13.000000  56.500000  0
-0.500000  -13.000000  56.000000  0
4.500000  -13.000000  55.000000  0
-0.500000  -13.000000  55.000000  0
4.500000  -13.000000  54.000000  0
-0.500000  -13.000000  54.000000  0
4.500000  -13.000000  53.000000  0
-0.500000  -13.000000  53.000000  0
4.500000  -13.000000  52.000000  0
-0.500000  -13.000000  52.000000  0
4.500000  -13.000000  51.000000  0
-0.500000  -13.000000  51.000000  0
4.500000  -13.000000  50.000000  0
-0.500000  -13.000000  50.000000  0
4.500000  -13.000000  49.000000  0
-0.500000  -13.000000  49.000000  0
4.500000  -13.000000  48.000000  0
-0.500000  -13.000000  48.000000  0
4.000000  -13.500000  47.000000  0
4.000000  -13.000000  47.500000  0
3.500000  -13.000000  47.000000  0
-0.500000  -13.000000  47.000000  0
4.000000  -13.500000  46.000000  0
3.500000  -13.000000  46.000000  0
-0.500000  -13.000000  46.000000  0
4.000000  -13.500000  45.000000  0
3.500000  -13.000000  45.000000  0
-0.500000  -13.000000  45.000000  0
4.000000  -13.500000  44.000000  0
3.000000  -13.500000  44.000000  0
3.000000  -13.000000  44.500000  0
2.000000  -13.500000  44.000000  0
2.000000  -13.000000  44.500000  0
1.000000  -13.500000  44.000000  0
1.000000  -13.000000  44.500000  0
0.000000  -13.500000  44.000000  0
0.000000  -13.000000  44.500000  0
4.000000  -12.500000  59.000000  0
4.500000  -12.000000  58.000000  0
4.000000  -12.000000  58.500000  0
3.500000  -12.000000  58.000000  0
4.500000  -12.000000  57.000000  0
3.000000  -12.000000  57.500000  0
2.500000  -12.000000  57.000000  0
4.500000  -12.000000  56.000000  0
2.000000  -12.000000  56.500000  0
1.000000  -12.000000  56.500000  0
0.000000  -12.000000  56.500000  0
-0.500000  -12.000000  56.000000  0
4.500000  -12.000000  55.000000  0
-0.500000  -12.000000  55.000000  0
4.500000  -12.000000  54.000000  0
-0.500000  -12.000000  54.000000  0
4.500000  -12.000000  53.000000  0
-0.500000  -12.000000  53.000000  0
4.500000  -12.000000  52.000000  0
-0.500000  -12.000000  52.000000  0
4.500000  -12.000000  51.000000  0
-0.500000  -12.000000  51.000000  0
4.500000  -12.000000  50.000000  0
-0.500000  -12.000000  50.000000  0
4.500000  -12.000000  49.000000  0
-0.500000  -12.000000  49.000000  0
4.500000  -12.000000  48.000000  0
-0.500000  -12.000000  48.000000  0
4.000000  -12.000000  47.500000  0
3.500000  -12.000000  47.000000  0
-0.500000  -12.000000  47.000000  0
3.500000  -12.000000  46.000000  0
-0.500000  -12.000000  46.000000  0
3.500000  -12.000000  45.000000  0
-0.500000  -12.000000  45.000000  0
3.000000  -12.000000  44.500000  0
2.000000  -12.000000  44.500000  0
1.000000  -12.000000  44.500000  0
0.000000  -12.000000  44.500000  0
4.500000  -11.000000  58.000000  0
4.000000  -11.000000  58.500000  0
3.500000  -11.000000  58.000000  0
4.500000  -11.000000  57.000000  0
3.000000  -11.000000  57.500000  0
2.500000  -11.000000  57.000000  0
4.500000  -11.000000  56.000000  0
2.000000  -11.000000  56.500000  0
1.000000  -11.500000  56.000000  0
1.500000  -11.000000  56.000000  0
0.000000  -11.500000  56.000000  0
4.500000  -11.000000  55.000000  0
1.000000  -11.000000  55.500000  0
0.000000  -11.000000  55.500000  0
-0.500000  -11.000000  55.000000  0
4.500000  -11.000000  54.000000  0
-0.500000  -11.000000  54.000000  0
4.500000  -11.000000  53.000000  0
-0.500000  -11.000000  53.000000  0
4.500000  -11.000000  52.000000  0
-0.500000  -11.000000  52.000000  0
4.500000  -11.000000  51.000000  0
-0.500000  -11.000000  51.000000  0
4.500000  -11.000000  50.000000  0
-0.500000  -11.000000  50.000000  0
4.500000  -11.000000  49.000000  0
-0.500000  -11.000000  49.000000  0
4.500000  -11.000000  48.000000  0
-0.500000  -11.000000  48.000000  0
4.000000  -11.000000  47.500000  0
3.500000  -11.000000  47.000000  0
-0.500000  -11.000000  47.000000  0
3.500000  -11.000000  46.000000  0
-0.500000  -11.000000  46.000000  0
3.500000  -11.000000  45.000000  0
-0.500000  -11.000000  45.000000  0
3.000000  -11.000000  44.500000  0
2.000000  -11.000000  44.500000  0
1.000000  -11.000000  44.500000  0
0.000000  -11.000000  44.500000  0
4.500000  -10.000000  58.000000  0
4.000000  -10.000000  58.500000  0
3.500000  -10.000000  58.000000  0
4.500000  -10.000000  57.000000  0
3.000000  -10.000000  57.500000  0
2.500000  -10.000000  57.000000  0
4.500000  -10.000000  56.000000  0
2.000000  -10.000000  56.500000  0
1.500000  -10.000000  56.000000  0
4.500000  -10.000000  55.000000  0
1.000000  -10.000000  55.500000  0
0.000000  -10.000000  55.500000  0
-0.500000  -10.000000  55.000000  0
4.500000  -10.000000  54.000000  0
-0.500000  -10.000000  54.000000  0
4.500000  -10.000000  53.000000  0
-0.500000  -10.000000  53.000000  0
4.500000  -10.000000  52.000000  0
-0.500000  -10.000000  52.000000  0
4.500000  -10.000000  51.000000  0
-0.500000  -10.000000  51.000000  0
4.500000  -10.000000  50.000000  0
-0.500000  -10.000000  50.000000  0
4.500000  -10.000000  49.000000  0
-0.500000  -10.000000  49.000000  0
4.000000  -10.500000  48.000000  0
4.000000  -10.000000  48.500000  0
3.500000  -10.000000  48.000000  0
-0.500000  -10.000000  48.000000  0
3.500000  -10.000000  47.000000  0
-0.500000  -10.000000  47.000000  0
3.500000  -10.000000  46.000000  0
-0.500000  -10.000000  46.000000  0
3.500000  -10.000000  45.000000  0
-0.500000  -10.000000  45.000000  0
3.000000  -10.000000  44.500000  0
2.000000  -10.000000  44.500000  0
1.000000  -10.000000  44.500000  0
0.000000  -10.000000  44.500000  0
4.000000  -9.500000  58.000000  0
3.000000  -9.500000  58.000000  0
3.500000  -9.000000  58.000000  0
3.000000  -9.000000  58.500000  0
2.500000  -9.000000  58.000000  0
4.500000  -9.000000  57.000000  0
4.000000  -9.000000  57.500000  0
2.500000  -9.000000  57.000000  0
4.500000  -9.000000  56.000000  0
2.000000  -9.000000  56.500000  0
1.500000  -9.000000  56.000000  0
4.500000  -9.000000  55.000000  0
1.000000  -9.000000  55.500000  0
0.000000  -9.000000  55.500000  0
-0.500000  -9.000000  55.000000  0
4.500000  -9.000000  54.000000  0
-0.500000  -9.000000  54.000000  0
4.500000  -9.000000  53.000000  0
-0.500000  -9.000000  53.000000  0
4.500000  -9.000000  52.000000  0
-0.500000  -9.000000  52.000000  0
4.500000  -9.000000  51.000000  0
-0.500000  -9.000000  51.000000  0
4.500000  -9.000000  50.000000  0
-0.500000  -9.000000  50.000000  0
4.500000  -9.000000  49.000000  0
-0.500000  -9.000000  49.000000  0
4.000000  -9.000000  48.500000  0
3.500000  -9.000000  48.000000  0
-0.500000  -9.000000  48.000000  0
3.500000  -9.000000  47.000000  0
-0.500000  -9.000000  47.000000  0
3.500000  -9.000000  46.000000  0
-0.500000  -9.000000  46.000000  0
3.500000  -9.000000  45.000000  0
-0.500000  -9.000000  45.000000  0
3.000000  -9.000000  44.500000  0
2.000000  -9.000000  44.500000  0
1.000000  -9.000000  44.500000  0
0.000000  -9.000000  44.500000  0
3.500000  -8.000000  58.000000  0
3.000000  -8.000000  58.500000  0
2.500000  -8.000000  58.000000  0
4.000000  -8.500000  57.000000  0
3.500000  -8.000000  57.000000  0
2.500000  -8.000000  57.000000  0
4.500000  -8.000000  56.000000  0
4.000000  -8.000000  56.500000  0
2.000000  -8.000000  56.500000  0
1.500000  -8.000000  56.000000  0
4.500000  -8.000000  55.000000  0
1.000000  -8.000000  55.500000  0
0.000000  -8.000000  55.500000  0
-0.500000  -8.000000  55.000000  0
4.500000  -8.000000  54.000000  0
-0.500000  -8.000000  54.000000  0
4.500000  -8.000000  53.000000  0
-0.500000  -8.000000  53.000000  0
4.500000  -8.000000  52.000000  0
-0.500000  -8.000000  52.000000  0
4.500000  -8.000000  51.000000  0
-0.500000  -8.000000  51.000000  0
4.500000  -8.000000  50.000000  0
-0.500000  -8.000000  50.000000  0
4.500000  -8.000000  49.000000  0
-0.500000  -8.000000  49.000000  0
4.000000  -8.000000  48.500000  0
3.500000  -8.000000  48.000000  0
-0.500000  -8.000000  48.000000  0
3.500000  -8.000000  47.000000  0
-0.500000  -8.000000  47.000000  0
3.500000  -8.000000  46.000000  0
-0.500000  -8.000000  46.000000  0
3.500000  -8.000000  45.000000  0
-0.500000  -8.000000  45.000000  0
3.000000  -8.500000  44.000000  0
3.500000  -8.000000  44.000000  0
2.000000  -8.500000  44.000000  0
1.000000  -8.500000  44.000000  0
0.000000  -8.500000  44.000000  0
-0.500000  -8.000000  44.000000  0
3.000000  -8.000000  43.500000  0
2.000000  -8.000000  43.500000  0
1.000000  -8.000000  43.500000  0
0.000000  -8.000000  43.500000  0
3.000000  -7.500000  58.000000  0
3.500000  -7.000000  57.000000  0
3.000000  -7.000000  57.500000  0
2.500000  -7.000000  57.000000  0
4.000000  -7.500000  56.000000  0
3.500000  -7.000000  56.000000  0
2.000000  -7.000000  56.500000  0
1.000000  -7.500000  56.000000  0
1.000000  -7.000000  56.500000  0
0.000000  -7.500000  56.000000  0
0.000000  -7.000000  56.500000  0
-1.000000  -7.500000  56.000000  0
-1.000000  -7.000000  56.500000  0
-1.500000  -7.000000  56.000000  0
4.000000  -7.500000  55.000000  0
3.500000  -7.000000  55.000000  0
-1.000000  -7.500000  55.000000  0
-1.500000  -7.000000  55.000000  0
4.500000  -7.000000  54.000000  0
4.000000  -7.000000  54.500000  0
-0.500000  -7.000000  54.000000  0
-1.000000  -7.000000  54.500000  0
4.500000  -7.000000  53.000000  0
-0.500000  -7.000000  53.000000  0
4.500000  -7.000000  52.000000  0
-0.500000  -7.000000  52.000000  0
4.500000  -7.000000  51.000000  0
-0.500000  -7.000000  51.000000  0
4.500000  -7.000000  50.000000  0
-0.500000  -7.000000  50.000000  0
4.500000  -7.000000  49.000000  0
-0.500000  -7.000000  49.000000  0
4.000000  -7.000000  48.500000  0
3.500000  -7.000000  48.000000  0
-0.500000  -7.000000  48.000000  0
3.500000  -7.000000  47.000000  0
-0.500000  -7.000000  47.000000  0
3.500000  -7.000000  46.000000  0
-0.500000  -7.000000  46.000000  0
3.000000  -7.500000  45.000000  0
3.000000  -7.000000  45.500000  0
2.000000  -7.500000  45.000000  0
2.000000  -7.000000  45.500000  0
1.000000  -7.500000  45.000000  0
1.000000  -7.000000  45.500000  0
0.000000  -7.500000  45.000000  0
0.000000  -7.000000  45.500000  0
3.000000  -7.500000  44.000000  0
2.000000  -7.500000  44.000000  0
1.000000  -7.500000  44.000000  0
0.000000  -7.500000  44.000000  0
3.500000  -6.000000  57.000000  0
3.000000  -6.000000  57.500000  0
2.500000  -6.000000  57.000000  0
3.500000  -6.000000  56.000000  0
2.000000  -6.000000  56.500000  0
1.000000  -6.000000  56.500000  0
0.000000  -6.000000  56.500000  0
-1.000000  -6.000000  56.500000  0
-1.500000  -6.000000  56.000000  0
3.000000  -6.500000  55.000000  0
3.000000  -6.000000  55.500000  0
2.000000  -6.500000  55.000000  0
2.000000  -6.000000  55.500000  0
1.000000  -6.500000  55.000000  0
1.000000  -6.000000  55.500000  0
0.000000  -6.500000  55.000000  0
0.000000  -6.000000  55.500000  0
-1.000000  -6.500000  55.000000  0
-1.000000  -6.000000  55.500000  0
4.000000  -6.500000  54.000000  0
3.000000  -6.500000  54.000000  0
2.000000  -6.500000  54.000000  0
1.000000  -6.500000  54.000000  0
0.000000  -6.500000  54.000000  0
4.000000  -6.500000  53.000000  0
3.000000  -6.500000  53.000000  0
2.000000  -6.500000  53.000000  0
1.000000  -6.500000  53.000000  0
0.000000  -6.500000  53.000000  0
4.000000  -6.500000  52.000000  0
3.000000  -6.500000  52.000000  0
2.000000  -6.500000  52.000000  0
1.000000  -6.500000  52.000000  0
0.000000  -6.500000  52.000000  0
4.000000  -6.500000  51.000000  0
3.000000  -6.500000  51.000000  0
2.000000  -6.500000  51.000000  0
1.000000  -6.500000  51.000000  0
0.000000  -6.500000  51.000000  0
4.000000  -6.500000  50.000000  0
3.000000  -6.500000  50.000000  0
2.000000  -6.500000  50.000000  0
1.000000  -6.500000  50.000000  0
0.000000  -6.500000  50.000000  0
4.000000  -6.500000  49.000000  0
3.000000  -6.500000  49.000000  0
2.000000  -6.500000  49.000000  0
1.000000  -6.500000  49.000000  0
0.000000  -6.500000  49.000000  0
3.000000  -6.500000  48.000000  0
2.000000  -6.500000  48.000000  0
1.000000  -6.500000  48.000000  0
0.000000  -6.500000  48.000000  0
3.000000  -6.500000  47.000000  0
2.000000  -6.500000  47.000000  0
1.000000  -6.500000  47.000000  0
0.000000  -6.500000  47.000000  0
3.000000  -6.500000  46.000000  0
2.000000  -6.500000  46.000000  0
1.000000  -6.500000  46.000000  0
0.000000  -6.500000  46.000000  0
3.000000  -5.500000  57.000000  0
3.000000  -5.500000  56.000000  0
2.000000  -5.500000  56.000000  0
1.000000  -5.500000  56.000000  0
0.000000  -5.500000  56.000000  0
-1.000000  -5.500000  56.000000  0
2 0 1 0
2 3 0 0
4 3 2 0
4 5 3 0
6 5 4 0
6 7 5 0
8 7 6 0
8 9 7 0
10 9 8 0
11 9 10 0
0 13 1 0
12 13 0 0
14 0 3 0
12 0 14 0
15 3 5 0
14 3 15 0
16 5 7 0
15 5 16 0
17 7 9 0
16 7 17 0
11 17 9 0
18 17 11 0
12 20 13 0
19 20 12 0
21 12 14 0
19 12 21 0
22 14 15 0
21 14 22 0
23 15 16 0
22 15 23 0
24 16 17 0
23 16 24 0
18 24 17 0
25 24 18 0
19 27 20 0
26 27 19 0
28 19 21 0
26 19 28 0
29 21 22 0
28 21 29 0
30 22 23 0
29 22 30 0
31 23 24 0
30 23 31 0
25 31 24 0
32 31 25 0
26 34 27 0
33 34 26 0
35 26 28 0
33 26 35 0
36 28 29 0
35 28 36 0
37 29 30 0
36 29 37 0
38 30 31 0
37 30 38 0
32 38 31 0
39 38 32 0
33 41 34 0
40 41 33 0
42 33 35 0
40 33 42 0
43 35 36 0
42 35 43 0
44 36 37 0
43 36 44 0
45 37 38 0
44 37 45 0
39 45 38 0
46 45 39 0
40 48 41 0
47 48 40 0
49 40 42 0
47 40 49 0
50 42 43 0
49 42 50 0
51 43 44 0
50 43 51 0
52 44 45 0
51 44 52 0
46 52 45 0
53 52 46 0
48 47 54 0
47 49 55 0
54 47 55 0
56 54 55 0
57 49 50 0
55 49 57 0
58 50 51 0
57 50 58 0
59 51 52 0
58 51 59 0
53 59 52 0
60 59 53 0
56 55 61 0
55 57 62 0
61 55 62 0
63 61 62 0
64 57 58 0
62 57 64 0
65 58 59 0
64 58 65 0
60 65 59 0
66 65 60 0
63 62 67 0
62 68 67 0
64 68 62 0
64 69 68 0
65 69 64 0
65 66 69 0
72 70 71 0
72 73 70 0
74 73 72 0
74 75 73 0
76 75 74 0
76 77 75 0
78 77 76 0
78 79 77 0
80 79 78 0
81 79 80 0
70 83 71 0
82 83 70 0
84 70 73 0
82 70 84 0
85 73 75 0
84 73 85 0
86 75 77 0
85 75 86 0
87 77 79 0
86 77 87 0
81 87 79 0
88 87 81 0
82 90 83 0
89 90 82 0
91 82 84 0
89 82 91 0
92 84 85 0
91 84 92 0
93 85 86 0
92 85 93 0
94 86 87 0
93 86 94 0
88 94 87 0
95 94 88 0
89 97 90 0
96 97 89 0
98 89 91 0
96 89 98 0
99 91 92 0
98 91 99 0
100 92 93 0
99 92 100 0
101 93 94 0
100 93 101 0
95 101 94 0
102 101 95 0
105 103 104 0
96 106 103 0
97 96 103 0
105 97 103 0
107 96 98 0
106 96 107 0
108 98 99 0
107 98 108 0
109 99 100 0
108 99 109 0
109 100 101 0
110 109 101 0
111 110 101 0
101 102 111 0
103 113 104 0
112 113 103 0
114 103 106 0
112 103 114 0
115 106 107 0
114 106 115 0
116 107 108 0
115 107 116 0
117 108 109 0
116 108 117 0
110 117 109 0
118 117 110 0
112 120 113 0
119 120 112 0
121 112 114 0
119 112 121 0
122 114 115 0
121 114 122 0
123 115 116 0
122 115 123 0
124 116 117 0
123 116 124 0
118 124 117 0
125 124 118 0
119 127 120 0
126 127 119 0
128 119 121 0
126 119 128 0
129 121 122 0
128 121 129 0
130 122 123 0
129 122 130 0
131 123 124 0
130 123 131 0
125 131 124 0
132 131 125 0
126 134 127 0
133 134 126 0
135 126 128 0
133 126 135 0
136 128 129 0
135 128 136 0
137 129 130 0
136 129 137 0
138 130 131 0
137 130 138 0
132 138 131 0
139 138 132 0
133 141 134 0
140 141 133 0
142 133 135 0
140 133 142 0
143 135 136 0
142 135 143 0
144 136 137 0
143 136 144 0
145 137 138 0
144 137 145 0
139 145 138 0
146 145 139 0
1 147 141 0
2 1 141 0
140 2 141 0
140 142 2 0
2 142 4 0
142 143 4 0
4 143 6 0
143 144 6 0
6 144 8 0
144 145 8 0
8 145 10 0
146 148 11 0
145 146 11 0
10 145 11 0
1 149 147 0
13 149 1 0
18 148 150 0
11 148 18 0
13 151 149 0
20 151 13 0
25 150 152 0
18 150 25 0
20 153 151 0
27 153 20 0
32 152 154 0
25 152 32 0
27 155 153 0
34 155 27 0
39 154 156 0
32 154 39 0
34 157 155 0
41 157 34 0
46 156 158 0
39 156 46 0
41 159 157 0
48 159 41 0
53 158 160 0
46 158 53 0
159 54 161 0
48 54 159 0
163 161 54 0
163 54 56 0
163 56 162 0
162 164 163 0
163 164 165 0
164 166 165 0
165 166 167 0
166 168 167 0
167 168 169 0
60 53 160 0
168 60 160 0
169 168 160 0
162 56 61 0
170 164 162 0
63 170 162 0
61 63 162 0
170 166 164 0
171 166 170 0
171 168 166 0
172 168 171 0
168 66 60 0
172 66 168 0
170 63 67 0
67 171 170 0
68 171 67 0
68 172 171 0
69 172 68 0
69 66 172 0
175 173 174 0
175 176 173 0
177 176 175 0
177 178 176 0
179 178 177 0
179 180 178 0
181 180 179 0
181 182 180 0
183 182 181 0
184 182 183 0
173 186 174 0
185 186 173 0
187 173 176 0
185 173 187 0
188 176 178 0
187 176 188 0
189 178 180 0
188 178 189 0
190 180 182 0
189 180 190 0
184 190 182 0
191 190 184 0
185 193 186 0
192 193 185 0
194 185 187 0
192 185 194 0
195 187 188 0
194 187 195 0
196 188 189 0
195 188 196 0
197 189 190 0
196 189 197 0
191 197 190 0
198 197 191 0
192 200 193 0
199 200 192 0
201 192 194 0
199 192 201 0
202 194 195 0
201 194 202 0
203 195 196 0
202 195 203 0
204 196 197 0
203 196 204 0
198 204 197 0
205 204 198 0
199 207 200 0
206 207 199 0
208 199 201 0
206 199 208 0
209 201 202 0
208 201 209 0
210 202 203 0
209 202 210 0
211 203 204 0
210 203 211 0
205 211 204 0
212 211 205 0
206 214 207 0
213 214 206 0
215 206 208 0
213 206 215 0
216 208 209 0
215 208 216 0
217 209 210 0
216 209 217 0
218 210 211 0
217 210 218 0
212 218 211 0
219 218 212 0
213 221 214 0
220 221 213 0
222 213 215 0
220 213 222 0
223 215 216 0
222 215 223 0
224 216 217 0
223 216 224 0
225 217 218 0
224 217 225 0
219 225 218 0
226 225 219 0
220 228 221 0
227 228 220 0
229 220 222 0
227 220 229 0
230 222 223 0
229 222 230 0
231 223 224 0
230 223 231 0
232 224 225 0
231 224 232 0
226 232 225 0
233 232 226 0
227 235 228 0
234 235 227 0
236 227 229 0
234 227 236 0
237 229 230 0
236 229 237 0
238 230 231 0
237 230 238 0
239 231 232 0
238 231 239 0
233 239 232 0
240 239 233 0
234 242 235 0
241 242 234 0
243 234 236 0
241 234 243 0
244 236 237 0
243 236 244 0
245 237 238 0
244 237 245 0
246 238 239 0
245 238 246 0
240 246 239 0
247 246 240 0
71 248 242 0
72 71 242 0
241 72 242 0
241 243 72 0
72 243 74 0
243 244 74 0
74 244 76 0
244 245 76 0
76 245 78 0
245 246 78 0
78 246 80 0
247 249 81 0
246 247 81 0
80 246 81 0
71 250 248 0
83 250 71 0
88 249 251 0
81 249 88 0
83 252 250 0
90 252 83 0
95 251 253 0
88 251 95 0
90 254 252 0
97 254 90 0
102 253 255 0
95 253 102 0
105 104 256 0
257 254 97 0
257 97 105 0
257 105 256 0
258 110 111 0
102 255 259 0
111 102 259 0
258 111 259 0
104 113 260 0
256 104 260 0
261 256 260 0
261 257 256 0
262 118 110 0
262 110 258 0
262 258 263 0
258 259 263 0
113 264 260 0
120 264 113 0
125 262 265 0
118 262 125 0
120 266 264 0
127 266 120 0
132 265 267 0
125 265 132 0
127 268 266 0
134 268 127 0
270 269 271 0
139 132 267 0
269 139 267 0
271 269 267 0
134 272 268 0
141 272 134 0
270 274 269 0
269 274 273 0
269 146 139 0
273 146 269 0
141 275 272 0
147 275 141 0
277 276 278 0
276 279 278 0
278 279 280 0
279 281 280 0
280 281 282 0
281 283 273 0
281 273 274 0
281 274 282 0
273 148 146 0
283 148 273 0
147 284 275 0
149 284 147 0
277 286 276 0
276 286 285 0
285 279 276 0
287 279 285 0
287 281 279 0
288 281 287 0
288 283 281 0
289 283 288 0
283 150 148 0
289 150 283 0
149 290 284 0
151 290 149 0
286 292 285 0
285 292 291 0
291 287 285 0
293 287 291 0
293 288 287 0
294 288 293 0
294 289 288 0
295 289 294 0
289 152 150 0
295 152 289 0
290 151 153 0
297 290 153 0
296 297 153 0
296 298 291 0
296 291 292 0
296 292 297 0
298 293 291 0
299 293 298 0
299 294 293 0
300 294 299 0
300 295 294 0
301 295 300 0
295 154 152 0
301 154 295 0
302 153 155 0
296 153 302 0
302 298 296 0
303 298 302 0
303 299 298 0
304 299 303 0
304 300 299 0
305 300 304 0
305 301 300 0
306 301 305 0
301 156 154 0
306 156 301 0
307 155 157 0
302 155 307 0
307 303 302 0
308 303 307 0
308 304 303 0
309 304 308 0
309 305 304 0
310 305 309 0
310 306 305 0
311 306 310 0
306 158 156 0
311 158 306 0
312 157 159 0
307 157 312 0
312 308 307 0
313 308 312 0
313 309 308 0
314 309 313 0
314 310 309 0
315 310 314 0
315 311 310 0
316 311 315 0
311 160 158 0
316 160 311 0
312 159 161 0
161 313 312 0
163 313 161 0
163 314 313 0
165 314 163 0
165 315 314 0
167 315 165 0
167 316 315 0
169 316 167 0
169 160 316 0
319 317 318 0
319 320 317 0
321 320 319 0
321 322 320 0
323 322 321 0
323 324 322 0
325 324 323 0
326 324 325 0
328 174 327 0
175 174 328 0
177 175 328 0
177 328 318 0
177 318 317 0
317 320 177 0
177 320 179 0
320 322 179 0
179 322 181 0
322 324 181 0
181 324 183 0
326 329 184 0
324 326 184 0
183 324 184 0
174 330 327 0
186 330 174 0
191 329 331 0
184 329 191 0
186 332 330 0
193 332 186 0
198 331 333 0
191 331 198 0
193 334 332 0
200 334 193 0
205 333 335 0
198 333 205 0
200 336 334 0
207 336 200 0
212 335 337 0
205 335 212 0
