#!ascii version of 
1022 2040
3.500000  27.000000  35.000000  0
-1.500000  27.000000  35.000000  0
3.500000  27.000000  34.000000  0
-1.500000  27.000000  34.000000  0
3.500000  27.000000  33.000000  0
-1.500000  27.000000  33.000000  0
3.500000  27.000000  32.000000  0
-1.500000  27.000000  32.000000  0
3.500000  27.000000  31.000000  0
-1.500000  27.000000  31.000000  0
3.500000  27.000000  30.000000  0
-1.500000  27.000000  30.000000  0
3.500000  27.000000  29.000000  0
-1.500000  27.000000  29.000000  0
3.500000  27.000000  28.000000  0
-1.500000  27.000000  28.000000  0
3.000000  27.000000  27.500000  0
2.000000  27.000000  27.500000  0
1.500000  27.000000  27.000000  0
-1.500000  27.000000  27.000000  0
1.000000  26.500000  26.000000  0
1.000000  27.000000  26.500000  0
0.000000  26.500000  26.000000  0
0.000000  27.000000  26.500000  0
-1.000000  27.000000  26.500000  0
1.500000  28.000000  49.000000  0
1.000000  28.000000  49.500000  0
0.000000  28.000000  49.500000  0
-1.000000  27.500000  49.000000  0
-0.500000  28.000000  49.000000  0
2.500000  28.000000  48.000000  0
2.000000  28.000000  48.500000  0
-1.000000  28.000000  48.500000  0
-2.000000  27.500000  48.000000  0
-1.500000  28.000000  48.000000  0
2.500000  28.000000  47.000000  0
-2.000000  27.500000  47.000000  0
-1.500000  28.000000  47.000000  0
2.500000  28.000000  46.000000  0
-2.000000  28.000000  46.500000  0
-2.500000  28.000000  46.000000  0
2.500000  28.000000  45.000000  0
-2.500000  28.000000  45.000000  0
2.500000  28.000000  44.000000  0
-2.500000  28.000000  44.000000  0
2.500000  28.000000  43.000000  0
-2.500000  28.000000  43.000000  0
2.500000  28.000000  42.000000  0
-2.500000  28.000000  42.000000  0
2.500000  28.000000  41.000000  0
-2.500000  28.000000  41.000000  0
2.500000  28.000000  40.000000  0
-2.500000  28.000000  40.000000  0
3.000000  27.500000  39.000000  0
2.500000  28.000000  39.000000  0
-2.000000  27.500000  39.000000  0
-2.500000  28.000000  39.000000  0
3.000000  27.500000  38.000000  0
2.500000  28.000000  38.000000  0
-2.000000  27.500000  38.000000  0
-2.500000  28.000000  38.000000  0
3.500000  28.000000  37.000000  0
3.000000  28.000000  37.500000  0
-1.500000  28.000000  37.000000  0
-2.000000  28.000000  37.500000  0
3.500000  28.000000  36.000000  0
-1.500000  28.000000  36.000000  0
3.500000  28.000000  35.000000  0
-1.500000  28.000000  35.000000  0
3.500000  28.000000  34.000000  0
-1.500000  28.000000  34.000000  0
3.500000  28.000000  33.000000  0
-1.500000  28.000000  33.000000  0
3.500000  28.000000  32.000000  0
-1.500000  28.000000  32.000000  0
3.500000  28.000000  31.000000  0
-1.500000  28.000000  31.000000  0
3.500000  28.000000  30.000000  0
-1.500000  28.000000  30.000000  0
3.500000  28.000000  29.000000  0
-1.500000  28.000000  29.000000  0
3.500000  28.000000  28.000000  0
-1.500000  28.000000  28.000000  0
3.000000  27.500000  27.000000  0
3.500000  28.000000  27.000000  0
2.000000  27.500000  27.000000  0
-1.500000  28.000000  27.000000  0
3.000000  28.000000  26.500000  0
2.000000  28.000000  26.500000  0
1.000000  28.000000  26.500000  0
0.000000  28.000000  26.500000  0
-1.000000  28.000000  26.500000  0
1.000000  28.500000  49.000000  0
0.000000  28.500000  49.000000  0
2.000000  28.500000  48.000000  0
1.000000  28.500000  48.000000  0
0.000000  28.500000  48.000000  0
-1.000000  28.500000  48.000000  0
2.000000  28.500000  47.000000  0
1.000000  28.500000  47.000000  0
0.000000  28.500000  47.000000  0
-0.500000  29.000000  47.000000  0
-1.000000  29.000000  47.500000  0
-1.500000  29.000000  47.000000  0
2.500000  29.000000  46.000000  0
2.000000  29.000000  46.500000  0
1.000000  29.000000  46.500000  0
0.000000  29.000000  46.500000  0
-2.000000  29.000000  46.500000  0
-2.500000  29.000000  46.000000  0
2.500000  29.000000  45.000000  0
-2.500000  29.000000  45.000000  0
2.500000  29.000000  44.000000  0
-2.500000  29.000000  44.000000  0
2.500000  29.000000  43.000000  0
-2.500000  29.000000  43.000000  0
2.500000  29.000000  42.000000  0
-2.500000  29.000000  42.000000  0
2.500000  29.000000  41.000000  0
-2.500000  29.000000  41.000000  0
2.500000  29.000000  40.000000  0
-2.500000  29.000000  40.000000  0
2.500000  29.000000  39.000000  0
-2.500000  29.000000  39.000000  0
2.500000  29.000000  38.000000  0
-2.500000  29.000000  38.000000  0
3.000000  28.500000  37.000000  0
2.500000  29.000000  37.000000  0
-2.000000  28.500000  37.000000  0
-2.500000  29.000000  37.000000  0
3.500000  29.000000  36.000000  0
3.000000  29.000000  36.500000  0
-1.500000  29.000000  36.000000  0
-2.000000  29.000000  36.500000  0
3.500000  29.000000  35.000000  0
-1.500000  29.000000  35.000000  0
3.500000  29.000000  34.000000  0
-1.500000  29.000000  34.000000  0
3.500000  29.000000  33.000000  0
-1.500000  29.000000  33.000000  0
3.500000  29.000000  32.000000  0
-1.500000  29.000000  32.000000  0
3.500000  29.000000  31.000000  0
-1.500000  29.000000  31.000000  0
3.500000  29.000000  30.000000  0
-1.500000  29.000000  30.000000  0
3.500000  29.000000  29.000000  0
-1.500000  29.000000  29.000000  0
3.500000  29.000000  28.000000  0
-1.500000  29.000000  28.000000  0
3.500000  29.000000  27.000000  0
2.000000  28.500000  27.000000  0
2.500000  29.000000  27.000000  0
2.000000  29.000000  27.500000  0
1.000000  28.500000  27.000000  0
1.000000  29.000000  27.500000  0
0.000000  28.500000  27.000000  0
0.000000  29.000000  27.500000  0
-1.000000  28.500000  27.000000  0
-1.000000  29.000000  27.500000  0
3.000000  29.000000  26.500000  0
-1.000000  29.500000  47.000000  0
2.500000  30.000000  46.000000  0
2.000000  30.000000  46.500000  0
1.000000  30.000000  46.500000  0
0.000000  30.000000  46.500000  0
-1.000000  30.000000  46.500000  0
-2.000000  30.000000  46.500000  0
-2.500000  30.000000  46.000000  0
2.500000  30.000000  45.000000  0
-2.500000  30.000000  45.000000  0
2.500000  30.000000  44.000000  0
-2.500000  30.000000  44.000000  0
2.500000  30.000000  43.000000  0
-2.500000  30.000000  43.000000  0
2.500000  30.000000  42.000000  0
-2.500000  30.000000  42.000000  0
2.500000  30.000000  41.000000  0
-2.500000  30.000000  41.000000  0
2.500000  30.000000  40.000000  0
-2.500000  30.000000  40.000000  0
2.500000  30.000000  39.000000  0
-2.500000  30.000000  39.000000  0
2.500000  30.000000  38.000000  0
-2.500000  30.000000  38.000000  0
2.500000  30.000000  37.000000  0
-2.500000  30.000000  37.000000  0
3.000000  29.500000  36.000000  0
2.500000  30.000000  36.000000  0
-2.000000  29.500000  36.000000  0
-2.500000  30.000000  36.000000  0
3.000000  29.500000  35.000000  0
2.500000  30.000000  35.000000  0
-2.000000  29.500000  35.000000  0
-2.500000  30.000000  35.000000  0
3.500000  30.000000  34.000000  0
3.000000  30.000000  34.500000  0
-1.500000  30.000000  34.000000  0
-2.000000  30.000000  34.500000  0
3.500000  30.000000  33.000000  0
-1.500000  30.000000  33.000000  0
3.500000  30.000000  32.000000  0
-1.500000  30.000000  32.000000  0
3.500000  30.000000  31.000000  0
-1.500000  30.000000  31.000000  0
3.500000  30.000000  30.000000  0
-1.500000  30.000000  30.000000  0
3.500000  30.000000  29.000000  0
-1.500000  30.000000  29.000000  0
3.500000  30.000000  28.000000  0
-1.500000  30.000000  28.000000  0
3.500000  30.000000  27.000000  0
2.500000  30.000000  27.000000  0
2.000000  30.000000  27.500000  0
1.000000  30.000000  27.500000  0
0.000000  30.000000  27.500000  0
-1.000000  30.000000  27.500000  0
3.000000  30.000000  26.500000  0
2.500000  31.000000  46.000000  0
2.000000  31.000000  46.500000  0
1.000000  31.000000  46.500000  0
0.000000  31.000000  46.500000  0
-1.000000  30.500000  46.000000  0
-0.500000  31.000000  46.000000  0
-2.000000  30.500000  46.000000  0
2.500000  31.000000  45.000000  0
-1.000000  31.000000  45.500000  0
-2.000000  31.000000  45.500000  0
-2.500000  31.000000  45.000000  0
2.500000  31.000000  44.000000  0
-2.500000  31.000000  44.000000  0
2.500000  31.000000  43.000000  0
-2.500000  31.000000  43.000000  0
2.500000  31.000000  42.000000  0
-2.500000  31.000000  42.000000  0
2.500000  31.000000  41.000000  0
-2.500000  31.000000  41.000000  0
2.500000  31.000000  40.000000  0
-2.500000  31.000000  40.000000  0
2.500000  31.000000  39.000000  0
-2.500000  31.000000  39.000000  0
2.500000  31.000000  38.000000  0
-2.500000  31.000000  38.000000  0
2.500000  31.000000  37.000000  0
-2.500000  31.000000  37.000000  0
2.500000  31.000000  36.000000  0
-2.500000  31.000000  36.000000  0
2.500000  31.000000  35.000000  0
-2.500000  31.000000  35.000000  0
3.000000  30.500000  34.000000  0
2.500000  31.000000  34.000000  0
-2.000000  30.500000  34.000000  0
-2.500000  31.000000  34.000000  0
3.500000  31.000000  33.000000  0
3.000000  31.000000  33.500000  0
-1.500000  31.000000  33.000000  0
-2.000000  31.000000  33.500000  0
3.500000  31.000000  32.000000  0
-1.500000  31.000000  32.000000  0
3.500000  31.000000  31.000000  0
-1.500000  31.000000  31.000000  0
3.500000  31.000000  30.000000  0
-1.500000  31.000000  30.000000  0
3.500000  31.000000  29.000000  0
-1.500000  31.000000  29.000000  0
3.500000  31.000000  28.000000  0
-1.500000  31.000000  28.000000  0
3.000000  30.500000  27.000000  0
3.000000  31.000000  27.500000  0
2.000000  31.000000  27.500000  0
1.000000  31.000000  27.500000  0
0.000000  31.000000  27.500000  0
-1.000000  31.000000  27.500000  0
2.500000  32.000000  46.000000  0
2.000000  32.000000  46.500000  0
1.000000  32.000000  46.500000  0
0.000000  31.500000  46.000000  0
0.500000  32.000000  46.000000  0
2.500000  32.000000  45.000000  0
0.000000  32.000000  45.500000  0
-1.000000  31.500000  45.000000  0
-0.500000  32.000000  45.000000  0
-2.000000  31.500000  45.000000  0
2.500000  32.000000  44.000000  0
-1.000000  32.000000  44.500000  0
-2.000000  32.000000  44.500000  0
-2.500000  32.000000  44.000000  0
2.500000  32.000000  43.000000  0
-2.500000  32.000000  43.000000  0
2.500000  32.000000  42.000000  0
-2.500000  32.000000  42.000000  0
2.500000  32.000000  41.000000  0
-2.500000  32.000000  41.000000  0
2.500000  32.000000  40.000000  0
-2.500000  32.000000  40.000000  0
2.500000  32.000000  39.000000  0
-2.500000  32.000000  39.000000  0
2.500000  32.000000  38.000000  0
-2.500000  32.000000  38.000000  0
2.500000  32.000000  37.000000  0
-2.500000  32.000000  37.000000  0
2.500000  32.000000  36.000000  0
-2.500000  32.000000  36.000000  0
2.500000  32.000000  35.000000  0
-2.500000  32.000000  35.000000  0
2.500000  32.000000  34.000000  0
-2.500000  32.000000  34.000000  0
3.000000  31.500000  33.000000  0
2.500000  32.000000  33.000000  0
-2.000000  31.500000  33.000000  0
-2.500000  32.000000  33.000000  0
3.000000  31.500000  32.000000  0
2.500000  32.000000  32.000000  0
-2.000000  31.500000  32.000000  0
-2.500000  32.000000  32.000000  0
3.500000  32.000000  31.000000  0
3.000000  32.000000  31.500000  0
-1.500000  32.000000  31.000000  0
-2.000000  32.000000  31.500000  0
3.500000  32.000000  30.000000  0
-1.500000  32.000000  30.000000  0
3.500000  32.000000  29.000000  0
-1.500000  32.000000  29.000000  0
3.500000  32.000000  28.000000  0
-1.500000  32.000000  28.000000  0
3.000000  32.000000  27.500000  0
2.000000  32.000000  27.500000  0
1.000000  32.000000  27.500000  0
0.000000  32.000000  27.500000  0
-1.000000  32.000000  27.500000  0
2.000000  32.500000  46.000000  0
1.000000  32.500000  46.000000  0
2.000000  32.500000  45.000000  0
1.000000  32.500000  45.000000  0
0.000000  32.500000  45.000000  0
2.500000  33.000000  44.000000  0
2.000000  33.000000  44.500000  0
1.000000  33.000000  44.500000  0
0.000000  33.000000  44.500000  0
-1.000000  33.000000  44.500000  0
-2.000000  33.000000  44.500000  0
-2.500000  33.000000  44.000000  0
2.500000  33.000000  43.000000  0
-2.500000  33.000000  43.000000  0
2.500000  33.000000  42.000000  0
-2.500000  33.000000  42.000000  0
2.500000  33.000000  41.000000  0
-2.500000  33.000000  41.000000  0
2.500000  33.000000  40.000000  0
-2.500000  33.000000  40.000000  0
2.500000  33.000000  39.000000  0
-2.500000  33.000000  39.000000  0
2.500000  33.000000  38.000000  0
-2.500000  33.000000  38.000000  0
2.500000  33.000000  37.000000  0
-2.500000  33.000000  37.000000  0
2.500000  33.000000  36.000000  0
-2.500000  33.000000  36.000000  0
2.500000  33.000000  35.000000  0
-2.500000  33.000000  35.000000  0
2.500000  33.000000  34.000000  0
-2.500000  33.000000  34.000000  0
2.500000  33.000000  33.000000  0
-2.500000  33.000000  33.000000  0
2.500000  33.000000  32.000000  0
-2.500000  33.000000  32.000000  0
3.000000  32.500000  31.000000  0
2.500000  33.000000  31.000000  0
-2.000000  32.500000  31.000000  0
-2.500000  33.000000  31.000000  0
3.500000  33.000000  30.000000  0
3.000000  33.000000  30.500000  0
-1.500000  33.000000  30.000000  0
-2.000000  33.000000  30.500000  0
3.500000  33.000000  29.000000  0
-1.500000  33.000000  29.000000  0
3.500000  33.000000  28.000000  0
-1.500000  33.000000  28.000000  0
3.000000  33.000000  27.500000  0
2.000000  33.000000  27.500000  0
1.000000  33.000000  27.500000  0
0.000000  33.000000  27.500000  0
-1.000000  33.000000  27.500000  0
2.500000  34.000000  44.000000  0
2.000000  34.000000  44.500000  0
1.000000  34.000000  44.500000  0
0.000000  34.000000  44.500000  0
-1.000000  33.500000  44.000000  0
-0.500000  34.000000  44.000000  0
-2.000000  33.500000  44.000000  0
2.500000  34.000000  43.000000  0
-1.000000  34.000000  43.500000  0
-2.000000  34.000000  43.500000  0
-2.500000  34.000000  43.000000  0
2.500000  34.000000  42.000000  0
-2.500000  34.000000  42.000000  0
2.500000  34.000000  41.000000  0
-2.500000  34.000000  41.000000  0
2.500000  34.000000  40.000000  0
-2.500000  34.000000  40.000000  0
2.500000  34.000000  39.000000  0
-2.500000  34.000000  39.000000  0
2.500000  34.000000  38.000000  0
-2.500000  34.000000  38.000000  0
2.500000  34.000000  37.000000  0
-2.500000  34.000000  37.000000  0
2.500000  34.000000  36.000000  0
-2.500000  34.000000  36.000000  0
2.500000  34.000000  35.000000  0
-2.500000  34.000000  35.000000  0
2.500000  34.000000  34.000000  0
-2.500000  34.000000  34.000000  0
2.500000  34.000000  33.000000  0
-2.500000  34.000000  33.000000  0
2.500000  34.000000  32.000000  0
-2.500000  34.000000  32.000000  0
2.500000  34.000000  31.000000  0
-2.500000  34.000000  31.000000  0
3.000000  33.500000  30.000000  0
2.500000  34.000000  30.000000  0
-2.000000  33.500000  30.000000  0
-2.500000  34.000000  30.000000  0
3.000000  33.500000  29.000000  0
2.500000  34.000000  29.000000  0
-2.000000  33.500000  29.000000  0
-2.500000  34.000000  29.000000  0
3.500000  34.000000  28.000000  0
3.000000  34.000000  28.500000  0
-1.500000  34.000000  28.000000  0
-2.000000  34.000000  28.500000  0
3.000000  34.000000  27.500000  0
2.000000  34.000000  27.500000  0
1.000000  34.000000  27.500000  0
0.000000  34.000000  27.500000  0
-1.000000  34.000000  27.500000  0
2.000000  34.500000  44.000000  0
1.000000  34.500000  44.000000  0
0.000000  34.500000  44.000000  0
2.500000  35.000000  43.000000  0
2.000000  35.000000  43.500000  0
1.000000  35.000000  43.500000  0
0.000000  34.500000  43.000000  0
0.500000  35.000000  43.000000  0
-1.000000  34.500000  43.000000  0
-2.000000  34.500000  43.000000  0
2.500000  35.000000  42.000000  0
0.000000  35.000000  42.500000  0
-1.000000  35.000000  42.500000  0
-2.000000  35.000000  42.500000  0
-2.500000  35.000000  42.000000  0
2.500000  35.000000  41.000000  0
-2.500000  35.000000  41.000000  0
2.500000  35.000000  40.000000  0
-2.500000  35.000000  40.000000  0
2.500000  35.000000  39.000000  0
-2.500000  35.000000  39.000000  0
2.500000  35.000000  38.000000  0
-2.500000  35.000000  38.000000  0
2.500000  35.000000  37.000000  0
-2.500000  35.000000  37.000000  0
2.500000  35.000000  36.000000  0
-2.500000  35.000000  36.000000  0
2.500000  35.000000  35.000000  0
-2.500000  35.000000  35.000000  0
2.500000  35.000000  34.000000  0
-2.500000  35.000000  34.000000  0
2.500000  35.000000  33.000000  0
-2.500000  35.000000  33.000000  0
2.500000  35.000000  32.000000  0
-2.500000  35.000000  32.000000  0
2.500000  35.000000  31.000000  0
-2.500000  35.000000  31.000000  0
2.500000  35.000000  30.000000  0
-2.000000  34.500000  30.000000  0
-1.500000  35.000000  30.000000  0
-2.000000  35.000000  30.500000  0
2.500000  35.000000  29.000000  0
-2.000000  34.500000  29.000000  0
-1.500000  35.000000  29.000000  0
3.000000  34.500000  28.000000  0
2.000000  34.500000  28.000000  0
2.000000  35.000000  28.500000  0
1.000000  34.500000  28.000000  0
1.000000  35.000000  28.500000  0
0.000000  34.500000  28.000000  0
0.000000  35.000000  28.500000  0
-0.500000  35.000000  28.000000  0
-1.500000  35.000000  28.000000  0
-1.000000  35.000000  27.500000  0
2.500000  36.000000  43.000000  0
2.000000  36.000000  43.500000  0
1.000000  36.000000  43.500000  0
0.500000  36.000000  43.000000  0
2.500000  36.000000  42.000000  0
0.000000  36.000000  42.500000  0
-1.000000  35.500000  42.000000  0
-0.500000  36.000000  42.000000  0
-2.000000  35.500000  42.000000  0
2.500000  36.000000  41.000000  0
-1.000000  36.000000  41.500000  0
-2.000000  35.500000  41.000000  0
-1.500000  36.000000  41.000000  0
2.500000  36.000000  40.000000  0
-2.000000  36.000000  40.500000  0
-2.500000  36.000000  40.000000  0
2.500000  36.000000  39.000000  0
-2.500000  36.000000  39.000000  0
2.500000  36.000000  38.000000  0
-2.500000  36.000000  38.000000  0
2.500000  36.000000  37.000000  0
-2.500000  36.000000  37.000000  0
2.500000  36.000000  36.000000  0
-2.500000  36.000000  36.000000  0
2.500000  36.000000  35.000000  0
-2.500000  36.000000  35.000000  0
2.500000  36.000000  34.000000  0
-2.500000  36.000000  34.000000  0
2.500000  36.000000  33.000000  0
-2.500000  36.000000  33.000000  0
2.500000  36.000000  32.000000  0
-2.500000  36.000000  32.000000  0
2.500000  36.000000  31.000000  0
-2.500000  36.000000  31.000000  0
2.500000  36.000000  30.000000  0
-1.500000  36.000000  30.000000  0
-2.000000  36.000000  30.500000  0
2.500000  36.000000  29.000000  0
-1.500000  36.000000  29.000000  0
2.000000  36.000000  28.500000  0
1.000000  36.000000  28.500000  0
0.000000  36.000000  28.500000  0
-1.000000  35.500000  28.000000  0
-1.000000  36.000000  28.500000  0
2.000000  36.500000  43.000000  0
1.000000  36.500000  43.000000  0
2.500000  37.000000  42.000000  0
2.000000  37.000000  42.500000  0
1.000000  36.500000  42.000000  0
1.500000  37.000000  42.000000  0
0.000000  36.500000  42.000000  0
2.500000  37.000000  41.000000  0
1.000000  37.000000  41.500000  0
0.000000  37.000000  41.500000  0
-1.000000  37.000000  41.500000  0
-1.500000  37.000000  41.000000  0
2.500000  37.000000  40.000000  0
-2.000000  37.000000  40.500000  0
-2.500000  37.000000  40.000000  0
2.500000  37.000000  39.000000  0
-2.500000  37.000000  39.000000  0
2.500000  37.000000  38.000000  0
-2.500000  37.000000  38.000000  0
2.500000  37.000000  37.000000  0
-2.500000  37.000000  37.000000  0
2.500000  37.000000  36.000000  0
-2.500000  37.000000  36.000000  0
2.500000  37.000000  35.000000  0
-2.500000  37.000000  35.000000  0
2.500000  37.000000  34.000000  0
-2.500000  37.000000  34.000000  0
2.500000  37.000000  33.000000  0
-2.500000  37.000000  33.000000  0
2.500000  37.000000  32.000000  0
-2.500000  37.000000  32.000000  0
2.500000  37.000000  31.000000  0
-2.500000  37.000000  31.000000  0
2.000000  36.500000  30.000000  0
2.000000  37.000000  30.500000  0
1.500000  37.000000  30.000000  0
-1.000000  36.500000  30.000000  0
-0.500000  37.000000  30.000000  0
-1.000000  37.000000  30.500000  0
-2.000000  37.000000  30.500000  0
2.000000  36.500000  29.000000  0
1.000000  36.500000  29.000000  0
1.000000  37.000000  29.500000  0
0.000000  36.500000  29.000000  0
0.000000  37.000000  29.500000  0
-1.000000  36.500000  29.000000  0
2.000000  37.500000  42.000000  0
2.500000  38.000000  41.000000  0
2.000000  38.000000  41.500000  0
1.000000  38.000000  41.500000  0
0.000000  38.000000  41.500000  0
-1.000000  38.000000  41.500000  0
-1.500000  38.000000  41.000000  0
2.500000  38.000000  40.000000  0
-2.000000  38.000000  40.500000  0
-2.500000  38.000000  40.000000  0
2.500000  38.000000  39.000000  0
-2.500000  38.000000  39.000000  0
2.500000  38.000000  38.000000  0
-2.500000  38.000000  38.000000  0
2.500000  38.000000  37.000000  0
-2.500000  38.000000  37.000000  0
2.500000  38.000000  36.000000  0
-2.500000  38.000000  36.000000  0
2.500000  38.000000  35.000000  0
-2.500000  38.000000  35.000000  0
2.500000  38.000000  34.000000  0
-2.500000  38.000000  34.000000  0
2.500000  38.000000  33.000000  0
-2.500000  38.000000  33.000000  0
2.500000  38.000000  32.000000  0
-2.000000  37.500000  32.000000  0
-1.500000  38.000000  32.000000  0
-2.000000  38.000000  32.500000  0
2.500000  38.000000  31.000000  0
-2.000000  37.500000  31.000000  0
-1.500000  38.000000  31.000000  0
2.000000  38.000000  30.500000  0
1.500000  38.000000  30.000000  0
0.000000  37.500000  30.000000  0
0.500000  38.000000  30.000000  0
0.000000  38.000000  30.500000  0
-1.000000  38.000000  30.500000  0
1.000000  38.000000  29.500000  0
2.000000  38.500000  41.000000  0
1.000000  38.500000  41.000000  0
0.000000  38.500000  41.000000  0
-1.000000  38.500000  41.000000  0
2.000000  38.500000  40.000000  0
1.000000  38.500000  40.000000  0
0.000000  38.500000  40.000000  0
-1.000000  38.500000  40.000000  0
-2.000000  38.500000  40.000000  0
2.500000  39.000000  39.000000  0
2.000000  39.000000  39.500000  0
1.000000  39.000000  39.500000  0
0.000000  39.000000  39.500000  0
-1.000000  38.500000  39.000000  0
-0.500000  39.000000  39.000000  0
-2.000000  38.500000  39.000000  0
2.500000  39.000000  38.000000  0
-1.000000  39.000000  38.500000  0
-2.000000  38.500000  38.000000  0
-1.500000  39.000000  38.000000  0
2.500000  39.000000  37.000000  0
-2.000000  39.000000  37.500000  0
-2.500000  39.000000  37.000000  0
2.500000  39.000000  36.000000  0
-2.500000  39.000000  36.000000  0
2.500000  39.000000  35.000000  0
-2.500000  39.000000  35.000000  0
2.500000  39.000000  34.000000  0
-2.500000  39.000000  34.000000  0
2.000000  38.500000  33.000000  0
2.000000  39.000000  33.500000  0
1.000000  38.500000  33.000000  0
1.000000  39.000000  33.500000  0
0.000000  38.500000  33.000000  0
0.000000  39.000000  33.500000  0
-1.000000  38.500000  33.000000  0
-1.000000  39.000000  33.500000  0
-2.000000  38.500000  33.000000  0
-2.000000  39.000000  33.500000  0
2.000000  38.500000  32.000000  0
1.000000  38.500000  32.000000  0
0.000000  38.500000  32.000000  0
-1.000000  38.500000  32.000000  0
2.000000  38.500000  31.000000  0
1.000000  38.500000  31.000000  0
0.000000  38.500000  31.000000  0
-1.000000  38.500000  31.000000  0
1.000000  38.500000  30.000000  0
2.000000  39.500000  39.000000  0
1.000000  39.500000  39.000000  0
0.000000  39.500000  39.000000  0
2.000000  39.500000  38.000000  0
1.000000  39.500000  38.000000  0
0.000000  39.500000  38.000000  0
-1.000000  39.500000  38.000000  0
2.000000  39.500000  37.000000  0
1.000000  39.500000  37.000000  0
0.000000  39.500000  37.000000  0
-1.000000  39.500000  37.000000  0
-2.000000  39.500000  37.000000  0
2.000000  39.500000  36.000000  0
1.000000  39.500000  36.000000  0
0.000000  39.500000  36.000000  0
-1.000000  39.500000  36.000000  0
-2.000000  39.500000  36.000000  0
2.000000  39.500000  35.000000  0
1.000000  39.500000  35.000000  0
0.000000  39.500000  35.000000  0
-1.000000  39.500000  35.000000  0
-2.000000  39.500000  35.000000  0
2.000000  39.500000  34.000000  0
1.000000  39.500000  34.000000  0
0.000000  39.500000  34.000000  0
-1.000000  39.500000  34.000000  0
-2.000000  39.500000  34.000000  0
2 0 1 0
2 3 0 0
4 3 2 0
4 5 3 0
6 5 4 0
6 7 5 0
8 7 6 0
9 7 8 0
12 10 11 0
0 13 10 0
1 0 10 0
12 1 10 0
14 0 3 0
13 0 14 0
15 3 5 0
14 3 15 0
16 5 7 0
15 5 16 0
9 16 7 0
17 16 9 0
10 19 11 0
18 19 10 0
20 10 13 0
18 10 20 0
21 13 14 0
20 13 21 0
22 14 15 0
21 14 22 0
23 15 16 0
22 15 23 0
17 23 16 0
24 23 17 0
18 26 19 0
25 26 18 0
27 18 20 0
25 18 27 0
28 20 21 0
27 20 28 0
29 21 22 0
28 21 29 0
30 22 23 0
29 22 30 0
24 30 23 0
31 30 24 0
25 33 26 0
32 33 25 0
34 25 27 0
32 25 34 0
35 27 28 0
34 27 35 0
36 28 29 0
35 28 36 0
37 29 30 0
36 29 37 0
31 37 30 0
38 37 31 0
32 40 33 0
39 40 32 0
41 32 34 0
39 32 41 0
42 34 35 0
41 34 42 0
43 35 36 0
42 35 43 0
44 36 37 0
43 36 44 0
38 44 37 0
45 44 38 0
39 47 40 0
46 47 39 0
48 39 41 0
46 39 48 0
49 41 42 0
48 41 49 0
50 42 43 0
49 42 50 0
51 43 44 0
50 43 51 0
45 51 44 0
52 51 45 0
47 46 53 0
46 54 53 0
48 54 46 0
48 55 54 0
49 55 48 0
49 56 55 0
50 56 49 0
50 51 57 0
56 50 57 0
58 56 57 0
52 57 51 0
59 57 52 0
57 61 58 0
60 61 57 0
59 60 57 0
62 60 59 0
60 64 61 0
63 64 60 0
62 63 60 0
65 63 62 0
64 63 66 0
63 65 66 0
69 67 68 0
69 70 67 0
71 70 69 0
71 72 70 0
73 72 71 0
73 74 72 0
75 74 73 0
75 76 74 0
77 76 75 0
78 76 77 0
67 80 68 0
79 80 67 0
81 67 70 0
79 67 81 0
82 70 72 0
81 70 82 0
83 72 74 0
82 72 83 0
84 74 76 0
83 74 84 0
78 84 76 0
85 84 78 0
88 86 87 0
79 89 86 0
80 79 86 0
88 80 86 0
90 79 81 0
89 79 90 0
91 81 82 0
90 81 91 0
92 82 83 0
91 82 92 0
92 83 84 0
93 92 84 0
94 93 84 0
84 85 94 0
86 96 87 0
95 96 86 0
97 86 89 0
95 86 97 0
98 89 90 0
97 89 98 0
99 90 91 0
98 90 99 0
100 91 92 0
99 91 100 0
93 100 92 0
101 100 93 0
96 95 102 0
95 97 103 0
102 95 103 0
104 102 103 0
105 97 98 0
103 97 105 0
106 98 99 0
105 98 106 0
107 99 100 0
106 99 107 0
101 107 100 0
108 107 101 0
104 103 109 0
103 105 110 0
109 103 110 0
111 109 110 0
112 105 106 0
110 105 112 0
113 106 107 0
112 106 113 0
108 113 107 0
114 113 108 0
110 116 111 0
115 116 110 0
117 110 112 0
115 110 117 0
118 112 113 0
117 112 118 0
114 118 113 0
119 118 114 0
115 121 116 0
120 121 115 0
122 115 117 0
120 115 122 0
123 117 118 0
122 117 123 0
119 123 118 0
124 123 119 0
120 126 121 0
125 126 120 0
127 120 122 0
125 120 127 0
128 122 123 0
127 122 128 0
124 128 123 0
129 128 124 0
132 130 131 0
125 133 130 0
126 125 130 0
132 126 130 0
134 125 127 0
133 125 134 0
135 127 128 0
134 127 135 0
129 135 128 0
136 135 129 0
139 137 138 0
131 137 139 0
131 130 137 0
130 1 137 0
2 1 130 0
130 133 2 0
2 133 4 0
133 134 4 0
4 134 6 0
134 135 6 0
6 135 8 0
136 140 9 0
135 136 9 0
8 135 9 0
11 141 138 0
12 11 138 0
137 12 138 0
137 1 12 0
17 140 142 0
9 140 17 0
11 143 141 0
19 143 11 0
24 142 144 0
17 142 24 0
19 145 143 0
26 145 19 0
31 144 146 0
24 144 31 0
26 147 145 0
33 147 26 0
38 146 148 0
31 146 38 0
33 149 147 0
40 149 33 0
45 148 150 0
38 148 45 0
40 151 149 0
47 151 40 0
52 150 152 0
45 150 52 0
151 53 153 0
47 53 151 0
153 54 154 0
53 54 153 0
154 54 55 0
154 55 155 0
154 155 156 0
157 155 56 0
56 155 55 0
58 157 56 0
59 152 158 0
52 152 59 0
155 160 156 0
159 160 155 0
161 155 157 0
159 155 161 0
58 61 157 0
157 61 161 0
62 158 162 0
59 158 62 0
159 164 160 0
163 164 159 0
165 159 161 0
163 159 165 0
61 64 161 0
161 64 165 0
65 162 166 0
62 162 65 0
164 163 167 0
163 168 167 0
165 168 163 0
66 169 168 0
64 66 168 0
165 64 168 0
65 169 66 0
166 169 65 0
172 170 171 0
172 173 170 0
174 173 172 0
174 175 173 0
176 175 174 0
177 175 176 0
180 178 179 0
170 181 178 0
171 170 178 0
180 171 178 0
182 170 173 0
181 170 182 0
183 173 175 0
182 173 183 0
177 183 175 0
184 183 177 0
178 186 179 0
185 186 178 0
187 178 181 0
185 178 187 0
188 181 182 0
187 181 188 0
189 182 183 0
188 182 189 0
184 189 183 0
190 189 184 0
185 192 186 0
191 192 185 0
193 185 187 0
191 185 193 0
194 187 188 0
193 187 194 0
195 188 189 0
194 188 195 0
196 195 189 0
197 196 189 0
190 197 189 0
198 196 197 0
191 200 192 0
199 200 191 0
201 191 193 0
199 191 201 0
202 193 194 0
201 193 202 0
203 194 195 0
202 194 203 0
204 195 196 0
203 195 204 0
198 204 196 0
205 204 198 0
199 207 200 0
206 207 199 0
208 199 201 0
206 199 208 0
209 201 202 0
208 201 209 0
210 202 203 0
209 202 210 0
211 203 204 0
210 203 211 0
205 211 204 0
212 211 205 0
206 214 207 0
213 214 206 0
215 206 208 0
213 206 215 0
216 208 209 0
215 208 216 0
217 209 210 0
216 209 217 0
218 210 211 0
217 210 218 0
212 218 211 0
219 218 212 0
68 220 214 0
69 68 214 0
213 69 214 0
213 215 69 0
69 215 71 0
215 216 71 0
71 216 73 0
216 217 73 0
73 217 75 0
217 218 75 0
75 218 77 0
219 221 78 0
218 219 78 0
77 218 78 0
68 222 220 0
80 222 68 0
85 221 223 0
78 221 85 0
88 87 224 0
225 222 80 0
225 80 88 0
225 88 224 0
226 93 94 0
85 223 227 0
94 85 227 0
226 94 227 0
228 87 96 0
224 87 228 0
224 228 225 0
225 228 229 0
101 93 230 0
230 93 226 0
227 230 226 0
231 230 227 0
233 234 232 0
96 102 228 0
229 228 102 0
229 102 104 0
234 229 104 0
232 234 104 0
235 108 101 0
235 101 230 0
235 230 236 0
230 231 236 0
233 232 237 0
237 238 239 0
237 232 238 0
232 109 238 0
104 109 232 0
111 238 109 0
114 235 240 0
108 235 114 0
238 242 239 0
241 242 238 0
111 116 238 0
238 116 241 0
119 240 243 0
114 240 119 0
241 245 242 0
244 245 241 0
116 121 241 0
241 121 244 0
124 243 246 0
119 243 124 0
244 248 245 0
247 248 244 0
121 126 244 0
244 126 247 0
129 246 249 0
124 246 129 0
252 250 251 0
248 250 252 0
248 247 250 0
247 131 250 0
132 131 247 0
247 126 132 0
136 249 253 0
129 249 136 0
138 254 251 0
139 138 251 0
250 139 251 0
250 131 139 0
140 253 255 0
136 253 140 0
138 256 254 0
141 256 138 0
142 255 257 0
140 255 142 0
141 258 256 0
143 258 141 0
144 257 259 0
142 257 144 0
143 260 258 0
145 260 143 0
146 259 261 0
144 259 146 0
145 262 260 0
147 262 145 0
148 261 263 0
146 261 148 0
147 264 262 0
149 264 147 0
150 263 265 0
148 263 150 0
149 266 264 0
151 266 149 0
152 265 267 0
150 265 152 0
266 153 268 0
151 153 266 0
268 154 269 0
153 154 268 0
269 154 270 0
270 154 156 0
158 267 271 0
152 267 158 0
156 272 270 0
160 272 156 0
274 273 275 0
162 158 271 0
273 162 271 0
275 273 271 0
272 160 164 0
277 272 164 0
276 277 164 0
276 278 277 0
277 278 279 0
278 280 273 0
278 273 274 0
278 274 279 0
273 166 162 0
280 166 273 0
276 164 167 0
167 278 276 0
168 278 167 0
168 280 278 0
169 280 168 0
169 166 280 0
172 171 281 0
174 281 282 0
172 281 174 0
176 282 283 0
174 282 176 0
176 283 177 0
180 179 284 0
284 285 281 0
180 284 281 0
171 180 281 0
285 282 281 0
286 282 285 0
286 283 282 0
287 283 286 0
283 184 177 0
287 184 283 0
288 179 186 0
284 179 288 0
285 284 288 0
285 288 289 0
285 289 290 0
290 291 285 0
285 291 286 0
291 292 286 0
286 292 287 0
293 190 184 0
292 293 184 0
287 292 184 0
186 192 294 0
288 186 294 0
295 288 294 0
295 289 288 0
296 197 293 0
293 197 190 0
297 197 296 0
198 197 297 0
192 298 294 0
200 298 192 0
205 297 299 0
198 297 205 0
200 300 298 0
207 300 200 0
212 299 301 0
205 299 212 0
207 302 300 0
214 302 207 0
219 301 303 0
212 301 219 0
214 304 302 0
220 304 214 0
221 303 305 0
219 303 221 0
220 306 304 0
222 306 220 0
223 305 307 0
221 305 223 0
222 308 306 0
225 308 222 0
227 307 309 0
223 307 227 0
225 310 308 0
229 310 225 0
231 309 311 0
227 309 231 0
234 233 312 0
313 310 229 0
313 229 234 0
313 234 312 0
314 235 236 0
231 311 315 0
236 231 315 0
314 236 315 0
317 318 316 0
233 237 312 0
313 312 237 0
313 237 239 0
318 313 239 0
316 318 239 0
319 240 235 0
319 235 314 0
319 314 320 0
314 315 320 0
316 322 317 0
321 322 316 0
239 242 316 0
316 242 321 0
243 319 323 0
240 319 243 0
321 325 322 0
324 325 321 0
242 245 321 0
321 245 324 0
246 323 326 0
243 323 246 0
324 328 325 0
327 328 324 0
245 248 324 0
324 248 327 0
249 326 329 0
246 326 249 0
251 330 328 0
252 251 328 0
327 252 328 0
327 248 252 0
253 329 331 0
249 329 253 0
251 332 330 0
254 332 251 0
255 331 333 0
253 331 255 0
254 334 332 0
256 334 254 0
257 333 335 0
255 333 257 0
256 336 334 0
258 336 256 0
259 335 337 0
257 335 259 0
258 338 336 0
260 338 258 0
261 337 339 0
259 337 261 0
260 340 338 0
262 340 260 0
263 339 341 0
261 339 263 0
262 342 340 0
264 342 262 0
265 341 343 0
263 341 265 0
264 344 342 0
266 344 264 0
267 343 345 0
265 343 267 0
344 268 346 0
266 268 344 0
346 269 347 0
268 269 346 0
347 269 348 0
348 269 270 0
271 345 349 0
267 345 271 0
348 270 272 0
351 348 272 0
350 351 272 0
350 352 351 0
351 352 353 0
275 354 353 0
275 353 352 0
275 352 274 0
271 354 275 0
349 354 271 0
350 272 277 0
277 352 350 0
279 352 277 0
279 274 352 0
356 289 355 0
290 289 356 0
357 290 356 0
291 290 357 0
292 291 357 0
358 292 357 0
359 358 357 0
292 358 293 0
361 294 360 0
295 294 361 0
295 361 289 0
289 361 355 0
362 358 359 0
362 293 358 0
362 364 293 0
364 296 293 0
363 296 364 0
296 363 297 0
294 365 360 0
298 365 294 0
364 367 363 0
363 367 366 0
363 299 297 0
366 299 363 0
298 368 365 0
300 368 298 0
369 366 367 0
370 301 299 0
369 370 299 0
366 369 299 0
300 371 368 0
302 371 300 0
303 370 372 0
301 370 303 0
302 373 371 0
304 373 302 0
305 372 374 0
303 372 305 0
304 375 373 0
306 375 304 0
307 374 376 0
305 374 307 0
306 377 375 0
308 377 306 0
309 376 378 0
307 376 309 0
308 379 377 0
310 379 308 0
311 378 380 0
309 378 311 0
310 381 379 0
313 381 310 0
315 380 382 0
311 380 315 0
318 317 383 0
384 381 313 0
384 313 318 0
384 318 383 0
385 319 320 0
315 382 386 0
320 315 386 0
385 320 386 0
387 317 322 0
383 317 387 0
383 387 384 0
384 387 388 0
323 319 389 0
389 319 385 0
386 389 385 0
390 389 386 0
322 325 391 0
387 322 391 0
392 387 391 0
392 388 387 0
393 326 323 0
393 323 389 0
393 389 394 0
389 390 394 0
325 395 391 0
328 395 325 0
329 393 396 0
326 393 329 0
328 397 395 0
330 397 328 0
331 396 398 0
329 396 331 0
330 399 397 0
332 399 330 0
333 398 400 0
331 398 333 0
332 401 399 0
334 401 332 0
335 400 402 0
333 400 335 0
334 403 401 0
336 403 334 0
337 402 404 0
335 402 337 0
336 405 403 0
338 405 336 0
339 404 406 0
337 404 339 0
338 407 405 0
340 407 338 0
341 406 408 0
339 406 341 0
340 409 407 0
342 409 340 0
343 408 410 0
341 408 343 0
342 411 409 0
344 411 342 0
345 410 412 0
343 410 345 0
414 411 344 0
413 414 344 0
346 413 344 0
415 413 347 0
347 413 346 0
348 415 347 0
349 412 416 0
345 412 349 0
414 413 417 0
413 418 417 0
415 418 413 0
351 419 418 0
348 351 418 0
415 348 418 0
419 353 420 0
351 353 419 0
420 354 421 0
353 354 420 0
349 421 354 0
416 421 349 0
356 355 422 0
357 422 423 0
356 422 357 0
357 423 359 0
361 360 424 0
424 425 422 0
361 424 422 0
355 361 422 0
425 423 422 0
426 423 425 0
423 426 427 0
359 423 427 0
362 359 427 0
362 427 364 0
428 360 365 0
424 360 428 0
428 425 424 0
429 425 428 0
429 426 425 0
430 426 429 0
427 426 430 0
427 430 431 0
427 431 432 0
433 367 364 0
432 433 364 0
427 432 364 0
365 368 434 0
428 365 434 0
435 428 434 0
435 436 428 0
428 436 429 0
436 437 429 0
429 437 430 0
437 431 430 0
438 369 433 0
433 369 367 0
439 369 438 0
370 369 439 0
368 440 434 0
371 440 368 0
372 439 441 0
370 439 372 0
371 442 440 0
373 442 371 0
374 441 443 0
372 441 374 0
373 444 442 0
375 444 373 0
376 443 445 0
374 443 376 0
375 446 444 0
377 446 375 0
378 445 447 0
376 445 378 0
377 448 446 0
379 448 377 0
380 447 449 0
378 447 380 0
379 450 448 0
381 450 379 0
382 449 451 0
380 449 382 0
381 452 450 0
384 452 381 0
386 451 453 0
382 451 386 0
384 454 452 0
388 454 384 0
390 453 455 0
386 453 390 0
392 391 456 0
457 454 388 0
457 388 392 0
457 392 456 0
458 393 394 0
390 455 459 0
394 390 459 0
458 394 459 0
391 395 460 0
456 391 460 0
461 456 460 0
461 457 456 0
462 396 393 0
462 393 458 0
462 458 463 0
458 459 463 0
395 464 460 0
397 464 395 0
398 462 465 0
396 462 398 0
397 466 464 0
399 466 397 0
400 465 467 0
398 465 400 0
399 468 466 0
401 468 399 0
402 467 469 0
400 467 402 0
401 470 468 0
403 470 401 0
404 469 471 0
402 469 404 0
403 472 470 0
405 472 403 0
406 471 473 0
404 471 406 0
405 474 472 0
407 474 405 0
408 473 475 0
406 473 408 0
407 476 474 0
409 476 407 0
410 475 477 0
408 475 410 0
409 478 476 0
411 478 409 0
412 477 479 0
410 477 412 0
411 480 478 0
414 480 411 0
482 481 483 0
481 484 483 0
483 484 485 0
484 486 485 0
485 486 487 0
486 488 487 0
487 488 489 0
416 412 479 0
488 416 479 0
489 488 479 0
480 417 490 0
414 417 480 0
490 417 418 0
482 490 418 0
481 482 418 0
418 484 481 0
419 484 418 0
419 486 484 0
420 486 419 0
420 488 486 0
421 488 420 0
421 416 488 0
432 431 491 0
432 491 433 0
493 434 492 0
435 434 493 0
494 435 493 0
436 435 494 0
495 436 494 0
437 436 495 0
437 495 496 0
437 496 491 0
437 491 431 0
496 497 438 0
496 438 433 0
496 433 491 0
498 438 497 0
439 438 498 0
434 499 492 0
440 499 434 0
441 498 500 0
439 498 441 0
440 501 499 0
442 501 440 0
443 500 502 0
441 500 443 0
442 503 501 0
444 503 442 0
445 502 504 0
443 502 445 0
444 505 503 0
446 505 444 0
447 504 506 0
445 504 447 0
446 507 505 0
448 507 446 0
449 506 508 0
447 506 449 0
448 509 507 0
450 509 448 0
451 508 510 0
449 508 451 0
450 511 509 0
452 511 450 0
453 510 512 0
451 510 453 0
452 513 511 0
454 513 452 0
455 512 514 0
453 512 455 0
454 515 513 0
457 515 454 0
459 514 516 0
455 514 459 0
461 460 517 0
518 515 457 0
518 457 461 0
518 461 517 0
519 462 463 0
459 516 520 0
463 459 520 0
519 463 520 0
521 460 464 0
517 460 521 0
517 521 518 0
518 521 522 0
465 462 523 0
523 462 519 0
520 523 519 0
524 523 520 0
464 466 525 0
521 464 525 0
526 521 525 0
526 522 521 0
527 467 465 0
527 465 523 0
527 523 528 0
523 524 528 0
466 529 525 0
468 529 466 0
469 527 530 0
467 527 469 0
468 531 529 0
470 531 468 0
471 530 532 0
469 530 471 0
470 533 531 0
472 533 470 0
473 532 534 0
471 532 473 0
472 535 533 0
474 535 472 0
475 534 536 0
473 534 475 0
474 537 535 0
476 537 474 0
477 536 538 0
475 536 477 0
476 539 537 0
478 539 476 0
479 538 540 0
477 538 479 0
478 541 539 0
480 541 478 0
542 482 543 0
543 482 483 0
543 485 544 0
483 485 543 0
544 487 545 0
485 487 544 0
545 489 546 0
487 489 545 0
479 546 489 0
540 546 479 0
541 490 547 0
480 490 541 0
482 547 490 0
542 547 482 0
549 492 548 0
493 492 549 0
550 493 549 0
494 493 550 0
551 494 550 0
495 494 551 0
496 495 551 0
552 496 551 0
553 552 551 0
497 552 554 0
496 552 497 0
497 554 498 0
492 555 548 0
499 555 492 0
556 552 553 0
556 557 552 0
552 557 554 0
558 500 498 0
557 558 498 0
554 557 498 0
499 559 555 0
501 559 499 0
502 558 560 0
500 558 502 0
501 561 559 0
503 561 501 0
504 560 562 0
502 560 504 0
503 563 561 0
505 563 503 0
506 562 564 0
504 562 506 0
505 565 563 0
507 565 505 0
508 564 566 0
506 564 508 0
507 567 565 0
509 567 507 0
510 566 568 0
508 566 510 0
509 569 567 0
511 569 509 0
512 568 570 0
510 568 512 0
511 571 569 0
513 571 511 0
514 570 572 0
512 570 514 0
513 573 571 0
515 573 513 0
516 572 574 0
514 572 516 0
515 575 573 0
518 575 515 0
520 574 576 0
516 574 520 0
518 577 575 0
522 577 518 0
524 576 578 0
520 576 524 0
526 525 579 0
580 577 522 0
580 522 526 0
580 526 579 0
581 527 528 0
524 578 582 0
528 524 582 0
581 528 582 0
525 529 583 0
579 525 583 0
584 579 583 0
584 580 579 0
585 530 527 0
585 527 581 0
585 581 586 0
581 582 586 0
529 587 583 0
531 587 529 0
532 585 588 0
530 585 532 0
531 589 587 0
533 589 531 0
534 588 590 0
532 588 534 0
533 591 589 0
535 591 533 0
536 590 592 0
534 590 536 0
535 593 591 0
537 593 535 0
538 592 594 0
536 592 538 0
537 595 593 0
539 595 537 0
540 594 596 0
538 594 540 0
595 539 541 0
598 595 541 0
597 598 541 0
543 599 598 0
543 598 597 0
543 597 542 0
599 544 600 0
543 544 599 0
600 545 601 0
544 545 600 0
601 546 602 0
545 546 601 0
540 602 546 0
596 602 540 0
597 541 547 0
547 542 597 0
604 548 603 0
549 548 604 0
605 549 604 0
550 549 605 0
551 550 605 0
606 551 605 0
607 606 605 0
551 606 553 0
548 608 603 0
555 608 548 0
609 606 607 0
609 553 606 0
609 611 553 0
611 556 553 0
610 556 611 0
557 610 612 0
556 610 557 0
557 612 558 0
555 613 608 0
559 613 555 0
614 610 611 0
614 615 610 0
610 615 612 0
616 560 558 0
615 616 558 0
612 615 558 0
559 617 613 0
561 617 559 0
562 616 618 0
560 616 562 0
561 619 617 0
563 619 561 0
564 618 620 0
562 618 564 0
563 621 619 0
565 621 563 0
566 620 622 0
564 620 566 0
565 623 621 0
567 623 565 0
568 622 624 0
566 622 568 0
567 625 623 0
569 625 567 0
570 624 626 0
568 624 570 0
569 627 625 0
571 627 569 0
572 626 628 0
570 626 572 0
571 629 627 0
573 629 571 0
574 628 630 0
572 628 574 0
573 631 629 0
575 631 573 0
576 630 632 0
574 630 576 0
575 633 631 0
577 633 575 0
578 632 634 0
576 632 578 0
577 635 633 0
580 635 577 0
582 634 636 0
578 634 582 0
584 583 637 0
638 635 580 0
638 580 584 0
638 584 637 0
639 585 586 0
582 636 640 0
586 582 640 0
639 586 640 0
641 583 587 0
637 583 641 0
637 641 638 0
638 641 642 0
588 585 643 0
643 585 639 0
640 643 639 0
644 643 640 0
587 589 645 0
641 587 645 0
646 641 645 0
646 642 641 0
647 590 588 0
647 588 643 0
647 643 648 0
643 644 648 0
589 649 645 0
591 649 589 0
592 647 650 0
590 647 592 0
591 651 649 0
593 651 591 0
594 650 652 0
592 650 594 0
593 653 651 0
595 653 593 0
596 652 654 0
594 652 596 0
653 598 655 0
595 598 653 0
655 599 656 0
598 599 655 0
656 600 657 0
599 600 656 0
657 601 658 0
600 601 657 0
658 602 659 0
601 602 658 0
596 659 602 0
654 659 596 0
604 603 660 0
605 660 661 0
604 660 605 0
605 661 607 0
662 603 608 0
660 603 662 0
662 661 660 0
663 661 662 0
661 663 664 0
607 661 664 0
609 607 664 0
609 664 611 0
608 613 665 0
662 608 665 0
666 662 665 0
666 667 662 0
662 667 663 0
667 668 663 0
663 668 664 0
668 669 614 0
668 614 611 0
668 611 664 0
670 614 669 0
615 614 670 0
671 615 670 0
616 615 671 0
613 672 665 0
617 672 613 0
618 671 673 0
616 671 618 0
617 674 672 0
619 674 617 0
620 673 675 0
618 673 620 0
619 676 674 0
621 676 619 0
622 675 677 0
620 675 622 0
621 678 676 0
623 678 621 0
624 677 679 0
622 677 624 0
623 680 678 0
625 680 623 0
626 679 681 0
624 679 626 0
625 682 680 0
627 682 625 0
628 681 683 0
626 681 628 0
627 684 682 0
629 684 627 0
630 683 685 0
628 683 630 0
629 686 684 0
631 686 629 0
632 685 687 0
630 685 632 0
631 688 686 0
633 688 631 0
634 687 689 0
632 687 634 0
633 690 688 0
635 690 633 0
636 689 691 0
634 689 636 0
635 692 690 0
638 692 635 0
640 691 693 0
636 691 640 0
638 694 692 0
642 694 638 0
644 693 695 0
640 693 644 0
646 645 696 0
697 694 642 0
697 642 646 0
697 646 696 0
698 647 648 0
644 695 699 0
648 644 699 0
698 648 699 0
645 649 700 0
696 645 700 0
701 696 700 0
701 697 696 0
702 650 647 0
702 647 698 0
702 698 703 0
698 699 703 0
649 704 700 0
651 704 649 0
652 702 705 0
650 702 652 0
651 706 704 0
653 706 651 0
654 705 707 0
652 705 654 0
706 655 708 0
653 655 706 0
708 656 709 0
655 656 708 0
709 657 710 0
656 657 709 0
710 658 711 0
657 658 710 0
711 659 712 0
658 659 711 0
654 712 659 0
707 712 654 0
714 665 713 0
666 665 714 0
715 666 714 0
667 666 715 0
716 667 715 0
668 667 716 0
669 668 716 0
717 669 716 0
718 717 716 0
670 717 719 0
669 717 670 0
670 719 671 0
665 720 713 0
672 720 665 0
721 717 718 0
721 722 717 0
717 722 719 0
723 673 671 0
722 723 671 0
719 722 671 0
672 724 720 0
674 724 672 0
675 723 725 0
673 723 675 0
674 726 724 0
676 726 674 0
677 725 727 0
675 725 677 0
676 728 726 0
678 728 676 0
679 727 729 0
677 727 679 0
678 730 728 0
680 730 678 0
681 729 731 0
679 729 681 0
680 732 730 0
682 732 680 0
683 731 733 0
681 731 683 0
682 734 732 0
684 734 682 0
685 733 735 0
683 733 685 0
684 736 734 0
686 736 684 0
687 735 737 0
685 735 687 0
686 738 736 0
688 738 686 0
689 737 739 0
687 737 689 0
688 740 738 0
690 740 688 0
691 739 741 0
689 739 691 0
690 742 740 0
692 742 690 0
693 741 743 0
691 741 693 0
692 744 742 0
694 744 692 0
695 743 745 0
693 743 695 0
694 746 744 0
697 746 694 0
699 745 747 0
695 745 699 0
701 700 748 0
749 746 697 0
749 697 701 0
749 701 748 0
750 702 703 0
699 747 751 0
703 699 751 0
750 703 751 0
752 700 704 0
748 700 752 0
748 752 749 0
749 752 753 0
705 702 754 0
754 702 750 0
751 754 750 0
755 754 751 0
704 706 756 0
752 704 756 0
757 752 756 0
757 753 752 0
758 707 705 0
758 705 754 0
758 754 759 0
754 755 759 0
756 708 760 0
706 708 756 0
760 709 761 0
708 709 760 0
761 710 762 0
709 710 761 0
762 711 763 0
710 711 762 0
763 712 764 0
711 712 763 0
707 764 712 0
758 764 707 0
714 713 765 0
715 765 766 0
714 765 715 0
716 766 767 0
715 766 716 0
716 767 718 0
713 720 768 0
765 713 768 0
769 765 768 0
769 770 765 0
765 770 766 0
771 767 766 0
771 766 770 0
771 770 772 0
767 771 773 0
718 767 773 0
721 718 773 0
722 773 774 0
721 773 722 0
722 774 723 0
720 775 768 0
724 775 720 0
776 771 772 0
776 777 771 0
771 777 773 0
777 778 773 0
773 778 774 0
779 725 723 0
778 779 723 0
774 778 723 0
724 780 775 0
726 780 724 0
727 779 781 0
725 779 727 0
726 782 780 0
728 782 726 0
729 781 783 0
727 781 729 0
728 784 782 0
730 784 728 0
731 783 785 0
729 783 731 0
730 786 784 0
732 786 730 0
733 785 787 0
731 785 733 0
732 788 786 0
734 788 732 0
735 787 789 0
733 787 735 0
734 790 788 0
736 790 734 0
737 789 791 0
735 789 737 0
736 792 790 0
738 792 736 0
739 791 793 0
737 791 739 0
738 794 792 0
740 794 738 0
741 793 795 0
739 793 741 0
740 796 794 0
742 796 740 0
743 795 797 0
741 795 743 0
742 798 796 0
744 798 742 0
745 797 799 0
743 797 745 0
744 800 798 0
746 800 744 0
747 799 801 0
745 799 747 0
746 802 800 0
749 802 746 0
804 803 805 0
751 747 801 0
803 751 801 0
805 803 801 0
749 806 802 0
753 806 749 0
804 808 803 0
803 808 807 0
803 755 751 0
807 755 803 0
757 756 809 0
753 811 806 0
753 810 811 0
757 810 753 0
809 810 757 0
810 812 811 0
811 812 813 0
812 814 813 0
813 814 815 0
815 814 816 0
808 817 758 0
808 758 759 0
808 759 807 0
759 755 807 0
809 756 760 0
760 810 809 0
761 810 760 0
761 812 810 0
762 812 761 0
762 814 812 0
763 814 762 0
763 764 818 0
814 763 818 0
816 814 818 0
758 818 764 0
817 818 758 0
820 768 819 0
769 768 820 0
821 769 820 0
770 769 821 0
822 770 821 0
772 770 822 0
768 823 819 0
775 823 768 0
824 776 822 0
822 776 772 0
777 776 824 0
825 777 824 0
826 825 824 0
778 825 827 0
777 825 778 0
778 827 779 0
775 828 823 0
780 828 775 0
829 825 826 0
830 827 825 0
830 825 829 0
830 829 831 0
827 781 779 0
830 781 827 0
780 832 828 0
782 832 780 0
833 830 831 0
834 783 781 0
833 834 781 0
830 833 781 0
782 835 832 0
784 835 782 0
785 834 836 0
783 834 785 0
784 837 835 0
786 837 784 0
787 836 838 0
785 836 787 0
786 839 837 0
788 839 786 0
789 838 840 0
787 838 789 0
788 841 839 0
790 841 788 0
791 840 842 0
789 840 791 0
790 843 841 0
792 843 790 0
793 842 844 0
791 842 793 0
792 845 843 0
794 845 792 0
795 844 846 0
793 844 795 0
794 847 845 0
796 847 794 0
797 846 848 0
795 846 797 0
796 849 847 0
798 849 796 0
799 848 850 0
797 848 799 0
798 851 849 0
800 851 798 0
801 850 852 0
799 850 801 0
800 853 851 0
802 853 800 0
854 804 855 0
855 804 805 0
801 855 805 0
852 855 801 0
802 856 853 0
806 856 802 0
808 854 857 0
804 854 808 0
856 811 858 0
806 811 856 0
858 813 859 0
811 813 858 0
859 815 860 0
813 815 859 0
862 860 815 0
862 815 816 0
862 816 861 0
817 808 857 0
861 817 857 0
862 861 857 0
861 816 818 0
818 817 861 0
820 819 863 0
821 863 864 0
820 863 821 0
821 864 822 0
819 823 865 0
863 819 865 0
866 863 865 0
867 864 863 0
867 863 866 0
867 866 868 0
864 867 869 0
822 864 869 0
824 822 869 0
824 869 826 0
823 870 865 0
828 870 823 0
871 867 868 0
871 872 867 0
867 872 869 0
872 873 829 0
872 829 826 0
872 826 869 0
874 829 873 0
831 829 874 0
828 875 870 0
832 875 828 0
876 833 874 0
874 833 831 0
877 833 876 0
834 833 877 0
832 878 875 0
835 878 832 0
836 877 879 0
834 877 836 0
835 880 878 0
837 880 835 0
838 879 881 0
836 879 838 0
837 882 880 0
839 882 837 0
840 881 883 0
838 881 840 0
839 884 882 0
841 884 839 0
842 883 885 0
840 883 842 0
841 886 884 0
843 886 841 0
844 885 887 0
842 885 844 0
843 888 886 0
845 888 843 0
846 887 889 0
844 887 846 0
845 890 888 0
847 890 845 0
848 889 891 0
846 889 848 0
847 892 890 0
849 892 847 0
850 891 893 0
848 891 850 0
849 894 892 0
851 894 849 0
852 893 895 0
850 893 852 0
894 851 853 0
897 894 853 0
896 897 853 0
897 896 898 0
900 899 901 0
855 902 901 0
855 901 899 0
855 899 854 0
852 902 855 0
895 902 852 0
903 853 856 0
896 853 903 0
896 903 904 0
896 904 905 0
896 905 898 0
904 906 905 0
905 906 907 0
906 908 899 0
906 899 900 0
906 900 907 0
