#!ascii version of 
270 536
-10.000000  -22.500000  46.000000  0
-9.500000  -22.000000  46.000000  0
-10.000000  -22.000000  46.500000  0
-11.000000  -22.500000  46.000000  0
-11.000000  -22.000000  46.500000  0
-11.500000  -22.000000  46.000000  0
-9.000000  -22.500000  45.000000  0
-8.500000  -22.000000  45.000000  0
-9.000000  -22.000000  45.500000  0
-10.000000  -22.500000  45.000000  0
-11.000000  -22.500000  45.000000  0
-11.500000  -22.000000  45.000000  0
-9.000000  -22.000000  44.500000  0
-10.000000  -22.000000  44.500000  0
-11.000000  -22.000000  44.500000  0
-10.000000  -21.500000  47.000000  0
-9.500000  -21.000000  47.000000  0
-10.000000  -21.000000  47.500000  0
-10.500000  -21.000000  47.000000  0
-9.500000  -21.000000  46.000000  0
-11.000000  -21.000000  46.500000  0
-11.500000  -21.000000  46.000000  0
-8.500000  -21.000000  45.000000  0
-9.000000  -21.000000  45.500000  0
-11.500000  -21.000000  45.000000  0
-9.000000  -21.000000  44.500000  0
-10.000000  -21.000000  44.500000  0
-11.000000  -21.000000  44.500000  0
-10.000000  -20.500000  47.000000  0
-9.500000  -20.000000  46.000000  0
-10.000000  -20.000000  46.500000  0
-11.000000  -20.000000  46.500000  0
-11.500000  -20.000000  46.000000  0
-8.500000  -20.000000  45.000000  0
-9.000000  -20.000000  45.500000  0
-11.500000  -20.000000  45.000000  0
-9.000000  -20.000000  44.500000  0
-10.000000  -20.000000  44.500000  0
-11.000000  -20.000000  44.500000  0
-10.000000  -19.500000  47.000000  0
-9.500000  -19.000000  47.000000  0
-10.000000  -19.000000  47.500000  0
-11.000000  -19.500000  47.000000  0
-11.000000  -19.000000  47.500000  0
-11.500000  -19.000000  47.000000  0
-9.500000  -19.000000  46.000000  0
-11.500000  -19.000000  46.000000  0
-8.500000  -19.000000  45.000000  0
-9.000000  -19.000000  45.500000  0
-11.000000  -19.500000  45.000000  0
-10.500000  -19.000000  45.000000  0
-11.000000  -19.000000  45.500000  0
-9.000000  -19.000000  44.500000  0
-10.000000  -19.000000  44.500000  0
-9.500000  -18.000000  47.000000  0
-10.000000  -18.000000  47.500000  0
-11.000000  -18.000000  47.500000  0
-11.500000  -18.000000  47.000000  0
-9.500000  -18.000000  46.000000  0
-11.500000  -18.000000  46.000000  0
-8.500000  -18.000000  45.000000  0
-9.000000  -18.000000  45.500000  0
-10.500000  -18.000000  45.000000  0
-11.000000  -18.000000  45.500000  0
-9.000000  -18.000000  44.500000  0
-10.000000  -18.000000  44.500000  0
-9.000000  -17.500000  48.000000  0
-8.500000  -17.000000  48.000000  0
-9.000000  -17.000000  48.500000  0
-10.000000  -17.500000  48.000000  0
-10.000000  -17.000000  48.500000  0
-10.500000  -17.000000  48.000000  0
-8.000000  -17.500000  47.000000  0
-7.500000  -17.000000  47.000000  0
-8.000000  -17.000000  47.500000  0
-9.000000  -17.500000  47.000000  0
-11.000000  -17.000000  47.500000  0
-11.500000  -17.000000  47.000000  0
-7.000000  -17.500000  46.000000  0
-6.500000  -17.000000  46.000000  0
-7.000000  -17.000000  46.500000  0
-8.000000  -17.500000  46.000000  0
-9.000000  -17.500000  46.000000  0
-10.000000  -17.500000  46.000000  0
-9.500000  -17.000000  46.000000  0
-10.000000  -17.000000  46.500000  0
-10.500000  -17.000000  46.000000  0
-11.500000  -17.000000  46.000000  0
-7.000000  -17.500000  45.000000  0
-6.500000  -17.000000  45.000000  0
-8.000000  -17.500000  45.000000  0
-9.000000  -17.500000  45.000000  0
-8.500000  -17.000000  45.000000  0
-9.000000  -17.000000  45.500000  0
-10.000000  -17.500000  45.000000  0
-11.000000  -17.500000  45.000000  0
-10.500000  -17.000000  45.000000  0
-11.500000  -17.000000  45.000000  0
-7.000000  -17.000000  44.500000  0
-8.000000  -17.000000  44.500000  0
-11.000000  -17.000000  44.500000  0
-8.000000  -16.500000  48.000000  0
-7.500000  -16.000000  48.000000  0
-8.000000  -16.000000  48.500000  0
-9.000000  -16.000000  48.500000  0
-10.000000  -16.000000  48.500000  0
-10.500000  -16.000000  48.000000  0
-7.000000  -16.500000  47.000000  0
-6.500000  -16.000000  47.000000  0
-7.000000  -16.000000  47.500000  0
-10.000000  -16.500000  47.000000  0
-9.500000  -16.000000  47.000000  0
-10.000000  -16.000000  47.500000  0
-11.000000  -16.500000  47.000000  0
-7.000000  -16.500000  46.000000  0
-7.000000  -16.000000  46.500000  0
-7.500000  -16.000000  46.000000  0
-9.500000  -16.000000  46.000000  0
-11.000000  -16.500000  46.000000  0
-7.000000  -16.500000  45.000000  0
-7.500000  -16.000000  45.000000  0
-8.500000  -16.000000  45.000000  0
-9.000000  -16.000000  45.500000  0
-11.000000  -16.500000  45.000000  0
-8.000000  -16.000000  44.500000  0
-7.500000  -15.000000  48.000000  0
-8.000000  -15.000000  48.500000  0
-9.000000  -15.000000  48.500000  0
-10.000000  -15.500000  48.000000  0
-9.500000  -15.000000  48.000000  0
-6.500000  -15.000000  47.000000  0
-7.000000  -15.000000  47.500000  0
-10.000000  -15.500000  47.000000  0
-10.000000  -15.000000  47.500000  0
-10.500000  -15.000000  47.000000  0
-7.000000  -15.000000  46.500000  0
-8.000000  -15.500000  46.000000  0
-8.000000  -15.000000  46.500000  0
-9.000000  -15.500000  46.000000  0
-9.000000  -15.000000  46.500000  0
-10.000000  -15.500000  46.000000  0
-9.500000  -15.000000  46.000000  0
-10.500000  -15.000000  46.000000  0
-8.000000  -15.500000  45.000000  0
-10.000000  -15.500000  45.000000  0
-9.500000  -15.000000  45.000000  0
-10.500000  -15.000000  45.000000  0
-10.000000  -15.000000  44.500000  0
-7.000000  -14.500000  48.000000  0
-6.500000  -14.000000  48.000000  0
-7.000000  -14.000000  48.500000  0
-8.000000  -14.000000  48.500000  0
-9.000000  -14.000000  48.500000  0
-9.500000  -14.000000  48.000000  0
-5.000000  -14.500000  47.000000  0
-4.500000  -14.000000  47.000000  0
-5.000000  -14.000000  47.500000  0
-6.000000  -14.500000  47.000000  0
-6.000000  -14.000000  47.500000  0
-7.000000  -14.500000  47.000000  0
-6.500000  -14.000000  47.000000  0
-7.000000  -14.000000  47.500000  0
-7.500000  -14.000000  47.000000  0
-10.000000  -14.000000  47.500000  0
-10.500000  -14.000000  47.000000  0
-4.000000  -14.500000  46.000000  0
-3.500000  -14.000000  46.000000  0
-4.000000  -14.000000  46.500000  0
-5.000000  -14.500000  46.000000  0
-5.500000  -14.000000  46.000000  0
-6.000000  -14.000000  46.500000  0
-8.000000  -14.000000  46.500000  0
-9.000000  -14.000000  46.500000  0
-9.500000  -14.000000  46.000000  0
-10.500000  -14.000000  46.000000  0
-4.000000  -14.500000  45.000000  0
-3.500000  -14.000000  45.000000  0
-4.500000  -14.000000  45.000000  0
-5.000000  -14.000000  45.500000  0
-9.500000  -14.000000  45.000000  0
-11.000000  -14.500000  45.000000  0
-11.000000  -14.000000  45.500000  0
-11.500000  -14.000000  45.000000  0
-4.000000  -14.500000  44.000000  0
-3.500000  -14.000000  44.000000  0
-4.500000  -14.000000  44.000000  0
-10.000000  -14.000000  44.500000  0
-11.000000  -14.000000  44.500000  0
-4.000000  -14.000000  43.500000  0
-7.000000  -13.500000  49.000000  0
-6.500000  -13.000000  49.000000  0
-7.000000  -13.000000  49.500000  0
-7.500000  -13.000000  49.000000  0
-6.000000  -13.500000  48.000000  0
-5.500000  -13.000000  48.000000  0
-6.000000  -13.000000  48.500000  0
-8.000000  -13.000000  48.500000  0
-9.000000  -13.000000  48.500000  0
-9.500000  -13.000000  48.000000  0
-4.500000  -13.000000  47.000000  0
-5.000000  -13.000000  47.500000  0
-7.000000  -13.500000  47.000000  0
-10.000000  -13.000000  47.500000  0
-10.500000  -13.000000  47.000000  0
-4.000000  -13.500000  46.000000  0
-4.500000  -13.000000  46.000000  0
-5.500000  -13.000000  46.000000  0
-6.000000  -13.000000  46.500000  0
-7.000000  -13.000000  46.500000  0
-8.000000  -13.000000  46.500000  0
-9.000000  -13.500000  46.000000  0
-8.500000  -13.000000  46.000000  0
-10.500000  -13.000000  46.000000  0
-4.000000  -13.500000  45.000000  0
-5.000000  -13.000000  45.500000  0
-9.000000  -13.000000  45.500000  0
-9.500000  -13.000000  45.000000  0
-11.000000  -13.000000  45.500000  0
-11.500000  -13.000000  45.000000  0
-4.000000  -13.500000  44.000000  0
-10.000000  -13.000000  44.500000  0
-11.000000  -13.000000  44.500000  0
-7.000000  -12.500000  49.000000  0
-5.500000  -12.000000  48.000000  0
-6.000000  -12.000000  48.500000  0
-7.000000  -12.000000  48.500000  0
-8.000000  -12.000000  48.500000  0
-9.000000  -12.500000  48.000000  0
-8.500000  -12.000000  48.000000  0
-5.000000  -12.500000  47.000000  0
-5.500000  -12.000000  47.000000  0
-9.000000  -12.000000  47.500000  0
-10.000000  -12.500000  47.000000  0
-9.500000  -12.000000  47.000000  0
-5.000000  -12.500000  46.000000  0
-6.000000  -12.000000  46.500000  0
-7.000000  -12.000000  46.500000  0
-8.000000  -12.000000  46.500000  0
-8.500000  -12.000000  46.000000  0
-10.000000  -12.000000  46.500000  0
-10.500000  -12.000000  46.000000  0
-9.000000  -12.000000  45.500000  0
-10.000000  -12.500000  45.000000  0
-10.000000  -12.000000  45.500000  0
-11.000000  -12.500000  45.000000  0
-5.500000  -11.000000  48.000000  0
-6.000000  -11.000000  48.500000  0
-7.000000  -11.000000  48.500000  0
-8.000000  -11.000000  48.500000  0
-8.500000  -11.000000  48.000000  0
-6.000000  -11.500000  47.000000  0
-6.000000  -11.000000  47.500000  0
-7.000000  -11.500000  47.000000  0
-7.000000  -11.000000  47.500000  0
-7.500000  -11.000000  47.000000  0
-9.000000  -11.500000  47.000000  0
-8.500000  -11.000000  47.000000  0
-8.000000  -11.000000  46.500000  0
-9.000000  -11.500000  46.000000  0
-10.000000  -11.500000  46.000000  0
-5.500000  -10.000000  48.000000  0
-6.000000  -10.000000  48.500000  0
-7.000000  -10.000000  48.500000  0
-8.000000  -10.500000  48.000000  0
-7.500000  -10.000000  48.000000  0
-6.000000  -10.000000  47.500000  0
-7.000000  -10.000000  47.500000  0
-8.000000  -10.500000  47.000000  0
-6.000000  -9.500000  48.000000  0
-7.000000  -9.500000  48.000000  0
2 0 1 0
2 3 0 0
4 3 2 0
5 3 4 0
8 6 7 0
0 9 6 0
1 0 6 0
8 1 6 0
10 0 3 0
9 0 10 0
5 10 3 0
11 10 5 0
7 6 12 0
6 13 12 0
9 13 6 0
9 14 13 0
10 14 9 0
10 11 14 0
17 15 16 0
18 15 17 0
1 19 16 0
2 1 16 0
15 2 16 0
20 4 2 0
20 2 15 0
20 15 18 0
21 4 20 0
5 4 21 0
23 7 22 0
8 7 23 0
8 23 1 0
1 23 19 0
11 21 24 0
5 21 11 0
22 12 25 0
7 12 22 0
25 13 26 0
12 13 25 0
26 14 27 0
13 14 26 0
11 27 14 0
24 27 11 0
17 16 28 0
17 28 18 0
16 19 29 0
28 16 29 0
30 28 29 0
30 31 20 0
30 20 18 0
30 18 28 0
32 20 31 0
21 20 32 0
34 22 33 0
23 22 34 0
23 34 19 0
19 34 29 0
24 32 35 0
21 32 24 0
33 25 36 0
22 25 33 0
36 26 37 0
25 26 36 0
37 27 38 0
26 27 37 0
35 38 24 0
38 27 24 0
41 39 40 0
41 42 39 0
43 42 41 0
44 42 43 0
29 45 40 0
30 29 40 0
39 30 40 0
39 42 30 0
30 42 31 0
44 46 32 0
42 44 32 0
31 42 32 0
48 33 47 0
34 33 48 0
34 48 29 0
29 48 45 0
50 49 51 0
35 32 46 0
49 35 46 0
51 49 46 0
47 36 52 0
33 36 47 0
52 37 53 0
36 37 52 0
53 37 38 0
50 53 38 0
49 50 38 0
49 38 35 0
55 40 54 0
41 40 55 0
56 41 55 0
43 41 56 0
57 43 56 0
44 43 57 0
40 58 54 0
45 58 40 0
46 57 59 0
44 57 46 0
61 47 60 0
48 47 61 0
48 61 45 0
45 61 58 0
62 50 63 0
63 50 51 0
46 63 51 0
59 63 46 0
60 52 64 0
47 52 60 0
64 53 65 0
52 53 64 0
50 65 53 0
62 65 50 0
68 66 67 0
68 69 66 0
70 69 68 0
71 69 70 0
74 72 73 0
66 75 72 0
67 66 72 0
74 67 72 0
75 66 69 0
75 69 55 0
75 55 54 0
76 56 55 0
76 55 69 0
76 69 71 0
77 56 76 0
57 56 77 0
80 78 79 0
72 81 78 0
73 72 78 0
80 73 78 0
82 72 75 0
81 72 82 0
54 85 75 0
54 58 85 0
58 83 85 0
75 85 82 0
82 85 84 0
85 83 86 0
59 77 87 0
57 77 59 0
78 89 79 0
88 89 78 0
90 78 81 0
88 78 90 0
61 60 91 0
92 90 93 0
90 82 93 0
81 82 90 0
84 93 82 0
61 91 58 0
91 83 58 0
94 83 91 0
83 63 86 0
83 94 63 0
94 62 63 0
86 63 96 0
96 63 95 0
59 87 97 0
63 59 97 0
95 63 97 0
88 98 89 0
88 99 98 0
90 99 88 0
99 90 92 0
64 91 60 0
64 94 91 0
65 94 64 0
65 62 94 0
100 96 95 0
95 97 100 0
103 101 102 0
103 104 68 0
101 103 68 0
67 101 68 0
105 68 104 0
70 68 105 0
106 70 105 0
71 70 106 0
109 107 108 0
102 107 109 0
102 101 107 0
101 73 107 0
74 73 101 0
101 67 74 0
111 110 112 0
110 113 112 0
113 106 112 0
113 76 106 0
76 71 106 0
76 113 77 0
79 114 80 0
107 115 108 0
116 115 107 0
116 107 73 0
114 116 73 0
80 114 73 0
111 117 84 0
111 84 85 0
111 85 110 0
118 113 110 0
86 118 110 0
85 86 110 0
113 87 77 0
118 87 113 0
89 119 114 0
79 89 114 0
114 119 116 0
116 119 120 0
121 92 122 0
122 92 93 0
84 122 93 0
117 122 84 0
123 86 96 0
118 86 123 0
118 97 87 0
123 97 118 0
119 89 98 0
98 99 124 0
119 98 124 0
120 119 124 0
92 124 99 0
121 124 92 0
123 96 100 0
100 97 123 0
126 102 125 0
103 102 126 0
127 103 126 0
104 103 127 0
105 104 127 0
128 105 127 0
129 128 127 0
105 128 106 0
131 108 130 0
109 108 131 0
109 131 102 0
102 131 125 0
129 133 132 0
129 132 111 0
128 129 111 0
112 128 111 0
134 132 133 0
106 128 112 0
108 115 130 0
115 135 130 0
137 135 115 0
137 115 116 0
137 116 136 0
136 138 137 0
137 138 139 0
132 139 111 0
132 140 139 0
140 141 139 0
111 139 117 0
117 139 138 0
134 140 132 0
142 140 134 0
143 116 120 0
136 116 143 0
138 136 143 0
122 138 143 0
121 122 143 0
145 140 144 0
141 140 145 0
122 117 138 0
142 144 140 0
146 144 142 0
143 120 124 0
124 121 143 0
145 144 147 0
144 146 147 0
150 148 149 0
150 151 126 0
148 150 126 0
125 148 126 0
152 126 151 0
127 126 152 0
153 127 152 0
129 127 153 0
156 154 155 0
156 157 154 0
158 157 156 0
130 159 131 0
160 157 158 0
148 161 149 0
162 161 148 0
162 148 125 0
159 162 125 0
131 159 125 0
163 133 153 0
153 133 129 0
164 133 163 0
134 133 164 0
167 165 166 0
154 168 165 0
155 154 165 0
167 155 165 0
169 168 170 0
168 157 170 0
154 157 168 0
159 130 135 0
157 160 170 0
135 137 171 0
159 135 171 0
162 159 171 0
171 139 172 0
137 139 171 0
172 139 173 0
173 139 141 0
142 164 174 0
134 164 142 0
165 176 166 0
175 176 165 0
177 175 178 0
175 168 178 0
165 168 175 0
168 169 178 0
141 179 173 0
145 179 141 0
146 142 174 0
146 174 181 0
146 181 180 0
182 180 181 0
175 184 176 0
183 184 175 0
183 177 185 0
175 177 183 0
179 147 186 0
145 147 179 0
187 186 147 0
180 187 147 0
146 180 147 0
180 182 187 0
184 183 188 0
183 185 188 0
191 189 190 0
192 189 191 0
195 193 194 0
190 193 195 0
190 189 193 0
189 149 193 0
150 149 189 0
196 151 150 0
196 150 189 0
196 189 192 0
197 151 196 0
152 151 197 0
198 152 197 0
153 152 198 0
200 155 199 0
156 155 200 0
158 156 200 0
158 200 194 0
158 194 193 0
193 149 161 0
193 161 201 0
158 193 201 0
160 158 201 0
162 201 161 0
202 163 198 0
198 163 153 0
203 163 202 0
164 163 203 0
167 166 204 0
205 199 155 0
205 155 167 0
205 167 204 0
206 169 207 0
207 169 170 0
208 207 170 0
201 208 170 0
160 201 170 0
171 209 208 0
162 171 208 0
201 162 208 0
209 171 172 0
209 172 210 0
209 210 211 0
173 210 172 0
174 203 212 0
164 203 174 0
213 166 176 0
204 166 213 0
204 213 205 0
213 214 205 0
213 177 214 0
177 178 214 0
169 214 178 0
206 214 169 0
211 210 215 0
173 179 216 0
173 216 215 0
173 215 210 0
217 181 212 0
212 181 174 0
218 181 217 0
182 181 218 0
219 176 184 0
213 176 219 0
213 185 177 0
219 185 213 0
216 186 220 0
179 186 216 0
220 187 221 0
186 187 220 0
182 221 187 0
218 221 182 0
219 184 188 0
188 185 219 0
191 190 222 0
191 222 192 0
224 194 223 0
195 194 224 0
195 224 225 0
195 225 222 0
195 222 190 0
225 226 196 0
225 196 192 0
225 192 222 0
197 196 226 0
227 197 226 0
228 227 226 0
197 227 198 0
200 199 229 0
230 223 194 0
230 194 200 0
230 200 229 0
231 227 228 0
231 198 227 0
231 233 198 0
233 202 198 0
232 202 233 0
202 232 203 0
234 199 205 0
229 199 234 0
229 234 230 0
234 235 230 0
234 206 235 0
206 207 235 0
235 208 236 0
207 208 235 0
236 209 237 0
208 209 236 0
237 209 238 0
238 209 211 0
239 232 233 0
240 212 203 0
239 240 203 0
232 239 203 0
234 205 214 0
214 206 234 0
238 215 241 0
211 215 238 0
243 241 215 0
243 215 216 0
243 216 242 0
242 244 243 0
244 240 243 0
244 217 240 0
217 212 240 0
217 244 218 0
242 216 220 0
220 244 242 0
221 244 220 0
221 218 244 0
246 223 245 0
224 223 246 0
247 224 246 0
225 224 247 0
248 225 247 0
226 225 248 0
249 226 248 0
228 226 249 0
251 245 250 0
245 230 250 0
223 230 245 0
250 252 251 0
251 252 253 0
253 252 254 0
228 249 256 0
228 256 255 0
228 255 231 0
231 255 233 0
235 250 230 0
235 252 250 0
236 252 235 0
236 237 257 0
252 236 257 0
254 252 257 0
237 256 257 0
237 255 256 0
238 255 237 0
258 255 238 0
255 258 259 0
233 255 259 0
239 233 259 0
239 259 240 0
258 238 241 0
241 259 258 0
243 259 241 0
243 240 259 0
261 245 260 0
246 245 261 0
262 246 261 0
247 246 262 0
248 247 262 0
263 248 262 0
264 263 262 0
248 263 249 0
260 251 265 0
245 251 260 0
265 253 266 0
251 253 265 0
253 264 266 0
253 263 264 0
254 263 253 0
267 263 254 0
263 256 249 0
267 256 263 0
267 254 257 0
257 256 267 0
261 260 268 0
262 268 269 0
261 268 262 0
262 269 264 0
268 260 265 0
265 269 268 0
266 269 265 0
266 264 269 0
