#!ascii version of 
176 348
-29.000000  -7.500000  13.000000  0
-28.500000  -7.000000  13.000000  0
-29.000000  -7.000000  13.500000  0
-29.500000  -7.000000  13.000000  0
-29.000000  -7.500000  12.000000  0
-28.500000  -7.000000  12.000000  0
-30.000000  -7.500000  12.000000  0
-30.000000  -7.000000  12.500000  0
-30.500000  -7.000000  12.000000  0
-29.000000  -7.500000  11.000000  0
-28.500000  -7.000000  11.000000  0
-30.000000  -7.500000  11.000000  0
-30.500000  -7.000000  11.000000  0
-29.000000  -7.000000  10.500000  0
-30.000000  -7.000000  10.500000  0
-28.500000  -6.000000  13.000000  0
-29.000000  -6.000000  13.500000  0
-29.500000  -6.000000  13.000000  0
-28.500000  -6.000000  12.000000  0
-30.000000  -6.500000  12.000000  0
-29.500000  -6.000000  12.000000  0
-28.500000  -6.000000  11.000000  0
-30.000000  -6.000000  11.500000  0
-30.500000  -6.000000  11.000000  0
-29.000000  -6.500000  10.000000  0
-28.500000  -6.000000  10.000000  0
-29.500000  -6.000000  10.000000  0
-30.000000  -6.000000  10.500000  0
-29.000000  -6.000000  9.500000  0
-29.000000  -5.500000  13.000000  0
-28.500000  -5.000000  12.000000  0
-29.000000  -5.000000  12.500000  0
-29.500000  -5.000000  12.000000  0
-28.000000  -5.500000  11.000000  0
-27.500000  -5.000000  11.000000  0
-28.000000  -5.000000  11.500000  0
-30.000000  -5.500000  11.000000  0
-29.500000  -5.000000  11.000000  0
-28.000000  -5.500000  10.000000  0
-27.500000  -5.000000  10.000000  0
-29.500000  -5.000000  10.000000  0
-28.000000  -5.000000  9.500000  0
-29.000000  -5.000000  9.500000  0
-27.000000  -4.500000  12.000000  0
-26.500000  -4.000000  12.000000  0
-27.000000  -4.000000  12.500000  0
-28.000000  -4.500000  12.000000  0
-28.000000  -4.000000  12.500000  0
-29.000000  -4.500000  12.000000  0
-28.500000  -4.000000  12.000000  0
-27.000000  -4.500000  11.000000  0
-26.500000  -4.000000  11.000000  0
-29.000000  -4.000000  11.500000  0
-29.500000  -4.000000  11.000000  0
-27.000000  -4.500000  10.000000  0
-26.500000  -4.000000  10.000000  0
-29.500000  -4.000000  10.000000  0
-27.000000  -4.000000  9.500000  0
-28.000000  -4.500000  9.000000  0
-27.500000  -4.000000  9.000000  0
-28.500000  -4.000000  9.000000  0
-29.000000  -4.000000  9.500000  0
-28.000000  -4.000000  8.500000  0
-24.000000  -3.500000  14.000000  0
-23.500000  -3.000000  14.000000  0
-24.000000  -3.000000  14.500000  0
-25.000000  -3.500000  14.000000  0
-25.000000  -3.000000  14.500000  0
-25.500000  -3.000000  14.000000  0
-24.000000  -3.500000  13.000000  0
-23.500000  -3.000000  13.000000  0
-25.000000  -3.500000  13.000000  0
-26.000000  -3.500000  13.000000  0
-26.000000  -3.000000  13.500000  0
-26.500000  -3.000000  13.000000  0
-24.000000  -3.000000  12.500000  0
-25.000000  -3.000000  12.500000  0
-26.000000  -3.500000  12.000000  0
-25.500000  -3.000000  12.000000  0
-27.000000  -3.000000  12.500000  0
-28.000000  -3.000000  12.500000  0
-28.500000  -3.000000  12.000000  0
-26.000000  -3.500000  11.000000  0
-25.500000  -3.000000  11.000000  0
-29.000000  -3.000000  11.500000  0
-29.500000  -3.000000  11.000000  0
-26.000000  -3.500000  10.000000  0
-25.500000  -3.000000  10.000000  0
-29.500000  -3.000000  10.000000  0
-26.000000  -3.500000  9.000000  0
-25.500000  -3.000000  9.000000  0
-27.000000  -3.500000  9.000000  0
-28.500000  -3.000000  9.000000  0
-29.000000  -3.000000  9.500000  0
-26.000000  -3.000000  8.500000  0
-27.000000  -3.000000  8.500000  0
-28.000000  -3.000000  8.500000  0
-23.500000  -2.000000  14.000000  0
-24.000000  -2.000000  14.500000  0
-25.000000  -2.000000  14.500000  0
-25.500000  -2.000000  14.000000  0
-23.500000  -2.000000  13.000000  0
-26.000000  -2.000000  13.500000  0
-26.500000  -2.000000  13.000000  0
-24.000000  -2.000000  12.500000  0
-25.000000  -2.500000  12.000000  0
-24.500000  -2.000000  12.000000  0
-27.000000  -2.000000  12.500000  0
-28.000000  -2.500000  12.000000  0
-27.500000  -2.000000  12.000000  0
-25.000000  -2.500000  11.000000  0
-24.500000  -2.000000  11.000000  0
-28.000000  -2.000000  11.500000  0
-29.000000  -2.500000  11.000000  0
-28.500000  -2.000000  11.000000  0
-25.000000  -2.500000  10.000000  0
-24.500000  -2.000000  10.000000  0
-29.000000  -2.500000  10.000000  0
-28.500000  -2.000000  10.000000  0
-25.000000  -2.500000  9.000000  0
-24.500000  -2.000000  9.000000  0
-28.500000  -2.000000  9.000000  0
-25.000000  -2.000000  8.500000  0
-26.000000  -2.000000  8.500000  0
-27.000000  -2.000000  8.500000  0
-28.000000  -2.000000  8.500000  0
-24.000000  -1.500000  14.000000  0
-25.000000  -1.500000  14.000000  0
-24.000000  -1.500000  13.000000  0
-25.000000  -1.500000  13.000000  0
-26.000000  -1.500000  13.000000  0
-25.000000  -1.500000  12.000000  0
-26.000000  -1.500000  12.000000  0
-27.000000  -1.500000  12.000000  0
-24.500000  -1.000000  11.000000  0
-25.000000  -1.000000  11.500000  0
-26.000000  -1.000000  11.500000  0
-27.000000  -1.000000  11.500000  0
-28.000000  -1.500000  11.000000  0
-27.500000  -1.000000  11.000000  0
-24.500000  -1.000000  10.000000  0
-28.000000  -1.000000  10.500000  0
-28.500000  -1.000000  10.000000  0
-24.500000  -1.000000  9.000000  0
-28.500000  -1.000000  9.000000  0
-25.000000  -1.500000  8.000000  0
-24.500000  -1.000000  8.000000  0
-26.000000  -1.500000  8.000000  0
-26.500000  -1.000000  8.000000  0
-27.000000  -1.000000  8.500000  0
-28.000000  -1.000000  8.500000  0
-25.000000  -1.000000  7.500000  0
-26.000000  -1.000000  7.500000  0
-25.000000  -0.500000  11.000000  0
-26.000000  -0.500000  11.000000  0
-27.000000  -0.500000  11.000000  0
-25.000000  -0.500000  10.000000  0
-26.000000  -0.500000  10.000000  0
-27.000000  -0.500000  10.000000  0
-28.000000  -0.500000  10.000000  0
-24.500000  0.000000  9.000000  0
-25.000000  0.000000  9.500000  0
-26.000000  0.000000  9.500000  0
-27.000000  0.000000  9.500000  0
-28.000000  -0.500000  9.000000  0
-27.500000  0.000000  9.000000  0
-24.500000  0.000000  8.000000  0
-26.500000  0.000000  8.000000  0
-27.000000  0.000000  8.500000  0
-25.000000  0.000000  7.500000  0
-26.000000  0.000000  7.500000  0
-25.000000  0.500000  9.000000  0
-26.000000  0.500000  9.000000  0
-27.000000  0.500000  9.000000  0
-25.000000  0.500000  8.000000  0
-26.000000  0.500000  8.000000  0
2 0 1 0
3 0 2 0
0 5 1 0
4 5 0 0
6 4 0 0
7 6 0 0
3 7 0 0
8 6 7 0
4 10 5 0
9 10 4 0
11 4 6 0
9 4 11 0
8 11 6 0
12 11 8 0
10 9 13 0
9 14 13 0
11 14 9 0
11 12 14 0
16 1 15 0
2 1 16 0
17 2 16 0
3 2 17 0
1 18 15 0
5 18 1 0
3 17 20 0
3 20 19 0
3 19 7 0
7 19 8 0
5 21 18 0
10 21 5 0
22 19 20 0
23 12 8 0
22 23 8 0
19 22 8 0
25 21 10 0
24 25 10 0
13 24 10 0
13 14 27 0
13 27 26 0
13 26 24 0
12 27 14 0
23 27 12 0
25 24 28 0
24 26 28 0
16 15 29 0
16 29 17 0
15 18 30 0
29 15 30 0
31 29 30 0
32 20 17 0
31 32 17 0
29 31 17 0
35 33 34 0
30 18 21 0
30 21 33 0
30 33 35 0
20 32 37 0
20 37 36 0
20 36 22 0
22 36 23 0
33 39 34 0
38 39 33 0
21 25 33 0
33 25 38 0
37 40 26 0
37 26 27 0
37 27 36 0
27 23 36 0
39 38 41 0
28 42 41 0
25 28 41 0
38 25 41 0
26 42 28 0
40 42 26 0
45 43 44 0
45 46 43 0
47 46 45 0
31 30 48 0
47 49 46 0
31 48 32 0
43 51 44 0
50 51 43 0
50 43 46 0
50 46 35 0
50 35 34 0
35 46 49 0
35 49 52 0
30 35 52 0
48 30 52 0
53 37 32 0
52 53 32 0
48 52 32 0
50 55 51 0
54 55 50 0
34 39 50 0
50 39 54 0
40 53 56 0
37 53 40 0
55 54 57 0
57 58 59 0
57 54 58 0
54 41 58 0
39 41 54 0
41 42 61 0
41 61 60 0
41 60 58 0
40 61 42 0
56 61 40 0
59 58 62 0
58 60 62 0
65 63 64 0
65 66 63 0
67 66 65 0
68 66 67 0
63 70 64 0
69 70 63 0
71 63 66 0
69 63 71 0
72 71 66 0
73 72 66 0
68 73 66 0
74 72 73 0
70 69 75 0
69 76 75 0
71 76 69 0
71 72 77 0
76 71 77 0
78 76 77 0
79 45 74 0
45 72 74 0
45 44 72 0
44 77 72 0
80 45 79 0
47 45 80 0
81 47 80 0
49 47 81 0
77 83 78 0
82 83 77 0
44 51 77 0
77 51 82 0
84 52 81 0
81 52 49 0
85 52 84 0
53 52 85 0
82 87 83 0
86 87 82 0
51 55 82 0
82 55 86 0
56 85 88 0
53 85 56 0
86 90 87 0
89 90 86 0
91 89 86 0
91 86 55 0
91 55 57 0
59 91 57 0
92 60 93 0
93 60 61 0
56 93 61 0
88 93 56 0
90 89 94 0
89 95 94 0
91 95 89 0
62 96 95 0
59 62 95 0
91 59 95 0
60 96 62 0
92 96 60 0
98 64 97 0
65 64 98 0
99 65 98 0
67 65 99 0
100 67 99 0
68 67 100 0
64 101 97 0
70 101 64 0
102 73 100 0
100 73 68 0
103 73 102 0
74 73 103 0
101 75 104 0
70 75 101 0
104 75 76 0
104 76 105 0
104 105 106 0
78 105 76 0
107 79 103 0
103 79 74 0
80 79 107 0
108 80 107 0
109 108 107 0
80 108 81 0
105 111 106 0
110 111 105 0
78 83 105 0
105 83 110 0
112 108 109 0
112 81 108 0
112 114 81 0
114 84 81 0
113 84 114 0
84 113 85 0
110 116 111 0
115 116 110 0
83 87 110 0
110 87 115 0
114 118 113 0
113 118 117 0
113 88 85 0
117 88 113 0
115 120 116 0
119 120 115 0
87 90 115 0
115 90 119 0
118 121 92 0
118 92 93 0
118 93 117 0
93 88 117 0
120 119 122 0
94 123 122 0
90 94 122 0
119 90 122 0
123 95 124 0
94 95 123 0
124 96 125 0
95 96 124 0
92 125 96 0
121 125 92 0
98 97 126 0
99 126 127 0
98 126 99 0
99 127 100 0
128 97 101 0
126 97 128 0
128 127 126 0
129 127 128 0
127 129 130 0
100 127 130 0
102 100 130 0
102 130 103 0
128 101 104 0
131 129 128 0
106 131 128 0
104 106 128 0
131 130 129 0
132 130 131 0
130 132 133 0
103 130 133 0
107 103 133 0
107 133 109 0
106 111 134 0
131 106 134 0
135 131 134 0
135 136 131 0
131 136 132 0
136 137 132 0
132 137 133 0
137 109 133 0
137 139 109 0
139 112 109 0
138 112 139 0
112 138 114 0
111 140 134 0
116 140 111 0
141 138 139 0
142 118 114 0
141 142 114 0
138 141 114 0
116 143 140 0
120 143 116 0
121 142 144 0
118 142 121 0
146 143 120 0
145 146 120 0
122 145 120 0
147 145 123 0
123 145 122 0
123 124 149 0
123 149 148 0
123 148 147 0
149 125 150 0
124 125 149 0
121 150 125 0
144 150 121 0
146 145 151 0
145 152 151 0
147 152 145 0
147 148 152 0
135 134 153 0
136 153 154 0
135 153 136 0
137 154 155 0
136 154 137 0
137 155 139 0
156 134 140 0
153 134 156 0
156 154 153 0
157 154 156 0
157 155 154 0
158 155 157 0
155 158 159 0
139 155 159 0
141 139 159 0
141 159 142 0
140 143 160 0
156 140 160 0
161 156 160 0
161 162 156 0
156 162 157 0
162 163 157 0
157 163 158 0
164 159 158 0
164 158 163 0
164 163 165 0
159 144 142 0
164 144 159 0
143 166 160 0
146 166 143 0
167 148 168 0
168 148 149 0
168 149 150 0
165 168 150 0
164 165 150 0
150 144 164 0
166 151 169 0
146 151 166 0
169 152 170 0
151 152 169 0
148 170 152 0
167 170 148 0
161 160 171 0
162 171 172 0
161 171 162 0
163 172 173 0
162 172 163 0
163 173 165 0
174 160 166 0
171 160 174 0
174 172 171 0
175 172 174 0
173 172 175 0
168 173 175 0
167 168 175 0
168 165 173 0
174 166 169 0
169 175 174 0
170 175 169 0
170 167 175 0
