#!ascii version of 
358 712
21.000000  -3.500000  17.000000  0
21.500000  -3.000000  17.000000  0
21.000000  -3.000000  17.500000  0
20.000000  -3.500000  17.000000  0
20.000000  -3.000000  17.500000  0
19.500000  -3.000000  17.000000  0
21.000000  -3.000000  16.500000  0
20.000000  -3.000000  16.500000  0
33.000000  -3.500000  12.000000  0
33.500000  -3.000000  12.000000  0
33.000000  -3.000000  12.500000  0
32.500000  -3.000000  12.000000  0
33.000000  -3.000000  11.500000  0
22.000000  -2.500000  18.000000  0
22.500000  -2.000000  18.000000  0
22.000000  -2.000000  18.500000  0
21.500000  -2.000000  18.000000  0
22.000000  -2.500000  17.000000  0
22.500000  -2.000000  17.000000  0
21.000000  -2.000000  17.500000  0
20.000000  -2.000000  17.500000  0
19.500000  -2.000000  17.000000  0
22.000000  -2.000000  16.500000  0
21.000000  -2.000000  16.500000  0
20.000000  -2.000000  16.500000  0
33.000000  -2.500000  14.000000  0
33.500000  -2.000000  14.000000  0
33.000000  -2.000000  14.500000  0
32.000000  -2.500000  14.000000  0
32.000000  -2.000000  14.500000  0
31.500000  -2.000000  14.000000  0
33.000000  -2.500000  13.000000  0
33.500000  -2.000000  13.000000  0
32.000000  -2.500000  13.000000  0
31.500000  -2.000000  13.000000  0
33.500000  -2.000000  12.000000  0
32.000000  -2.500000  12.000000  0
31.500000  -2.000000  12.000000  0
33.000000  -2.500000  11.000000  0
33.500000  -2.000000  11.000000  0
32.000000  -2.500000  11.000000  0
31.500000  -2.000000  11.000000  0
33.000000  -2.000000  10.500000  0
32.000000  -2.000000  10.500000  0
24.000000  -1.500000  18.000000  0
24.500000  -1.000000  18.000000  0
24.000000  -1.000000  18.500000  0
23.000000  -1.500000  18.000000  0
23.000000  -1.000000  18.500000  0
22.000000  -1.000000  18.500000  0
21.500000  -1.000000  18.000000  0
26.000000  -1.500000  17.000000  0
26.500000  -1.000000  17.000000  0
26.000000  -1.000000  17.500000  0
25.000000  -1.500000  17.000000  0
25.000000  -1.000000  17.500000  0
24.000000  -1.500000  17.000000  0
23.000000  -1.500000  17.000000  0
21.000000  -1.000000  17.500000  0
20.000000  -1.000000  17.500000  0
19.500000  -1.000000  17.000000  0
26.000000  -1.000000  16.500000  0
25.000000  -1.000000  16.500000  0
24.000000  -1.500000  16.000000  0
24.500000  -1.000000  16.000000  0
23.000000  -1.500000  16.000000  0
22.500000  -1.000000  16.000000  0
22.000000  -1.000000  16.500000  0
21.000000  -1.500000  16.000000  0
21.500000  -1.000000  16.000000  0
20.000000  -1.500000  16.000000  0
19.500000  -1.000000  16.000000  0
30.000000  -1.500000  15.000000  0
30.500000  -1.000000  15.000000  0
30.000000  -1.000000  15.500000  0
29.500000  -1.000000  15.000000  0
24.000000  -1.000000  15.500000  0
23.000000  -1.000000  15.500000  0
21.000000  -1.000000  15.500000  0
20.000000  -1.000000  15.500000  0
33.000000  -1.500000  14.000000  0
32.500000  -1.000000  14.000000  0
32.000000  -1.000000  14.500000  0
31.000000  -1.500000  14.000000  0
31.000000  -1.000000  14.500000  0
30.000000  -1.500000  14.000000  0
29.500000  -1.000000  14.000000  0
33.500000  -1.000000  13.000000  0
33.000000  -1.000000  13.500000  0
31.000000  -1.500000  13.000000  0
30.000000  -1.500000  13.000000  0
29.500000  -1.000000  13.000000  0
33.500000  -1.000000  12.000000  0
31.000000  -1.500000  12.000000  0
30.000000  -1.500000  12.000000  0
29.500000  -1.000000  12.000000  0
33.500000  -1.000000  11.000000  0
31.000000  -1.500000  11.000000  0
30.000000  -1.500000  11.000000  0
29.500000  -1.000000  11.000000  0
33.000000  -1.000000  10.500000  0
32.000000  -1.500000  10.000000  0
32.500000  -1.000000  10.000000  0
31.000000  -1.500000  10.000000  0
30.000000  -1.500000  10.000000  0
29.500000  -1.000000  10.000000  0
32.000000  -1.000000  9.500000  0
31.000000  -1.000000  9.500000  0
30.000000  -1.000000  9.500000  0
24.000000  -0.500000  18.000000  0
23.000000  -0.500000  18.000000  0
22.000000  -0.500000  18.000000  0
26.500000  0.000000  17.000000  0
26.000000  0.000000  17.500000  0
25.000000  0.000000  17.500000  0
24.000000  0.000000  17.500000  0
23.000000  0.000000  17.500000  0
22.000000  0.000000  17.500000  0
21.000000  0.000000  17.500000  0
20.000000  0.000000  17.500000  0
19.500000  0.000000  17.000000  0
26.000000  -0.500000  16.000000  0
26.500000  0.000000  16.000000  0
25.000000  -0.500000  16.000000  0
22.000000  -0.500000  16.000000  0
19.500000  0.000000  16.000000  0
30.500000  0.000000  15.000000  0
30.000000  0.000000  15.500000  0
29.000000  -0.500000  15.000000  0
29.000000  0.000000  15.500000  0
28.500000  0.000000  15.000000  0
26.000000  0.000000  15.500000  0
25.000000  -0.500000  15.000000  0
25.500000  0.000000  15.000000  0
24.000000  -0.500000  15.000000  0
23.000000  -0.500000  15.000000  0
22.000000  -0.500000  15.000000  0
21.500000  0.000000  15.000000  0
21.000000  0.000000  15.500000  0
20.000000  0.000000  15.500000  0
32.000000  -0.500000  14.000000  0
31.500000  0.000000  14.000000  0
31.000000  0.000000  14.500000  0
29.000000  -0.500000  14.000000  0
28.500000  0.000000  14.000000  0
25.000000  0.000000  14.500000  0
24.000000  0.000000  14.500000  0
23.000000  0.000000  14.500000  0
22.000000  0.000000  14.500000  0
33.000000  -0.500000  13.000000  0
32.500000  0.000000  13.000000  0
32.000000  0.000000  13.500000  0
29.000000  -0.500000  13.000000  0
28.500000  0.000000  13.000000  0
33.500000  0.000000  12.000000  0
33.000000  0.000000  12.500000  0
29.000000  -0.500000  12.000000  0
28.500000  0.000000  12.000000  0
33.500000  0.000000  11.000000  0
29.000000  -0.500000  11.000000  0
28.500000  0.000000  11.000000  0
33.000000  0.000000  10.500000  0
32.500000  0.000000  10.000000  0
29.000000  -0.500000  10.000000  0
28.500000  0.000000  10.000000  0
32.000000  0.000000  9.500000  0
31.000000  -0.500000  9.000000  0
31.500000  0.000000  9.000000  0
30.000000  -0.500000  9.000000  0
29.000000  -0.500000  9.000000  0
28.500000  0.000000  9.000000  0
31.000000  0.000000  8.500000  0
30.000000  0.000000  8.500000  0
29.000000  0.000000  8.500000  0
26.000000  0.500000  17.000000  0
25.000000  0.500000  17.000000  0
24.000000  0.500000  17.000000  0
23.000000  0.500000  17.000000  0
22.000000  0.500000  17.000000  0
21.000000  0.500000  17.000000  0
20.000000  0.500000  17.000000  0
28.000000  0.500000  16.000000  0
28.500000  1.000000  16.000000  0
28.000000  1.000000  16.500000  0
27.000000  0.500000  16.000000  0
27.000000  1.000000  16.500000  0
26.000000  1.000000  16.500000  0
25.000000  1.000000  16.500000  0
24.000000  1.000000  16.500000  0
23.000000  1.000000  16.500000  0
22.000000  0.500000  16.000000  0
22.500000  1.000000  16.000000  0
21.000000  0.500000  16.000000  0
20.000000  0.500000  16.000000  0
30.000000  0.500000  15.000000  0
29.500000  1.000000  15.000000  0
29.000000  1.000000  15.500000  0
28.000000  0.500000  15.000000  0
27.000000  0.500000  15.000000  0
26.000000  0.500000  15.000000  0
22.000000  0.500000  15.000000  0
22.500000  1.000000  15.000000  0
31.000000  0.500000  14.000000  0
30.500000  1.000000  14.000000  0
30.000000  1.000000  14.500000  0
28.000000  0.500000  14.000000  0
27.500000  1.000000  14.000000  0
27.000000  1.000000  14.500000  0
26.000000  1.000000  14.500000  0
25.000000  0.500000  14.000000  0
25.500000  1.000000  14.000000  0
24.000000  0.500000  14.000000  0
23.000000  0.500000  14.000000  0
22.500000  1.000000  14.000000  0
32.500000  1.000000  13.000000  0
32.000000  1.000000  13.500000  0
31.000000  1.000000  13.500000  0
28.500000  1.000000  13.000000  0
28.000000  1.000000  13.500000  0
25.000000  1.000000  13.500000  0
24.000000  1.000000  13.500000  0
23.000000  1.000000  13.500000  0
33.000000  0.500000  12.000000  0
32.500000  1.000000  12.000000  0
28.500000  1.000000  12.000000  0
33.000000  0.500000  11.000000  0
32.500000  1.000000  11.000000  0
28.500000  1.000000  11.000000  0
32.500000  1.000000  10.000000  0
28.500000  1.000000  10.000000  0
32.000000  1.000000  9.500000  0
31.500000  1.000000  9.000000  0
28.500000  1.000000  9.000000  0
31.000000  1.000000  8.500000  0
30.000000  1.000000  8.500000  0
29.000000  1.000000  8.500000  0
28.000000  1.500000  16.000000  0
27.000000  1.500000  16.000000  0
26.000000  1.500000  16.000000  0
25.000000  1.500000  16.000000  0
24.000000  1.500000  16.000000  0
23.000000  1.500000  16.000000  0
29.000000  1.500000  15.000000  0
28.500000  2.000000  15.000000  0
28.000000  2.000000  15.500000  0
27.000000  2.000000  15.500000  0
26.000000  2.000000  15.500000  0
25.000000  1.500000  15.000000  0
25.500000  2.000000  15.000000  0
24.000000  1.500000  15.000000  0
23.000000  1.500000  15.000000  0
30.000000  1.500000  14.000000  0
29.500000  2.000000  14.000000  0
29.000000  2.000000  14.500000  0
27.000000  1.500000  14.000000  0
26.000000  1.500000  14.000000  0
25.000000  1.500000  14.000000  0
25.500000  2.000000  14.000000  0
24.000000  1.500000  14.000000  0
23.000000  1.500000  14.000000  0
32.000000  1.500000  13.000000  0
31.500000  2.000000  13.000000  0
31.000000  2.000000  13.500000  0
30.000000  2.000000  13.500000  0
28.000000  1.500000  13.000000  0
27.000000  1.500000  13.000000  0
26.500000  2.000000  13.000000  0
26.000000  2.000000  13.500000  0
32.500000  2.000000  12.000000  0
32.000000  2.000000  12.500000  0
28.000000  1.500000  12.000000  0
27.500000  2.000000  12.000000  0
27.000000  2.000000  12.500000  0
32.500000  2.000000  11.000000  0
28.000000  1.500000  11.000000  0
27.500000  2.000000  11.000000  0
32.500000  2.000000  10.000000  0
28.000000  1.500000  10.000000  0
27.500000  2.000000  10.000000  0
32.000000  2.000000  9.500000  0
31.500000  2.000000  9.000000  0
28.000000  1.500000  9.000000  0
27.500000  2.000000  9.000000  0
31.000000  2.000000  8.500000  0
30.000000  2.000000  8.500000  0
29.000000  2.000000  8.500000  0
28.000000  2.000000  8.500000  0
28.000000  2.500000  15.000000  0
27.000000  2.500000  15.000000  0
26.000000  2.500000  15.000000  0
29.000000  2.500000  14.000000  0
28.500000  3.000000  14.000000  0
28.000000  3.000000  14.500000  0
27.000000  3.000000  14.500000  0
26.000000  2.500000  14.000000  0
26.500000  3.000000  14.000000  0
31.000000  2.500000  13.000000  0
30.000000  2.500000  13.000000  0
29.500000  3.000000  13.000000  0
29.000000  3.000000  13.500000  0
26.500000  3.000000  13.000000  0
32.000000  2.500000  12.000000  0
31.000000  2.500000  12.000000  0
30.500000  3.000000  12.000000  0
30.000000  3.000000  12.500000  0
27.500000  3.000000  12.000000  0
27.000000  3.000000  12.500000  0
32.000000  2.500000  11.000000  0
31.500000  3.000000  11.000000  0
31.000000  3.000000  11.500000  0
27.500000  3.000000  11.000000  0
32.000000  2.500000  10.000000  0
31.500000  3.000000  10.000000  0
27.500000  3.000000  10.000000  0
31.500000  3.000000  9.000000  0
27.500000  3.000000  9.000000  0
31.000000  3.000000  8.500000  0
30.000000  3.000000  8.500000  0
29.000000  3.000000  8.500000  0
28.000000  3.000000  8.500000  0
28.000000  3.500000  14.000000  0
27.000000  3.500000  14.000000  0
29.000000  3.500000  13.000000  0
28.000000  3.500000  13.000000  0
27.000000  3.500000  13.000000  0
30.000000  3.500000  12.000000  0
29.000000  3.500000  12.000000  0
28.000000  3.500000  12.000000  0
31.000000  3.500000  11.000000  0
30.500000  4.000000  11.000000  0
30.000000  4.000000  11.500000  0
29.000000  4.000000  11.500000  0
28.000000  3.500000  11.000000  0
28.500000  4.000000  11.000000  0
31.000000  3.500000  10.000000  0
30.500000  4.000000  10.000000  0
28.000000  3.500000  10.000000  0
28.500000  4.000000  10.000000  0
31.000000  3.500000  9.000000  0
30.500000  4.000000  9.000000  0
28.000000  4.000000  9.500000  0
27.500000  4.000000  9.000000  0
30.000000  4.000000  8.500000  0
29.000000  4.000000  8.500000  0
28.000000  4.000000  8.500000  0
30.000000  4.500000  11.000000  0
29.000000  4.500000  11.000000  0
30.000000  4.500000  10.000000  0
29.000000  4.500000  10.000000  0
30.500000  5.000000  9.000000  0
30.000000  5.000000  9.500000  0
29.000000  5.000000  9.500000  0
28.000000  4.500000  9.000000  0
28.500000  5.000000  9.000000  0
30.000000  5.000000  8.500000  0
29.000000  5.000000  8.500000  0
30.000000  5.500000  9.000000  0
29.000000  5.500000  9.000000  0
2 0 1 0
2 3 0 0
4 3 2 0
5 3 4 0
1 0 6 0
0 7 6 0
3 7 0 0
3 5 7 0
10 8 9 0
11 8 10 0
9 8 12 0
8 11 12 0
15 13 14 0
16 13 15 0
13 18 14 0
17 18 13 0
19 2 16 0
2 13 16 0
2 1 13 0
1 17 13 0
20 2 19 0
4 2 20 0
21 4 20 0
5 4 21 0
18 17 22 0
6 23 22 0
1 6 22 0
17 1 22 0
23 7 24 0
6 7 23 0
5 24 7 0
21 24 5 0
27 25 26 0
27 28 25 0
29 28 27 0
30 28 29 0
25 32 26 0
31 32 25 0
33 25 28 0
31 25 33 0
30 33 28 0
34 33 30 0
9 35 32 0
10 9 32 0
31 10 32 0
31 33 36 0
31 36 11 0
31 11 10 0
34 36 33 0
37 36 34 0
39 35 9 0
38 39 9 0
12 38 9 0
36 40 38 0
36 38 12 0
36 12 11 0
37 40 36 0
41 40 37 0
39 38 42 0
38 43 42 0
40 43 38 0
40 41 43 0
46 44 45 0
46 47 44 0
48 47 46 0
48 49 15 0
47 48 15 0
14 47 15 0
50 15 49 0
16 15 50 0
53 51 52 0
53 54 51 0
55 54 53 0
44 56 54 0
45 44 54 0
55 45 54 0
57 44 47 0
56 44 57 0
14 18 47 0
47 18 57 0
58 19 50 0
50 19 16 0
59 19 58 0
20 19 59 0
60 20 59 0
21 20 60 0
52 51 61 0
51 62 61 0
54 62 51 0
54 56 63 0
62 54 63 0
64 62 63 0
65 56 57 0
63 56 65 0
57 66 65 0
57 67 66 0
18 67 57 0
22 67 18 0
67 22 23 0
67 23 68 0
67 68 69 0
70 68 24 0
24 68 23 0
21 60 71 0
24 21 71 0
70 24 71 0
74 72 73 0
75 72 74 0
64 63 76 0
63 77 76 0
65 77 63 0
65 66 77 0
69 68 78 0
68 79 78 0
70 79 68 0
70 71 79 0
27 26 80 0
82 29 27 0
81 82 27 0
80 81 27 0
29 82 84 0
30 29 84 0
83 30 84 0
72 85 83 0
73 72 83 0
84 73 83 0
75 85 72 0
86 85 75 0
26 32 87 0
80 26 87 0
88 80 87 0
88 81 80 0
34 30 89 0
89 30 83 0
90 83 85 0
89 83 90 0
86 90 85 0
91 90 86 0
32 92 87 0
35 92 32 0
37 34 93 0
93 34 89 0
94 89 90 0
93 89 94 0
91 94 90 0
95 94 91 0
35 96 92 0
39 96 35 0
41 37 97 0
97 37 93 0
98 93 94 0
97 93 98 0
95 98 94 0
99 98 95 0
96 42 100 0
39 42 96 0
100 42 43 0
100 43 101 0
100 101 102 0
97 103 101 0
97 101 43 0
97 43 41 0
104 97 98 0
103 97 104 0
99 104 98 0
105 104 99 0
102 101 106 0
101 107 106 0
103 107 101 0
103 108 107 0
104 108 103 0
104 105 108 0
46 45 109 0
48 109 110 0
46 109 48 0
49 110 111 0
48 110 49 0
49 111 50 0
113 52 112 0
53 52 113 0
114 53 113 0
55 53 114 0
55 114 115 0
55 115 109 0
55 109 45 0
115 116 109 0
109 116 110 0
116 117 110 0
110 117 111 0
117 118 58 0
117 58 50 0
117 50 111 0
119 58 118 0
59 58 119 0
120 59 119 0
60 59 120 0
122 112 52 0
121 122 52 0
61 121 52 0
123 121 62 0
62 121 61 0
64 123 62 0
124 66 67 0
69 124 67 0
71 120 125 0
60 120 71 0
127 73 126 0
74 73 127 0
74 127 129 0
75 74 129 0
128 75 129 0
130 128 129 0
122 121 131 0
121 123 132 0
131 121 132 0
133 131 132 0
134 132 123 0
134 123 64 0
134 64 76 0
135 134 77 0
77 134 76 0
124 136 135 0
124 135 77 0
124 77 66 0
124 137 136 0
124 138 137 0
69 138 124 0
78 138 69 0
138 79 139 0
78 79 138 0
71 139 79 0
125 139 71 0
82 81 140 0
142 84 82 0
141 142 82 0
140 141 82 0
84 142 73 0
73 142 126 0
86 75 143 0
143 75 128 0
130 143 128 0
144 143 130 0
133 132 145 0
132 146 145 0
134 146 132 0
134 147 146 0
135 147 134 0
135 148 147 0
136 148 135 0
136 137 148 0
88 87 149 0
140 150 151 0
140 81 150 0
81 149 150 0
88 149 81 0
151 141 140 0
91 86 152 0
152 86 143 0
144 152 143 0
153 152 144 0
87 92 154 0
149 87 154 0
155 149 154 0
155 150 149 0
95 91 156 0
156 91 152 0
153 156 152 0
157 156 153 0
92 158 154 0
96 158 92 0
99 95 159 0
159 95 156 0
157 159 156 0
160 159 157 0
158 100 161 0
96 100 158 0
161 100 162 0
162 100 102 0
105 99 163 0
163 99 159 0
160 163 159 0
164 163 160 0
162 106 165 0
102 106 162 0
165 106 107 0
165 107 166 0
165 166 167 0
168 166 108 0
108 166 107 0
163 169 168 0
163 168 108 0
163 108 105 0
164 169 163 0
170 169 164 0
167 166 171 0
166 172 171 0
168 172 166 0
168 173 172 0
169 173 168 0
169 170 173 0
113 112 174 0
114 174 175 0
113 174 114 0
115 175 176 0
114 175 115 0
116 176 177 0
115 176 116 0
117 177 178 0
116 177 117 0
118 178 179 0
117 178 118 0
119 179 180 0
118 179 119 0
119 180 120 0
183 181 182 0
183 184 181 0
185 184 183 0
186 184 185 0
186 122 184 0
174 122 186 0
112 122 174 0
186 187 174 0
174 187 175 0
187 188 175 0
175 188 176 0
188 189 176 0
176 189 177 0
190 178 177 0
190 177 189 0
190 189 191 0
190 179 178 0
192 179 190 0
192 180 179 0
193 180 192 0
180 125 120 0
193 125 180 0
127 126 194 0
196 129 127 0
195 196 127 0
194 195 127 0
197 182 181 0
197 196 182 0
130 196 197 0
129 196 130 0
198 181 184 0
197 181 198 0
199 198 184 0
199 184 122 0
199 122 131 0
133 199 131 0
191 201 190 0
190 201 200 0
192 190 200 0
138 192 200 0
137 138 200 0
138 193 192 0
139 193 138 0
139 125 193 0
142 141 202 0
194 203 204 0
194 126 203 0
126 202 203 0
142 202 126 0
204 195 194 0
144 130 205 0
205 130 197 0
205 197 198 0
206 205 198 0
207 206 198 0
198 208 207 0
199 208 198 0
208 209 210 0
208 199 209 0
199 145 209 0
133 145 199 0
211 209 146 0
146 209 145 0
212 211 147 0
147 211 146 0
201 213 200 0
213 148 200 0
213 212 148 0
212 147 148 0
148 137 200 0
215 150 214 0
151 150 215 0
151 215 216 0
151 216 202 0
151 202 141 0
216 203 202 0
217 153 144 0
217 144 205 0
217 205 218 0
205 206 218 0
210 209 219 0
209 220 219 0
211 220 209 0
211 221 220 0
212 221 211 0
212 213 221 0
155 154 222 0
223 214 150 0
223 150 155 0
223 155 222 0
157 217 224 0
153 217 157 0
225 154 158 0
222 154 225 0
222 225 223 0
223 225 226 0
160 224 227 0
157 224 160 0
225 158 161 0
162 228 226 0
162 226 225 0
162 225 161 0
164 227 229 0
160 227 164 0
228 165 230 0
162 165 228 0
230 165 231 0
231 165 167 0
170 229 232 0
164 229 170 0
231 171 233 0
167 171 231 0
233 172 234 0
171 172 233 0
234 173 235 0
172 173 234 0
170 235 173 0
232 235 170 0
183 182 236 0
185 236 237 0
183 236 185 0
186 237 238 0
185 237 186 0
187 238 239 0
186 238 187 0
188 239 240 0
187 239 188 0
189 240 241 0
188 240 189 0
189 241 191 0
196 195 242 0
236 243 244 0
236 182 243 0
182 242 243 0
196 242 182 0
244 245 236 0
236 245 237 0
245 246 237 0
237 246 238 0
247 239 238 0
247 238 246 0
247 246 248 0
247 240 239 0
249 240 247 0
249 241 240 0
250 241 249 0
241 201 191 0
250 201 241 0
204 203 251 0
242 252 253 0
242 195 252 0
195 251 252 0
204 251 195 0
253 243 242 0
254 206 207 0
255 254 208 0
208 254 207 0
248 208 247 0
248 257 208 0
257 255 208 0
247 208 256 0
256 208 210 0
256 249 247 0
258 249 256 0
258 250 249 0
259 250 258 0
250 213 201 0
259 213 250 0
215 214 260 0
262 216 215 0
261 262 215 0
260 261 215 0
216 262 263 0
216 263 251 0
216 251 203 0
263 252 251 0
264 217 218 0
254 265 264 0
254 264 218 0
254 218 206 0
265 254 255 0
266 265 255 0
267 266 255 0
267 255 257 0
219 256 210 0
219 258 256 0
220 258 219 0
220 259 258 0
221 259 220 0
221 213 259 0
214 223 268 0
260 214 268 0
269 260 268 0
269 261 260 0
224 217 270 0
270 217 264 0
270 264 265 0
271 270 265 0
272 271 265 0
265 266 272 0
223 273 268 0
226 273 223 0
227 224 274 0
274 224 270 0
271 274 270 0
275 274 271 0
226 276 273 0
228 276 226 0
229 227 277 0
277 227 274 0
275 277 274 0
278 277 275 0
276 230 279 0
228 230 276 0
279 230 280 0
280 230 231 0
232 229 281 0
281 229 277 0
278 281 277 0
282 281 278 0
280 233 283 0
231 233 280 0
283 234 284 0
233 234 283 0
284 235 285 0
234 235 284 0
286 285 235 0
281 286 235 0
232 281 235 0
281 282 286 0
244 243 287 0
245 287 288 0
244 287 245 0
246 288 289 0
245 288 246 0
246 289 248 0
253 252 290 0
287 291 292 0
287 243 291 0
243 290 291 0
253 290 243 0
292 293 287 0
287 293 288 0
294 289 288 0
294 288 293 0
294 293 295 0
289 257 248 0
294 257 289 0
262 261 296 0
263 296 297 0
262 296 263 0
290 298 299 0
290 252 298 0
252 297 298 0
263 297 252 0
299 291 290 0
295 300 266 0
295 266 267 0
295 267 294 0
267 257 294 0
269 268 301 0
301 302 296 0
269 301 296 0
261 269 296 0
297 296 302 0
297 302 303 0
297 303 304 0
304 298 297 0
305 271 306 0
306 271 272 0
266 306 272 0
300 306 266 0
307 268 273 0
301 268 307 0
302 301 307 0
302 307 308 0
302 308 309 0
309 303 302 0
275 305 310 0
271 305 275 0
311 273 276 0
307 273 311 0
307 311 308 0
308 311 312 0
278 310 313 0
275 310 278 0
311 276 279 0
280 314 312 0
280 312 311 0
280 311 279 0
282 313 315 0
278 313 282 0
314 283 316 0
280 283 314 0
316 284 317 0
283 284 316 0
317 285 318 0
284 285 317 0
318 286 319 0
285 286 318 0
282 319 286 0
315 319 282 0
292 291 320 0
293 320 321 0
292 320 293 0
293 321 295 0
299 298 322 0
322 323 320 0
299 322 320 0
291 299 320 0
323 321 320 0
324 321 323 0
321 300 295 0
324 300 321 0
304 303 325 0
325 326 322 0
304 325 322 0
298 304 322 0
326 323 322 0
327 323 326 0
324 323 327 0
306 324 327 0
305 306 327 0
306 300 324 0
309 308 328 0
325 329 330 0
325 303 329 0
303 328 329 0
309 328 303 0
330 331 325 0
325 331 326 0
332 327 326 0
332 326 331 0
332 331 333 0
327 310 305 0
332 310 327 0
334 308 312 0
328 308 334 0
328 334 329 0
329 334 335 0
333 337 332 0
332 337 336 0
332 313 310 0
336 313 332 0
338 312 314 0
334 312 338 0
334 338 335 0
335 338 339 0
340 336 337 0
341 315 313 0
340 341 313 0
336 340 313 0
338 314 316 0
316 317 342 0
338 316 342 0
339 338 342 0
342 318 343 0
317 318 342 0
343 319 344 0
318 319 343 0
315 344 319 0
341 344 315 0
330 329 345 0
331 345 346 0
330 345 331 0
331 346 333 0
347 329 335 0
345 329 347 0
347 346 345 0
348 346 347 0
346 337 333 0
348 337 346 0
335 339 349 0
347 335 349 0
350 347 349 0
350 351 347 0
347 351 348 0
351 337 348 0
351 353 337 0
353 340 337 0
352 340 353 0
340 352 341 0
349 342 354 0
339 342 349 0
354 343 355 0
342 343 354 0
355 343 344 0
353 355 344 0
352 353 344 0
344 341 352 0
350 349 356 0
351 356 357 0
350 356 351 0
351 357 353 0
356 349 354 0
354 357 356 0
355 357 354 0
355 353 357 0
