#!ascii version of 
9178 18372
7259 7495 7496 0
7259 7496 7494 0
7258 7259 7494 0
7493 7258 7494 0
7481 7497 7480 0
7497 7260 7480 0
7497 7495 7260 0
7495 7259 7260 0
7260 7254 7480 0
7482 7257 7261 0
7261 7483 7482 0
7263 7483 7261 0
7498 7484 7483 0
7264 7498 7483 0
7263 7264 7483 0
7498 7485 7484 0
7499 7485 7498 0
7487 7485 7499 0
7267 7487 7499 0
7266 7267 7499 0
7267 7269 7500 0
7487 7267 7500 0
7489 7487 7500 0
7500 7271 7501 0
7269 7271 7500 0
7503 7501 7271 0
7503 7271 7272 0
7503 7272 7502 0
7502 7504 7503 0
7503 7504 7505 0
7504 7506 7505 0
7505 7506 7507 0
7275 7508 7507 0
7275 7507 7506 0
7275 7506 7274 0
7508 7277 7509 0
7275 7277 7508 0
7509 7279 7510 0
7277 7279 7509 0
7510 7280 7511 0
7279 7280 7510 0
7511 7281 7512 0
7280 7281 7511 0
7512 7282 7513 0
7281 7282 7512 0
7515 7513 7282 0
7515 7282 7283 0
7515 7283 7514 0
7514 7516 7490 0
7514 7490 7491 0
7514 7491 7515 0
7516 7493 7490 0
7517 7493 7516 0
7518 7519 7495 0
7519 7496 7495 0
7517 7284 7258 0
7493 7517 7258 0
7497 7518 7495 0
7520 7518 7497 0
7498 7264 7286 0
7286 7499 7498 0
7288 7499 7286 0
7288 7266 7499 0
7502 7272 7293 0
7293 7504 7502 0
7295 7504 7293 0
7295 7506 7504 0
7297 7506 7295 0
7297 7274 7506 0
7514 7283 7301 0
7301 7516 7514 0
7302 7516 7301 0
7302 7517 7516 0
7303 7517 7302 0
7303 7284 7517 0
7521 7519 7518 0
7518 7520 7521 0
7523 7312 7522 0
7313 7312 7523 0
7524 7313 7523 0
7314 7313 7524 0
7316 7315 7525 0
7527 7317 7316 0
7526 7527 7316 0
7525 7526 7316 0
7522 7528 7527 0
7522 7312 7528 0
7312 7319 7528 0
7527 7528 7317 0
7317 7528 7318 0
7314 7524 7529 0
7319 7314 7529 0
7528 7319 7529 0
7315 7322 7530 0
7525 7315 7530 0
7531 7525 7530 0
7531 7526 7525 0
7532 7323 7318 0
7532 7318 7528 0
7532 7528 7533 0
7528 7529 7533 0
7325 7324 7534 0
7325 7534 7327 0
7536 7329 7535 0
7330 7329 7536 0
7537 7330 7536 0
7332 7330 7537 0
7332 7537 7322 0
7322 7537 7530 0
7333 7532 7538 0
7323 7532 7333 0
7336 7335 7539 0
7539 7540 7534 0
7336 7539 7534 0
7324 7336 7534 0
7534 7338 7327 0
7540 7338 7534 0
7329 7541 7535 0
7339 7541 7329 0
7542 7340 7538 0
7538 7340 7333 0
7340 7542 7335 0
7542 7539 7335 0
7542 7544 7539 0
7544 7543 7539 0
7540 7539 7543 0
7343 7540 7543 0
7342 7343 7543 0
7343 7338 7540 0
7339 7545 7541 0
7345 7545 7339 0
7547 7546 7548 0
7546 7549 7543 0
7546 7543 7544 0
7546 7544 7548 0
7543 7347 7342 0
7549 7347 7543 0
7350 7349 7550 0
7351 7550 7551 0
7350 7550 7351 0
7352 7551 7552 0
7351 7551 7352 0
7353 7552 7553 0
7352 7552 7353 0
7353 7553 7354 0
7555 7355 7554 0
7356 7355 7555 0
7556 7356 7555 0
7357 7356 7556 0
7357 7556 7345 0
7345 7556 7545 0
7547 7558 7546 0
7546 7558 7557 0
7557 7549 7546 0
7559 7549 7557 0
7549 7359 7347 0
7559 7359 7549 0
7361 7360 7560 0
7560 7561 7550 0
7361 7560 7550 0
7349 7361 7550 0
7561 7551 7550 0
7562 7551 7561 0
7562 7552 7551 0
7563 7552 7562 0
7563 7553 7552 0
7564 7553 7563 0
7553 7362 7354 0
7564 7362 7553 0
7566 7363 7565 0
7364 7363 7566 0
7364 7566 7355 0
7355 7566 7554 0
7558 7567 7366 0
7558 7366 7367 0
7558 7367 7557 0
7367 7559 7557 0
7369 7559 7367 0
7369 7359 7559 0
7568 7360 7371 0
7560 7360 7568 0
7568 7561 7560 0
7569 7561 7568 0
7569 7562 7561 0
7570 7562 7569 0
7570 7563 7562 0
7571 7563 7570 0
7564 7563 7571 0
7374 7564 7571 0
7373 7374 7571 0
7374 7362 7564 0
7573 7376 7572 0
7377 7376 7573 0
7574 7377 7573 0
7379 7377 7574 0
7379 7574 7363 0
7363 7574 7565 0
7381 7567 7575 0
7366 7567 7381 0
7568 7371 7385 0
7385 7569 7568 0
7387 7569 7385 0
7387 7570 7569 0
7389 7570 7387 0
7389 7571 7570 0
7391 7571 7389 0
7391 7373 7571 0
7376 7576 7572 0
7393 7576 7376 0
7395 7575 7577 0
7381 7575 7395 0
7393 7578 7576 0
7401 7578 7393 0
7403 7577 7579 0
7395 7577 7403 0
7581 7409 7580 0
7410 7409 7581 0
7582 7410 7581 0
7411 7410 7582 0
7583 7411 7582 0
7412 7411 7583 0
7584 7412 7583 0
7413 7412 7584 0
7413 7584 7401 0
7401 7584 7578 0
7415 7579 7585 0
7403 7579 7415 0
7409 7586 7580 0
7419 7586 7409 0
7421 7585 7587 0
7415 7585 7421 0
7589 7424 7588 0
7425 7424 7589 0
7425 7589 7419 0
7419 7589 7586 0
7426 7587 7590 0
7421 7587 7426 0
7592 7429 7591 0
7430 7429 7592 0
7430 7592 7424 0
7424 7592 7588 0
7431 7590 7593 0
7426 7590 7431 0
7433 7432 7594 0
7434 7594 7595 0
7433 7594 7434 0
7597 7435 7434 0
7596 7597 7434 0
7595 7596 7434 0
7435 7597 7429 0
7429 7597 7591 0
7436 7593 7598 0
7431 7593 7436 0
7441 7440 7599 0
7594 7600 7601 0
7594 7432 7600 0
7432 7599 7600 0
7441 7599 7432 0
7601 7602 7594 0
7594 7602 7595 0
7602 7596 7595 0
7442 7598 7603 0
7436 7598 7442 0
7444 7443 7604 0
7445 7604 7605 0
7444 7604 7445 0
7446 7605 7606 0
7445 7605 7446 0
7599 7607 7608 0
7599 7440 7607 0
7440 7606 7607 0
7446 7606 7440 0
7608 7600 7599 0
7447 7603 7609 0
7442 7603 7447 0
7443 7449 7610 0
7604 7443 7610 0
7611 7604 7610 0
7611 7612 7604 0
7604 7612 7605 0
7612 7613 7605 0
7605 7613 7606 0
7613 7607 7606 0
7451 7609 7614 0
7447 7609 7451 0
7610 7452 7615 0
7449 7452 7610 0
7615 7453 7616 0
7452 7453 7615 0
7616 7455 7617 0
7453 7455 7616 0
7617 7455 7618 0
7618 7455 7456 0
7619 7458 7620 0
7620 7458 7459 0
7620 7461 7621 0
7459 7461 7620 0
7451 7621 7461 0
7614 7621 7451 0
7456 7622 7618 0
7463 7622 7456 0
7465 7619 7623 0
7458 7619 7465 0
7463 7624 7622 0
7467 7624 7463 0
7469 7623 7625 0
7465 7623 7469 0
7467 7626 7624 0
7472 7626 7467 0
7474 7625 7627 0
7469 7625 7474 0
7626 7472 7479 0
7629 7626 7479 0
7628 7629 7479 0
7629 7628 7630 0
7481 7627 7631 0
7474 7627 7481 0
7628 7479 7486 0
7486 7488 7632 0
7628 7486 7632 0
7630 7628 7632 0
7634 7632 7488 0
7634 7488 7489 0
7634 7489 7633 0
7633 7635 7634 0
7634 7635 7636 0
7636 7635 7637 0
7638 7491 7639 0
7639 7491 7492 0
7639 7494 7640 0
7492 7494 7639 0
7640 7494 7641 0
7641 7494 7496 0
7497 7631 7642 0
7481 7631 7497 0
7633 7489 7500 0
7500 7635 7633 0
7501 7635 7500 0
7501 7503 7643 0
7635 7501 7643 0
7637 7635 7643 0
7643 7505 7644 0
7503 7505 7643 0
7644 7507 7645 0
7505 7507 7644 0
7645 7508 7646 0
7507 7508 7645 0
7646 7509 7647 0
7508 7509 7646 0
7647 7510 7648 0
7509 7510 7647 0
7648 7511 7649 0
7510 7511 7648 0
7649 7512 7650 0
7511 7512 7649 0
7650 7513 7651 0
7512 7513 7650 0
7651 7513 7515 0
7651 7515 7652 0
7651 7652 7653 0
7491 7638 7654 0
7515 7491 7654 0
7652 7515 7654 0
7496 7655 7641 0
7519 7655 7496 0
7520 7642 7656 0
7497 7642 7520 0
7653 7652 7657 0
7652 7654 7657 0
7655 7521 7658 0
7519 7521 7655 0
7520 7658 7521 0
7656 7658 7520 0
7523 7522 7659 0
7523 7659 7524 0
7661 7526 7660 0
7527 7526 7661 0
7527 7661 7522 0
7661 7659 7522 0
7661 7663 7659 0
7663 7662 7659 0
7659 7529 7524 0
7662 7529 7659 0
7665 7530 7664 0
7531 7530 7665 0
7531 7665 7526 0
7526 7665 7660 0
7663 7666 7532 0
7663 7532 7533 0
7663 7533 7662 0
7533 7529 7662 0
7668 7535 7667 0
7536 7535 7668 0
7669 7536 7668 0
7537 7536 7669 0
7537 7669 7530 0
7530 7669 7664 0
7538 7666 7670 0
7532 7666 7538 0
7535 7671 7667 0
7541 7671 7535 0
7538 7670 7673 0
7538 7673 7672 0
7538 7672 7542 0
7542 7672 7544 0
7541 7674 7671 0
7545 7674 7541 0
7673 7675 7547 0
7673 7547 7548 0
7673 7548 7672 0
7548 7544 7672 0
7677 7554 7676 0
7555 7554 7677 0
7678 7555 7677 0
7556 7555 7678 0
7556 7678 7545 0
7545 7678 7674 0
7558 7675 7679 0
7547 7675 7558 0
7566 7565 7680 0
7681 7676 7554 0
7681 7554 7566 0
7681 7566 7680 0
7683 7682 7684 0
7567 7558 7679 0
7682 7567 7679 0
7684 7682 7679 0
7573 7572 7685 0
7687 7574 7573 0
7686 7687 7573 0
7685 7686 7573 0
7574 7687 7688 0
7574 7688 7680 0
7574 7680 7565 0
7688 7681 7680 0
7690 7689 7691 0
7689 7692 7682 0
7689 7682 7683 0
7689 7683 7691 0
7682 7575 7567 0
7692 7575 7682 0
7572 7576 7693 0
7685 7572 7693 0
7694 7685 7693 0
7694 7686 7685 0
7690 7696 7689 0
7689 7696 7695 0
7695 7692 7689 0
7697 7692 7695 0
7692 7577 7575 0
7697 7577 7692 0
7576 7698 7693 0
7578 7698 7576 0
7699 7695 7696 0
7699 7700 7695 0
7695 7700 7697 0
7701 7579 7577 0
7700 7701 7577 0
7697 7700 7577 0
7703 7580 7702 0
7581 7580 7703 0
7704 7581 7703 0
7582 7581 7704 0
7705 7582 7704 0
7583 7582 7705 0
7706 7583 7705 0
7584 7583 7706 0
7584 7706 7578 0
7578 7706 7698 0
7708 7707 7709 0
7585 7579 7701 0
7707 7585 7701 0
7709 7707 7701 0
7580 7710 7702 0
7586 7710 7580 0
7708 7712 7707 0
7707 7712 7711 0
7707 7587 7585 0
7711 7587 7707 0
7714 7588 7713 0
7589 7588 7714 0
7589 7714 7586 0
7586 7714 7710 0
7715 7711 7712 0
7716 7590 7587 0
7715 7716 7587 0
7711 7715 7587 0
7718 7591 7717 0
7592 7591 7718 0
7592 7718 7588 0
7588 7718 7713 0
7593 7716 7719 0
7590 7716 7593 0
7721 7596 7720 0
7597 7596 7721 0
7597 7721 7591 0
7591 7721 7717 0
7598 7719 7722 0
7593 7719 7598 0
7724 7600 7723 0
7601 7600 7724 0
7725 7601 7724 0
7602 7601 7725 0
7602 7725 7596 0
7596 7725 7720 0
7603 7722 7726 0
7598 7722 7603 0
7728 7607 7727 0
7608 7607 7728 0
7608 7728 7600 0
7600 7728 7723 0
7609 7726 7729 0
7603 7726 7609 0
7611 7610 7730 0
7612 7730 7731 0
7611 7730 7612 0
7733 7613 7612 0
7732 7733 7612 0
7731 7732 7612 0
7613 7733 7607 0
7607 7733 7727 0
7614 7729 7734 0
7609 7729 7614 0
7730 7610 7615 0
7615 7731 7730 0
7616 7731 7615 0
7736 7737 7735 0
7738 7732 7617 0
7738 7735 7732 0
7735 7737 7732 0
7617 7732 7616 0
7616 7732 7731 0
7618 7738 7617 0
7739 7619 7740 0
7740 7619 7620 0
7740 7621 7741 0
7620 7621 7740 0
7614 7741 7621 0
7734 7741 7614 0
7736 7735 7742 0
7735 7743 7742 0
7738 7743 7735 0
7618 7622 7744 0
7618 7744 7743 0
7618 7743 7738 0
7623 7739 7745 0
7619 7739 7623 0
7622 7746 7744 0
7624 7746 7622 0
7625 7745 7747 0
7623 7745 7625 0
7746 7624 7626 0
7749 7746 7626 0
7748 7749 7626 0
7748 7750 7749 0
7749 7750 7751 0
7751 7750 7752 0
7627 7747 7753 0
7625 7747 7627 0
7748 7626 7629 0
7754 7750 7748 0
7630 7754 7748 0
7629 7630 7748 0
7750 7754 7752 0
7752 7754 7755 0
7631 7753 7756 0
7627 7753 7631 0
7754 7630 7632 0
7632 7634 7757 0
7754 7632 7757 0
7755 7754 7757 0
7757 7636 7758 0
7634 7636 7757 0
7760 7758 7636 0
7760 7636 7637 0
7760 7637 7759 0
7759 7761 7760 0
7760 7761 7762 0
7761 7763 7762 0
7762 7763 7764 0
7764 7763 7765 0
7766 7638 7639 0
7767 7766 7640 0
7640 7766 7639 0
7641 7767 7640 0
7642 7756 7768 0
7631 7756 7642 0
7759 7637 7643 0
7643 7761 7759 0
7644 7761 7643 0
7644 7763 7761 0
7645 7763 7644 0
7645 7646 7769 0
7763 7645 7769 0
7765 7763 7769 0
7769 7647 7770 0
7646 7647 7769 0
7770 7648 7771 0
7647 7648 7770 0
7771 7649 7772 0
7648 7649 7771 0
7772 7650 7773 0
7649 7650 7772 0
7773 7650 7651 0
7773 7651 7774 0
7773 7774 7775 0
7653 7774 7651 0
7654 7638 7776 0
7776 7638 7766 0
7777 7766 7767 0
7776 7766 7777 0
7641 7655 7767 0
7767 7655 7777 0
7656 7768 7778 0
7642 7768 7656 0
7775 7774 7779 0
7657 7780 7779 0
7653 7657 7779 0
7774 7653 7779 0
7781 7780 7657 0
7776 7781 7657 0
7654 7776 7657 0
7776 7782 7781 0
7777 7782 7776 0
7658 7783 7782 0
7655 7658 7782 0
7777 7655 7782 0
7656 7783 7658 0
7778 7783 7656 0
7661 7660 7784 0
7661 7784 7663 0
7665 7664 7785 0
7785 7786 7784 0
7665 7785 7784 0
7660 7665 7784 0
7784 7666 7663 0
7786 7666 7784 0
7668 7667 7787 0
7669 7787 7788 0
7668 7787 7669 0
7788 7789 7785 0
7669 7788 7785 0
7664 7669 7785 0
7789 7786 7785 0
7790 7786 7789 0
7786 7670 7666 0
7790 7670 7786 0
7791 7667 7671 0
7787 7667 7791 0
7788 7787 7791 0
7788 7791 7792 0
7788 7792 7793 0
7794 7789 7788 0
7794 7788 7793 0
7794 7793 7795 0
7794 7790 7789 0
7796 7790 7794 0
7790 7673 7670 0
7796 7673 7790 0
7799 7797 7798 0
7800 7797 7799 0
7800 7674 7797 0
7791 7674 7800 0
7671 7674 7791 0
7800 7792 7791 0
7795 7802 7794 0
7794 7802 7801 0
7801 7796 7794 0
7803 7796 7801 0
7796 7675 7673 0
7803 7675 7796 0
7805 7676 7804 0
7677 7676 7805 0
7678 7677 7805 0
7678 7805 7798 0
7678 7798 7797 0
7797 7674 7678 0
7802 7807 7801 0
7801 7807 7806 0
7806 7803 7801 0
7808 7803 7806 0
7803 7679 7675 0
7808 7679 7803 0
7676 7809 7804 0
7681 7809 7676 0
7807 7811 7806 0
7806 7811 7810 0
7808 7806 7810 0
7684 7808 7810 0
7683 7684 7810 0
7684 7679 7808 0
7814 7812 7813 0
7814 7815 7687 0
7812 7814 7687 0
7686 7812 7687 0
7816 7687 7815 0
7688 7687 7816 0
7688 7816 7681 0
7681 7816 7809 0
7811 7817 7690 0
7811 7690 7691 0
7811 7691 7810 0
7691 7683 7810 0
7693 7818 7813 0
7694 7693 7813 0
7812 7694 7813 0
7812 7686 7694 0
7696 7817 7819 0
7690 7817 7696 0
7693 7820 7818 0
7698 7820 7693 0
7821 7699 7819 0
7819 7699 7696 0
7700 7699 7821 0
7822 7700 7821 0
7823 7822 7821 0
7700 7822 7701 0
7703 7702 7824 0
7826 7704 7703 0
7825 7826 7703 0
7824 7825 7703 0
7827 7704 7826 0
7705 7704 7827 0
7828 7705 7827 0
7706 7705 7828 0
7706 7828 7698 0
7698 7828 7820 0
7823 7829 7708 0
7823 7708 7709 0
7823 7709 7822 0
7709 7701 7822 0
7830 7702 7710 0
7824 7702 7830 0
7824 7830 7825 0
7825 7830 7831 0
7712 7829 7832 0
7708 7829 7712 0
7714 7713 7833 0
7830 7834 7835 0
7830 7710 7834 0
7710 7833 7834 0
7714 7833 7710 0
7835 7831 7830 0
7836 7715 7832 0
7832 7715 7712 0
7837 7715 7836 0
7716 7715 7837 0
7839 7717 7838 0
7718 7717 7839 0
7718 7839 7840 0
7718 7840 7833 0
7718 7833 7713 0
7840 7834 7833 0
7719 7837 7841 0
7716 7837 7719 0
7843 7720 7842 0
7721 7720 7843 0
7721 7843 7717 0
7717 7843 7838 0
7722 7841 7844 0
7719 7841 7722 0
7724 7723 7845 0
7725 7845 7846 0
7724 7845 7725 0
7847 7842 7720 0
7847 7720 7725 0
7847 7725 7846 0
7726 7844 7848 0
7722 7844 7726 0
7850 7727 7849 0
7728 7727 7850 0
7728 7850 7851 0
7728 7851 7845 0
7728 7845 7723 0
7851 7852 7845 0
7845 7852 7846 0
7852 7847 7846 0
7729 7848 7853 0
7726 7848 7729 0
7855 7732 7854 0
7733 7732 7855 0
7733 7855 7727 0
7727 7855 7849 0
7734 7853 7856 0
7729 7853 7734 0
7737 7736 7857 0
7732 7859 7854 0
7732 7858 7859 0
7737 7858 7732 0
7857 7858 7737 0
7859 7858 7860 0
7861 7739 7862 0
7862 7739 7740 0
7862 7741 7863 0
7740 7741 7862 0
7734 7863 7741 0
7856 7863 7734 0
7857 7736 7742 0
7742 7858 7857 0
7743 7858 7742 0
7858 7865 7860 0
7858 7743 7865 0
7743 7864 7865 0
7744 7864 7743 0
7865 7864 7866 0
7745 7861 7867 0
7739 7861 7745 0
7868 7744 7746 0
7864 7744 7868 0
7864 7868 7869 0
7864 7869 7870 0
7864 7870 7866 0
7870 7869 7871 0
7747 7867 7872 0
7745 7867 7747 0
7868 7746 7749 0
7749 7869 7868 0
7751 7869 7749 0
7869 7874 7871 0
7869 7751 7874 0
7751 7873 7874 0
7752 7873 7751 0
7873 7875 7874 0
7874 7875 7876 0
7875 7877 7876 0
7876 7877 7878 0
7878 7877 7879 0
7753 7872 7880 0
7747 7872 7753 0
7881 7752 7755 0
7873 7752 7881 0
7881 7875 7873 0
7882 7875 7881 0
7882 7877 7875 0
7883 7877 7882 0
7877 7883 7884 0
7877 7884 7885 0
7877 7885 7879 0
7885 7884 7886 0
7756 7880 7887 0
7753 7880 7756 0
7881 7755 7757 0
7757 7882 7881 0
7758 7882 7757 0
7758 7883 7882 0
7760 7883 7758 0
7760 7884 7883 0
7762 7884 7760 0
7762 7764 7888 0
7884 7762 7888 0
7886 7884 7888 0
7890 7888 7764 0
7890 7764 7765 0
7890 7765 7889 0
7889 7891 7890 0
7890 7891 7892 0
7892 7891 7893 0
7768 7887 7894 0
7756 7887 7768 0
7889 7765 7769 0
7769 7891 7889 0
7770 7891 7769 0
7770 7771 7895 0
7891 7770 7895 0
7893 7891 7895 0
7895 7771 7772 0
7895 7772 7896 0
7895 7896 7897 0
7898 7896 7773 0
7773 7896 7772 0
7775 7898 7773 0
7778 7894 7899 0
7768 7894 7778 0
7897 7896 7900 0
7896 7901 7900 0
7898 7901 7896 0
7779 7902 7901 0
7775 7779 7901 0
7898 7775 7901 0
7902 7780 7903 0
7779 7780 7902 0
7903 7781 7904 0
7780 7781 7903 0
7904 7782 7905 0
7781 7782 7904 0
7905 7783 7906 0
7782 7783 7905 0
7778 7906 7783 0
7899 7906 7778 0
7909 7907 7908 0
7909 7910 7793 0
7907 7909 7793 0
7792 7907 7793 0
7911 7793 7910 0
7795 7793 7911 0
7913 7798 7912 0
7799 7798 7913 0
7800 7799 7913 0
7800 7913 7908 0
7800 7908 7907 0
7907 7792 7800 0
7802 7911 7914 0
7795 7911 7802 0
7916 7804 7915 0
7805 7804 7916 0
7805 7916 7798 0
7798 7916 7912 0
7807 7914 7917 0
7802 7914 7807 0
7804 7918 7915 0
7809 7918 7804 0
7811 7917 7919 0
7807 7917 7811 0
7921 7813 7920 0
7814 7813 7921 0
7922 7814 7921 0
7815 7814 7922 0
7923 7815 7922 0
7816 7815 7923 0
7816 7923 7809 0
7809 7923 7918 0
7925 7924 7926 0
7817 7811 7919 0
7924 7817 7919 0
7926 7924 7919 0
7813 7927 7920 0
7818 7927 7813 0
7929 7928 7930 0
7928 7931 7924 0
7928 7924 7925 0
7928 7925 7930 0
7924 7819 7817 0
7931 7819 7924 0
7818 7932 7927 0
7820 7932 7818 0
7929 7934 7928 0
7928 7934 7933 0
7933 7931 7928 0
7935 7931 7933 0
7931 7935 7936 0
7819 7931 7936 0
7821 7819 7936 0
7821 7936 7823 0
7938 7825 7937 0
7826 7825 7938 0
7939 7826 7938 0
7827 7826 7939 0
7940 7827 7939 0
7828 7827 7940 0
7828 7940 7820 0
7820 7940 7932 0
7941 7933 7934 0
7941 7942 7933 0
7933 7942 7935 0
7942 7943 7935 0
7935 7943 7936 0
7944 7829 7823 0
7943 7944 7823 0
7936 7943 7823 0
7825 7945 7937 0
7831 7945 7825 0
7832 7829 7944 0
7832 7944 7947 0
7832 7947 7946 0
7948 7946 7947 0
7950 7834 7949 0
7835 7834 7950 0
7835 7950 7831 0
7831 7950 7945 0
7836 7832 7946 0
7948 7951 7837 0
7946 7948 7837 0
7836 7946 7837 0
7953 7838 7952 0
7839 7838 7953 0
7954 7839 7953 0
7840 7839 7954 0
7840 7954 7834 0
7834 7954 7949 0
7841 7951 7955 0
7837 7951 7841 0
7843 7842 7956 0
7957 7952 7838 0
7957 7838 7843 0
7957 7843 7956 0
7844 7955 7958 0
7841 7955 7844 0
7959 7842 7847 0
7956 7842 7959 0
7956 7959 7957 0
7957 7959 7960 0
7848 7958 7961 0
7844 7958 7848 0
7850 7849 7962 0
7851 7962 7963 0
7850 7962 7851 0
7852 7963 7964 0
7851 7963 7852 0
7959 7965 7966 0
7959 7847 7965 0
7847 7964 7965 0
7852 7964 7847 0
7966 7960 7959 0
7968 7967 7969 0
7853 7848 7961 0
7967 7853 7961 0
7969 7967 7961 0
7855 7854 7970 0
7970 7971 7962 0
7855 7970 7962 0
7849 7855 7962 0
7963 7962 7971 0
7963 7971 7972 0
7963 7972 7973 0
7973 7974 7963 0
7963 7974 7964 0
7974 7965 7964 0
7968 7976 7967 0
7967 7976 7975 0
7967 7856 7853 0
7975 7856 7967 0
7970 7854 7859 0
7977 7971 7970 0
7860 7977 7970 0
7859 7860 7970 0
7971 7977 7978 0
7971 7978 7979 0
7971 7979 7972 0
7979 7978 7980 0
7981 7861 7982 0
7982 7861 7862 0
7982 7862 7863 0
7976 7982 7863 0
7975 7976 7863 0
7863 7856 7975 0
7977 7860 7865 0
7983 7978 7977 0
7866 7983 7977 0
7865 7866 7977 0
7978 7983 7980 0
7980 7983 7984 0
7867 7981 7985 0
7861 7981 7867 0
7983 7866 7870 0
7871 7986 7984 0
7871 7984 7983 0
7871 7983 7870 0
7872 7985 7987 0
7867 7985 7872 0
7986 7874 7988 0
7871 7874 7986 0
7988 7876 7989 0
7874 7876 7988 0
7989 7878 7990 0
7876 7878 7989 0
7992 7990 7878 0
7992 7878 7879 0
7992 7879 7991 0
7992 7991 7993 0
7880 7987 7994 0
7872 7987 7880 0
7991 7879 7885 0
7991 7996 7993 0
7991 7885 7996 0
7885 7995 7996 0
7886 7995 7885 0
7996 7995 7997 0
7887 7994 7998 0
7880 7994 7887 0
7995 7886 7888 0
7888 7890 7999 0
7995 7888 7999 0
7997 7995 7999 0
7999 7892 8000 0
7890 7892 7999 0
8002 8000 7892 0
8002 7892 7893 0
8002 7893 8001 0
8002 8001 8003 0
7894 7998 8004 0
7887 7998 7894 0
8001 7893 7895 0
7897 8005 8003 0
7897 8003 8001 0
7897 8001 7895 0
7899 8004 8006 0
7894 8004 7899 0
8005 7900 8007 0
7897 7900 8005 0
8007 7901 8008 0
7900 7901 8007 0
8008 7902 8009 0
7901 7902 8008 0
8009 7903 8010 0
7902 7903 8009 0
8010 7904 8011 0
7903 7904 8010 0
8011 7905 8012 0
7904 7905 8011 0
8012 7906 8013 0
7905 7906 8012 0
7899 8013 7906 0
8006 8013 7899 0
7909 7908 8014 0
7910 8014 8015 0
7909 8014 7910 0
7910 8015 7911 0
7913 7912 8016 0
8016 8017 8014 0
7913 8016 8014 0
7908 7913 8014 0
8017 8015 8014 0
8018 8015 8017 0
8015 7914 7911 0
8018 7914 8015 0
8020 7915 8019 0
7916 7915 8020 0
7916 8020 8021 0
7916 8021 8016 0
7916 8016 7912 0
8022 8017 8016 0
8022 8016 8021 0
8022 8021 8023 0
8022 8018 8017 0
8024 8018 8022 0
8018 7917 7914 0
8024 7917 8018 0
7915 8025 8019 0
7918 8025 7915 0
8023 8027 8022 0
8022 8027 8026 0
8026 8024 8022 0
8028 8024 8026 0
8024 7919 7917 0
8028 7919 8024 0
7921 7920 8029 0
8031 7922 7921 0
8030 8031 7921 0
8029 8030 7921 0
8032 7922 8031 0
7923 7922 8032 0
7923 8032 7918 0
7918 8032 8025 0
8027 8034 8026 0
8026 8034 8033 0
8028 8026 8033 0
7926 8028 8033 0
7925 7926 8033 0
7926 7919 8028 0
8037 8035 8036 0
8038 8035 8037 0
8038 7927 8035 0
8029 7927 8038 0
7920 7927 8029 0
8038 8030 8029 0
8034 8039 7929 0
8034 7929 7930 0
8034 7930 8033 0
7930 7925 8033 0
8035 8041 8036 0
8040 8041 8035 0
7927 7932 8035 0
8035 7932 8040 0
7934 8039 8042 0
7929 8039 7934 0
8045 8043 8044 0
8046 8043 8045 0
7938 7937 8047 0
8049 7939 7938 0
8048 8049 7938 0
8047 8048 7938 0
7940 7939 8049 0
7940 8049 8041 0
7940 8041 8040 0
8040 7932 7940 0
8050 7941 8042 0
8042 7941 7934 0
7942 7941 8050 0
7942 8050 8044 0
7942 8044 8043 0
7942 8051 7943 0
7942 8052 8051 0
8043 8052 7942 0
8046 8052 8043 0
7943 8051 7944 0
7937 7945 8053 0
8047 7937 8053 0
8054 8047 8053 0
8054 8048 8047 0
8052 8056 8051 0
8051 8056 8055 0
8051 8055 8057 0
7944 8051 8057 0
7947 7944 8057 0
7947 8057 7948 0
7950 7949 8058 0
8059 8053 7945 0
8059 7945 7950 0
8059 7950 8058 0
8056 8061 8055 0
8055 8061 8060 0
8060 8057 8055 0
8062 8057 8060 0
8057 7951 7948 0
8062 7951 8057 0
8064 7952 8063 0
7953 7952 8064 0
8065 7953 8064 0
7954 7953 8065 0
7954 8065 8066 0
7954 8066 8058 0
7954 8058 7949 0
8066 8059 8058 0
8067 8060 8061 0
8068 8062 8060 0
8068 8060 8067 0
8068 8067 8069 0
8062 7955 7951 0
8068 7955 8062 0
7952 8070 8063 0
7957 8070 7952 0
8072 8071 8073 0
8071 8074 8068 0
8071 8068 8069 0
8071 8069 8073 0
8068 7958 7955 0
8074 7958 8068 0
7957 8075 8070 0
7960 8075 7957 0
8072 8077 8071 0
8071 8077 8076 0
8076 8074 8071 0
8078 8074 8076 0
8074 7961 7958 0
8078 7961 8074 0
8080 7965 8079 0
7966 7965 8080 0
7966 8080 7960 0
7960 8080 8075 0
8077 8082 8076 0
8076 8082 8081 0
8078 8076 8081 0
7969 8078 8081 0
7968 7969 8081 0
7969 7961 8078 0
8084 7972 8083 0
7973 7972 8084 0
8085 7973 8084 0
7974 7973 8085 0
7974 8085 7965 0
7965 8085 8079 0
8082 8087 8081 0
8081 8087 8086 0
8081 7976 7968 0
8086 7976 8081 0
8083 7979 8088 0
7972 7979 8083 0
8088 7979 8089 0
8089 7979 7980 0
8087 8090 7981 0
8087 7981 7982 0
8087 7982 8086 0
7982 7976 8086 0
7980 8091 8089 0
7984 8091 7980 0
7985 8090 8092 0
7981 8090 7985 0
8091 7984 7986 0
8094 8091 7986 0
8093 8094 7986 0
8093 8095 8094 0
8094 8095 8096 0
8095 8097 8096 0
8096 8097 8098 0
8098 8097 8099 0
7987 8092 8100 0
7985 8092 7987 0
8093 7986 7988 0
7988 8095 8093 0
7989 8095 7988 0
7989 8097 8095 0
7990 8097 7989 0
7990 7992 8101 0
8097 7990 8101 0
8099 8097 8101 0
8103 8101 7992 0
8103 7992 7993 0
8103 7993 8102 0
8103 8102 8104 0
7994 8100 8105 0
7987 8100 7994 0
8102 7993 7996 0
7997 8106 8104 0
7997 8104 8102 0
7997 8102 7996 0
7998 8105 8107 0
7994 8105 7998 0
8106 7999 8108 0
7997 7999 8106 0
8108 8000 8109 0
7999 8000 8108 0
8109 8002 8110 0
8000 8002 8109 0
8112 8110 8002 0
8112 8002 8003 0
8112 8003 8111 0
8112 8111 8113 0
8004 8107 8114 0
7998 8107 8004 0
8115 8003 8005 0
8111 8003 8115 0
8111 8115 8113 0
8113 8115 8116 0
8118 8117 8119 0
8119 8117 8120 0
8006 8114 8121 0
8004 8114 8006 0
8115 8005 8007 0
8007 8008 8122 0
8115 8007 8122 0
8116 8115 8122 0
8122 8009 8123 0
8008 8009 8122 0
8123 8010 8124 0
8009 8010 8123 0
8124 8011 8125 0
8010 8011 8124 0
8125 8011 8012 0
8118 8125 8012 0
8117 8118 8012 0
8012 8013 8126 0
8117 8012 8126 0
8120 8117 8126 0
8006 8126 8013 0
8121 8126 8006 0
8020 8019 8127 0
8021 8127 8128 0
8020 8127 8021 0
8021 8128 8023 0
8019 8025 8129 0
8127 8019 8129 0
8130 8127 8129 0
8130 8131 8127 0
8127 8131 8128 0
8132 8027 8023 0
8131 8132 8023 0
8128 8131 8023 0
8134 8030 8133 0
8031 8030 8134 0
8135 8031 8134 0
8032 8031 8135 0
8032 8135 8025 0
8025 8135 8129 0
8034 8132 8136 0
8027 8132 8034 0
8138 8036 8137 0
8037 8036 8138 0
8139 8037 8138 0
8038 8037 8139 0
8038 8139 8030 0
8030 8139 8133 0
8039 8136 8140 0
8034 8136 8039 0
8036 8141 8137 0
8041 8141 8036 0
8042 8039 8140 0
8042 8140 8143 0
8042 8143 8142 0
8143 8144 8045 0
8142 8143 8045 0
8044 8142 8045 0
8145 8045 8144 0
8046 8045 8145 0
8147 8048 8146 0
8049 8048 8147 0
8049 8147 8041 0
8041 8147 8141 0
8050 8042 8142 0
8142 8044 8050 0
8052 8145 8148 0
8046 8145 8052 0
8054 8053 8149 0
8150 8146 8048 0
8150 8048 8054 0
8150 8054 8149 0
8056 8148 8151 0
8052 8148 8056 0
8053 8059 8152 0
8149 8053 8152 0
8153 8149 8152 0
8153 8150 8149 0
8061 8151 8154 0
8056 8151 8061 0
8064 8063 8155 0
8157 8065 8064 0
8156 8157 8064 0
8155 8156 8064 0
8158 8065 8157 0
8066 8065 8158 0
8066 8158 8059 0
8059 8158 8152 0
8061 8154 8160 0
8061 8160 8159 0
8061 8159 8067 0
8067 8159 8069 0
8063 8070 8161 0
8155 8063 8161 0
8162 8155 8161 0
8162 8156 8155 0
8160 8163 8072 0
8160 8072 8073 0
8160 8073 8159 0
8073 8069 8159 0
8070 8164 8161 0
8075 8164 8070 0
8077 8163 8165 0
8072 8163 8077 0
8167 8079 8166 0
8080 8079 8167 0
8080 8167 8075 0
8075 8167 8164 0
8082 8165 8168 0
8077 8165 8082 0
8170 8083 8169 0
8084 8083 8170 0
8171 8084 8170 0
8085 8084 8171 0
8085 8171 8079 0
8079 8171 8166 0
8087 8168 8172 0
8082 8168 8087 0
8169 8088 8173 0
8083 8088 8169 0
8173 8088 8174 0
8174 8088 8089 0
8090 8172 8175 0
8087 8172 8090 0
8089 8176 8174 0
8091 8176 8089 0
8092 8090 8175 0
8092 8175 8178 0
8092 8178 8177 0
8179 8177 8178 0
8176 8094 8180 0
8091 8094 8176 0
8180 8096 8181 0
8094 8096 8180 0
8181 8098 8182 0
8096 8098 8181 0
8182 8098 8183 0
8183 8098 8099 0
8100 8092 8184 0
8184 8092 8177 0
8179 8184 8177 0
8185 8184 8179 0
8183 8101 8186 0
8099 8101 8183 0
8186 8103 8187 0
8101 8103 8186 0
8187 8103 8188 0
8188 8103 8104 0
8105 8100 8189 0
8189 8100 8184 0
8190 8189 8184 0
8191 8190 8184 0
8185 8191 8184 0
8192 8190 8191 0
8188 8104 8106 0
8194 8188 8106 0
8193 8194 8106 0
8194 8193 8195 0
8107 8105 8196 0
8196 8105 8189 0
8197 8189 8190 0
8196 8189 8197 0
8192 8197 8190 0
8198 8197 8192 0
8193 8106 8108 0
8108 8109 8199 0
8193 8108 8199 0
8195 8193 8199 0
8199 8110 8200 0
8109 8110 8199 0
8200 8112 8201 0
8110 8112 8200 0
8201 8112 8202 0
8202 8112 8113 0
8114 8107 8203 0
8203 8107 8196 0
8204 8196 8197 0
8203 8196 8204 0
8198 8204 8197 0
8205 8204 8198 0
8113 8206 8202 0
8116 8206 8113 0
8207 8118 8208 0
8208 8118 8119 0
8210 8208 8119 0
8210 8119 8120 0
8210 8120 8209 0
8210 8203 8211 0
8210 8114 8203 0
8209 8114 8210 0
8121 8114 8209 0
8203 8212 8211 0
8204 8212 8203 0
8204 8205 8212 0
8206 8122 8213 0
8116 8122 8206 0
8213 8123 8214 0
8122 8123 8213 0
8214 8124 8215 0
8123 8124 8214 0
8215 8125 8216 0
8124 8125 8215 0
8118 8216 8125 0
8207 8216 8118 0
8209 8120 8126 0
8126 8121 8209 0
8130 8129 8217 0
8131 8217 8218 0
8130 8217 8131 0
8131 8218 8132 0
8220 8133 8219 0
8134 8133 8220 0
8221 8134 8220 0
8135 8134 8221 0
8135 8221 8129 0
8221 8217 8129 0
8221 8223 8217 0
8223 8222 8217 0
8222 8218 8217 0
8224 8218 8222 0
8218 8136 8132 0
8224 8136 8218 0
8138 8137 8225 0
8139 8225 8226 0
8138 8225 8139 0
8227 8219 8133 0
8227 8133 8139 0
8227 8139 8226 0
8223 8229 8222 0
8222 8229 8228 0
8228 8224 8222 0
8230 8224 8228 0
8224 8140 8136 0
8230 8140 8224 0
8233 8231 8232 0
8233 8234 8231 0
8235 8234 8233 0
8236 8234 8235 0
8137 8141 8237 0
8225 8137 8237 0
8238 8225 8237 0
8238 8239 8225 0
8225 8239 8226 0
8239 8227 8226 0
8240 8228 8229 0
8240 8241 8228 0
8228 8241 8230 0
8241 8232 8231 0
8241 8231 8143 0
8230 8241 8143 0
8140 8230 8143 0
8231 8234 8143 0
8143 8234 8144 0
8236 8242 8145 0
8234 8236 8145 0
8144 8234 8145 0
8244 8146 8243 0
8147 8146 8244 0
8147 8244 8141 0
8141 8244 8237 0
8148 8242 8245 0
8145 8242 8148 0
8146 8246 8243 0
8150 8246 8146 0
8151 8245 8247 0
8148 8245 8151 0
8249 8152 8248 0
8153 8152 8249 0
8153 8249 8150 0
8150 8249 8246 0
8154 8247 8250 0
8151 8247 8154 0
8253 8251 8252 0
8253 8254 8157 0
8251 8253 8157 0
8156 8251 8157 0
8255 8157 8254 0
8158 8157 8255 0
8158 8255 8152 0
8152 8255 8248 0
8160 8250 8256 0
8154 8250 8160 0
8161 8257 8252 0
8162 8161 8252 0
8251 8162 8252 0
8251 8156 8162 0
8163 8160 8256 0
8163 8256 8259 0
8163 8259 8258 0
8260 8258 8259 0
8161 8261 8257 0
8164 8261 8161 0
8165 8163 8262 0
8262 8163 8258 0
8263 8262 8258 0
8264 8263 8258 0
8260 8264 8258 0
8265 8263 8264 0
8167 8166 8266 0
8267 8261 8164 0
8267 8164 8167 0
8267 8167 8266 0
8168 8165 8268 0
8268 8165 8262 0
8269 8262 8263 0
8268 8262 8269 0
8265 8269 8263 0
8270 8269 8265 0
8272 8169 8271 0
8170 8169 8272 0
8273 8170 8272 0
8171 8170 8273 0
8171 8273 8274 0
8171 8274 8266 0
8171 8266 8166 0
8274 8267 8266 0
8172 8168 8275 0
8275 8168 8268 0
8276 8268 8269 0
8275 8268 8276 0
8270 8276 8269 0
8277 8276 8270 0
8271 8173 8278 0
8169 8173 8271 0
8278 8173 8279 0
8279 8173 8174 0
8175 8172 8280 0
8280 8172 8275 0
8281 8275 8276 0
8280 8275 8281 0
8277 8281 8276 0
8282 8281 8277 0
8279 8174 8176 0
8284 8279 8176 0
8283 8284 8176 0
8284 8283 8285 0
8178 8175 8280 0
8280 8281 8286 0
8280 8286 8179 0
8280 8179 8178 0
8282 8286 8281 0
8287 8286 8282 0
8283 8176 8180 0
8180 8181 8288 0
8283 8180 8288 0
8285 8283 8288 0
8288 8182 8289 0
8181 8182 8288 0
8291 8289 8182 0
8291 8182 8183 0
8291 8183 8290 0
8291 8290 8292 0
8185 8179 8293 0
8293 8179 8286 0
8287 8293 8286 0
8294 8293 8287 0
8290 8183 8186 0
8186 8187 8295 0
8290 8186 8295 0
8292 8290 8295 0
8297 8295 8187 0
8297 8187 8188 0
8297 8188 8296 0
8297 8296 8298 0
8191 8185 8293 0
8294 8299 8192 0
8293 8294 8192 0
8191 8293 8192 0
8296 8188 8194 0
8195 8300 8298 0
8195 8298 8296 0
8195 8296 8194 0
8198 8299 8301 0
8192 8299 8198 0
8300 8199 8302 0
8195 8199 8300 0
8302 8200 8303 0
8199 8200 8302 0
8303 8201 8304 0
8200 8201 8303 0
8304 8201 8305 0
8305 8201 8202 0
8205 8301 8306 0
8198 8301 8205 0
8202 8307 8305 0
8206 8307 8202 0
8308 8207 8309 0
8309 8207 8208 0
8309 8210 8310 0
8208 8210 8309 0
8310 8211 8311 0
8210 8211 8310 0
8311 8211 8212 0
8311 8212 8312 0
8311 8312 8313 0
8205 8306 8314 0
8212 8205 8314 0
8312 8212 8314 0
8307 8213 8315 0
8206 8213 8307 0
8315 8214 8316 0
8213 8214 8315 0
8316 8215 8317 0
8214 8215 8316 0
8317 8216 8318 0
8215 8216 8317 0
8207 8318 8216 0
8308 8318 8207 0
8313 8312 8319 0
8312 8314 8319 0
8220 8219 8320 0
8221 8320 8321 0
8220 8320 8221 0
8221 8321 8223 0
8322 8219 8227 0
8320 8219 8322 0
8322 8321 8320 0
8323 8321 8322 0
8321 8229 8223 0
8323 8229 8321 0
8326 8324 8325 0
8326 8327 8233 0
8324 8326 8233 0
8232 8324 8233 0
8328 8233 8327 0
8235 8233 8328 0
8329 8235 8328 0
8236 8235 8329 0
8331 8237 8330 0
8238 8237 8331 0
8239 8238 8331 0
8332 8239 8331 0
8333 8332 8331 0
8332 8334 8322 0
8239 8332 8322 0
8227 8239 8322 0
8334 8323 8322 0
8335 8323 8334 0
8335 8229 8323 0
8335 8240 8229 0
8336 8240 8335 0
8337 8240 8336 0
8241 8240 8337 0
8241 8337 8325 0
8241 8325 8324 0
8324 8232 8241 0
8242 8329 8338 0
8236 8329 8242 0
8244 8243 8339 0
8340 8330 8237 0
8340 8237 8244 0
8340 8244 8339 0
8341 8332 8333 0
8341 8342 8332 0
8332 8342 8334 0
8342 8343 8334 0
8334 8343 8335 0
8343 8336 8335 0
8245 8338 8344 0
8242 8338 8245 0
8243 8246 8345 0
8339 8243 8345 0
8346 8339 8345 0
8346 8340 8339 0
8247 8344 8347 0
8245 8344 8247 0
8349 8248 8348 0
8249 8248 8349 0
8249 8349 8246 0
8246 8349 8345 0
8250 8347 8350 0
8247 8347 8250 0
8253 8252 8351 0
8353 8254 8253 0
8352 8353 8253 0
8351 8352 8253 0
8354 8254 8353 0
8255 8254 8354 0
8255 8354 8248 0
8248 8354 8348 0
8256 8350 8355 0
8250 8350 8256 0
8356 8252 8257 0
8351 8252 8356 0
8351 8356 8352 0
8352 8356 8357 0
8358 8259 8355 0
8355 8259 8256 0
8259 8358 8360 0
8260 8259 8360 0
8359 8260 8360 0
8361 8359 8360 0
8257 8261 8362 0
8356 8257 8362 0
8363 8356 8362 0
8363 8357 8356 0
8264 8260 8359 0
8361 8364 8265 0
8359 8361 8265 0
8264 8359 8265 0
8261 8365 8362 0
8267 8365 8261 0
8270 8364 8366 0
8265 8364 8270 0
8272 8271 8367 0
8273 8367 8368 0
8272 8367 8273 0
8274 8368 8369 0
8273 8368 8274 0
8370 8365 8267 0
8370 8267 8274 0
8370 8274 8369 0
8277 8366 8371 0
8270 8366 8277 0
8367 8271 8278 0
8372 8368 8367 0
8279 8372 8367 0
8278 8279 8367 0
8372 8369 8368 0
8373 8369 8372 0
8369 8373 8374 0
8369 8374 8375 0
8369 8375 8370 0
8375 8374 8376 0
8378 8377 8379 0
8379 8377 8380 0
8282 8371 8381 0
8277 8371 8282 0
8372 8279 8284 0
8382 8373 8372 0
8285 8382 8372 0
8284 8285 8372 0
8382 8374 8373 0
8383 8374 8382 0
8374 8383 8384 0
8374 8384 8385 0
8374 8385 8376 0
8384 8386 8377 0
8384 8377 8378 0
8384 8378 8385 0
8377 8386 8380 0
8380 8386 8387 0
8287 8381 8388 0
8282 8381 8287 0
8382 8285 8288 0
8288 8383 8382 0
8289 8383 8288 0
8289 8384 8383 0
8291 8384 8289 0
8389 8386 8384 0
8292 8389 8384 0
8291 8292 8384 0
8386 8389 8390 0
8386 8390 8391 0
8386 8391 8387 0
8391 8390 8392 0
8294 8388 8393 0
8287 8388 8294 0
8389 8292 8295 0
8295 8390 8389 0
8297 8390 8295 0
8390 8395 8392 0
8390 8297 8395 0
8297 8394 8395 0
8298 8394 8297 0
8395 8394 8396 0
8299 8393 8397 0
8294 8393 8299 0
8398 8298 8300 0
8394 8298 8398 0
8394 8398 8399 0
8394 8399 8400 0
8394 8400 8396 0
8400 8399 8401 0
8301 8397 8402 0
8299 8397 8301 0
8398 8300 8302 0
8302 8399 8398 0
8303 8399 8302 0
8303 8304 8403 0
8399 8303 8403 0
8401 8399 8403 0
8405 8403 8304 0
8405 8304 8305 0
8405 8305 8404 0
8405 8404 8406 0
8306 8402 8407 0
8301 8402 8306 0
8408 8305 8307 0
8404 8305 8408 0
8404 8408 8406 0
8406 8408 8409 0
8410 8308 8411 0
8411 8308 8309 0
8411 8309 8310 0
8411 8310 8412 0
8411 8412 8413 0
8414 8412 8311 0
8311 8412 8310 0
8313 8414 8311 0
8314 8407 8415 0
8306 8407 8314 0
8408 8307 8315 0
8315 8316 8416 0
8408 8315 8416 0
8409 8408 8416 0
8416 8317 8417 0
8316 8317 8416 0
8417 8317 8318 0
8417 8318 8418 0
8417 8418 8419 0
8308 8410 8420 0
8318 8308 8420 0
8418 8318 8420 0
8413 8412 8421 0
8412 8422 8421 0
8414 8422 8412 0
8319 8423 8422 0
8313 8319 8422 0
8414 8313 8422 0
8314 8423 8319 0
8415 8423 8314 0
8419 8418 8424 0
8418 8420 8424 0
8427 8425 8426 0
8428 8425 8427 0
8326 8325 8429 0
8327 8429 8430 0
8326 8429 8327 0
8431 8426 8430 0
8426 8327 8430 0
8426 8425 8327 0
8425 8328 8327 0
8428 8432 8329 0
8425 8428 8329 0
8328 8425 8329 0
8331 8330 8433 0
8331 8433 8333 0
8435 8336 8434 0
8337 8336 8435 0
8337 8435 8436 0
8337 8436 8429 0
8337 8429 8325 0
8436 8437 8429 0
8429 8437 8430 0
8437 8431 8430 0
8338 8432 8438 0
8329 8432 8338 0
8439 8330 8340 0
8433 8330 8439 0
8433 8439 8440 0
8333 8433 8440 0
8341 8333 8440 0
8442 8342 8341 0
8441 8442 8341 0
8440 8441 8341 0
8443 8342 8442 0
8343 8342 8443 0
8343 8443 8336 0
8336 8443 8434 0
8344 8438 8444 0
8338 8438 8344 0
8346 8345 8445 0
8445 8446 8439 0
8346 8445 8439 0
8340 8346 8439 0
8440 8439 8446 0
8440 8446 8447 0
8440 8447 8448 0
8448 8441 8440 0
8347 8444 8449 0
8344 8444 8347 0
8349 8348 8450 0
8445 8451 8452 0
8445 8345 8451 0
8345 8450 8451 0
8349 8450 8345 0
8452 8453 8445 0
8445 8453 8446 0
8453 8447 8446 0
8350 8449 8454 0
8347 8449 8350 0
8353 8352 8455 0
8354 8455 8456 0
8353 8455 8354 0
8450 8457 8458 0
8450 8348 8457 0
8348 8456 8457 0
8354 8456 8348 0
8458 8451 8450 0
8355 8454 8459 0
8350 8454 8355 0
8352 8357 8460 0
8455 8352 8460 0
8461 8455 8460 0
8461 8462 8455 0
8455 8462 8456 0
8462 8457 8456 0
8463 8358 8459 0
8459 8358 8355 0
8464 8358 8463 0
8360 8358 8464 0
8465 8360 8464 0
8361 8360 8465 0
8467 8362 8466 0
8363 8362 8467 0
8363 8467 8357 0
8357 8467 8460 0
8364 8465 8468 0
8361 8465 8364 0
8362 8469 8466 0
8365 8469 8362 0
8366 8468 8470 0
8364 8468 8366 0
8365 8471 8469 0
8370 8471 8365 0
8371 8470 8472 0
8366 8470 8371 0
8471 8375 8473 0
8370 8375 8471 0
8473 8375 8474 0
8474 8375 8376 0
8475 8378 8476 0
8476 8378 8379 0
8478 8476 8379 0
8478 8379 8380 0
8478 8380 8477 0
8478 8477 8479 0
8381 8472 8480 0
8371 8472 8381 0
8474 8385 8481 0
8376 8385 8474 0
8378 8481 8385 0
8475 8481 8378 0
8482 8380 8387 0
8477 8380 8482 0
8477 8482 8479 0
8479 8482 8483 0
8388 8480 8484 0
8381 8480 8388 0
8482 8387 8391 0
8392 8485 8483 0
8392 8483 8482 0
8392 8482 8391 0
8393 8484 8486 0
8388 8484 8393 0
8485 8395 8487 0
8392 8395 8485 0
8487 8395 8488 0
8488 8395 8396 0
8397 8486 8489 0
8393 8486 8397 0
8491 8488 8396 0
8490 8491 8396 0
8400 8490 8396 0
8401 8490 8400 0
8402 8489 8492 0
8397 8489 8402 0
8491 8490 8493 0
8403 8494 8493 0
8401 8403 8493 0
8490 8401 8493 0
8494 8405 8495 0
8403 8405 8494 0
8495 8405 8496 0
8496 8405 8406 0
8407 8402 8492 0
8407 8492 8498 0
8407 8498 8497 0
8499 8497 8498 0
8502 8500 8501 0
8496 8406 8409 0
8496 8409 8500 0
8496 8500 8502 0
8503 8410 8504 0
8504 8410 8411 0
8504 8411 8505 0
8505 8411 8413 0
8415 8407 8506 0
8506 8407 8497 0
8499 8506 8497 0
8507 8506 8499 0
8501 8500 8508 0
8416 8509 8508 0
8409 8416 8508 0
8500 8409 8508 0
8509 8416 8417 0
8509 8417 8510 0
8509 8510 8511 0
8419 8510 8417 0
8420 8503 8512 0
8410 8503 8420 0
8505 8421 8513 0
8413 8421 8505 0
8513 8422 8514 0
8421 8422 8513 0
8514 8423 8515 0
8422 8423 8514 0
8516 8515 8423 0
8506 8516 8423 0
8415 8506 8423 0
8506 8507 8516 0
8511 8510 8517 0
8424 8518 8517 0
8419 8424 8517 0
8510 8419 8517 0
8420 8518 8424 0
8512 8518 8420 0
8521 8519 8520 0
8522 8519 8521 0
8525 8523 8524 0
8520 8523 8525 0
8520 8519 8523 0
8519 8426 8523 0
8427 8426 8519 0
8522 8526 8428 0
8519 8522 8428 0
8427 8519 8428 0
8529 8527 8528 0
8523 8530 8527 0
8524 8523 8527 0
8529 8524 8527 0
8426 8431 8523 0
8523 8431 8530 0
8432 8526 8531 0
8428 8526 8432 0
8533 8434 8532 0
8435 8434 8533 0
8436 8435 8533 0
8436 8533 8528 0
8436 8528 8527 0
8527 8530 8436 0
8436 8530 8437 0
8530 8431 8437 0
8438 8531 8534 0
8432 8531 8438 0
8536 8441 8535 0
8442 8441 8536 0
8537 8442 8536 0
8443 8442 8537 0
8443 8537 8434 0
8434 8537 8532 0
8444 8534 8538 0
8438 8534 8444 0
8448 8447 8539 0
8540 8535 8441 0
8540 8441 8448 0
8540 8448 8539 0
8449 8538 8541 0
8444 8538 8449 0
8452 8451 8542 0
8453 8542 8543 0
8452 8542 8453 0
8539 8544 8545 0
8539 8447 8544 0
8447 8543 8544 0
8453 8543 8447 0
8545 8540 8539 0
8454 8541 8546 0
8449 8541 8454 0
8458 8457 8547 0
8542 8548 8549 0
8542 8451 8548 0
8451 8547 8548 0
8458 8547 8451 0
8549 8550 8542 0
8542 8550 8543 0
8550 8544 8543 0
8459 8546 8551 0
8454 8546 8459 0
8461 8460 8552 0
8554 8462 8461 0
8553 8554 8461 0
8552 8553 8461 0
8462 8554 8555 0
8462 8555 8547 0
8462 8547 8457 0
8555 8548 8547 0
8556 8463 8551 0
8551 8463 8459 0
8557 8463 8556 0
8464 8463 8557 0
8558 8464 8557 0
8465 8464 8558 0
8467 8466 8559 0
8559 8560 8552 0
8467 8559 8552 0
8460 8467 8552 0
8552 8560 8553 0
8553 8560 8561 0
8468 8558 8562 0
8465 8558 8468 0
8563 8466 8469 0
8559 8466 8563 0
8563 8560 8559 0
8564 8560 8563 0
8560 8564 8561 0
8561 8564 8565 0
8567 8566 8568 0
8568 8566 8569 0
8470 8562 8570 0
8468 8562 8470 0
8571 8469 8471 0
8563 8469 8571 0
8571 8564 8563 0
8572 8564 8571 0
8564 8572 8573 0
8564 8573 8574 0
8564 8574 8565 0
8573 8575 8566 0
8573 8566 8567 0
8573 8567 8574 0
8566 8575 8569 0
8569 8575 8576 0
8472 8570 8577 0
8470 8570 8472 0
8571 8471 8473 0
8578 8572 8571 0
8474 8578 8571 0
8473 8474 8571 0
8573 8572 8578 0
8476 8573 8578 0
8475 8476 8578 0
8476 8575 8573 0
8478 8575 8476 0
8479 8579 8576 0
8479 8576 8575 0
8479 8575 8478 0
8480 8577 8580 0
8472 8577 8480 0
8578 8474 8481 0
8481 8475 8578 0
8479 8581 8579 0
8483 8581 8479 0
8484 8580 8582 0
8480 8580 8484 0
8483 8583 8581 0
8485 8583 8483 0
8486 8582 8584 0
8484 8582 8486 0
8586 8583 8485 0
8585 8586 8485 0
8487 8585 8485 0
8488 8585 8487 0
8489 8584 8587 0
8486 8584 8489 0
8586 8585 8588 0
8590 8588 8589 0
8588 8491 8589 0
8588 8585 8491 0
8585 8488 8491 0
8590 8589 8591 0
8492 8587 8592 0
8489 8587 8492 0
8589 8491 8493 0
8493 8494 8593 0
8589 8493 8593 0
8591 8589 8593 0
8593 8495 8594 0
8494 8495 8593 0
8596 8594 8495 0
8596 8495 8496 0
8596 8496 8595 0
8596 8595 8597 0
8492 8592 8599 0
8492 8599 8598 0
8492 8598 8498 0
8498 8598 8499 0
8502 8501 8600 0
8600 8601 8595 0
8502 8600 8595 0
8496 8502 8595 0
8595 8601 8602 0
8595 8602 8603 0
8595 8603 8597 0
8603 8602 8604 0
8605 8503 8504 0
8505 8605 8504 0
8599 8607 8598 0
8598 8607 8606 0
8598 8507 8499 0
8606 8507 8598 0
8600 8501 8508 0
8508 8601 8600 0
8509 8601 8508 0
8608 8602 8601 0
8511 8608 8601 0
8509 8511 8601 0
8602 8608 8604 0
8604 8608 8609 0
8512 8503 8610 0
8610 8503 8605 0
8605 8611 8610 0
8605 8612 8611 0
8505 8612 8605 0
8513 8612 8505 0
8612 8514 8613 0
8513 8514 8612 0
8613 8515 8614 0
8514 8515 8613 0
8614 8515 8516 0
8607 8614 8516 0
8606 8607 8516 0
8516 8507 8606 0
8608 8511 8517 0
8517 8518 8615 0
8608 8517 8615 0
8609 8608 8615 0
8616 8615 8518 0
8610 8616 8518 0
8512 8610 8518 0
8610 8611 8616 0
8521 8520 8617 0
8521 8617 8522 0
8525 8524 8618 0
8618 8619 8617 0
8525 8618 8617 0
8520 8525 8617 0
8617 8526 8522 0
8619 8526 8617 0
8622 8620 8621 0
8622 8623 8529 0
8620 8622 8529 0
8528 8620 8529 0
8529 8623 8624 0
8529 8624 8618 0
8529 8618 8524 0
8625 8619 8618 0
8625 8618 8624 0
8625 8624 8626 0
8619 8531 8526 0
8625 8531 8619 0
8532 8627 8621 0
8533 8532 8621 0
8620 8533 8621 0
8620 8528 8533 0
8629 8628 8630 0
8628 8631 8625 0
8628 8625 8626 0
8628 8626 8630 0
8625 8534 8531 0
8631 8534 8625 0
8633 8535 8632 0
8536 8535 8633 0
8634 8536 8633 0
8537 8536 8634 0
8537 8634 8532 0
8532 8634 8627 0
8635 8628 8629 0
8636 8631 8628 0
8636 8628 8635 0
8636 8635 8637 0
8631 8538 8534 0
8636 8538 8631 0
8535 8638 8632 0
8540 8638 8535 0
8639 8636 8637 0
8640 8541 8538 0
8639 8640 8538 0
8636 8639 8538 0
8545 8544 8641 0
8642 8638 8540 0
8642 8540 8545 0
8642 8545 8641 0
8546 8640 8643 0
8541 8640 8546 0
8549 8548 8644 0
8646 8550 8549 0
8645 8646 8549 0
8644 8645 8549 0
8550 8646 8647 0
8550 8647 8641 0
8550 8641 8544 0
8647 8642 8641 0
8551 8643 8648 0
8546 8643 8551 0
8554 8553 8649 0
8555 8649 8650 0
8554 8649 8555 0
8644 8651 8652 0
8644 8548 8651 0
8548 8650 8651 0
8555 8650 8548 0
8652 8645 8644 0
8653 8556 8648 0
8648 8556 8551 0
8654 8556 8653 0
8557 8556 8654 0
8655 8557 8654 0
8558 8557 8655 0
8553 8561 8656 0
8649 8553 8656 0
8657 8649 8656 0
8657 8658 8649 0
8649 8658 8650 0
8658 8651 8650 0
8562 8655 8659 0
8558 8655 8562 0
8656 8561 8565 0
8661 8656 8565 0
8660 8661 8565 0
8568 8662 8663 0
8568 8663 8661 0
8567 8568 8661 0
8660 8567 8661 0
8569 8662 8568 0
8570 8659 8664 0
8562 8659 8570 0
8660 8565 8574 0
8666 8662 8665 0
8663 8662 8666 0
8574 8567 8660 0
8569 8576 8662 0
8662 8576 8665 0
8577 8664 8667 0
8570 8664 8577 0
8665 8669 8666 0
8668 8669 8665 0
8576 8579 8665 0
8665 8579 8668 0
8580 8667 8670 0
8577 8667 8580 0
8669 8668 8671 0
8579 8581 8672 0
8579 8672 8671 0
8579 8671 8668 0
8582 8670 8673 0
8580 8670 8582 0
8581 8674 8672 0
8583 8674 8581 0
8584 8673 8675 0
8582 8673 8584 0
8583 8676 8674 0
8586 8676 8583 0
8587 8675 8677 0
8584 8675 8587 0
8676 8588 8678 0
8586 8588 8676 0
8678 8590 8679 0
8588 8590 8678 0
8681 8679 8590 0
8681 8590 8591 0
8681 8591 8680 0
8680 8682 8681 0
8681 8682 8683 0
8683 8682 8684 0
8592 8677 8685 0
8587 8677 8592 0
8680 8591 8593 0
8593 8682 8680 0
8594 8682 8593 0
8684 8686 8687 0
8684 8596 8686 0
8682 8596 8684 0
8594 8596 8682 0
8597 8686 8596 0
8599 8685 8688 0
8592 8685 8599 0
8687 8686 8689 0
8603 8690 8689 0
8597 8603 8689 0
8686 8597 8689 0
8692 8690 8603 0
8692 8603 8604 0
8692 8604 8691 0
8692 8691 8693 0
8607 8599 8688 0
8607 8688 8695 0
8607 8695 8694 0
8696 8694 8695 0
8697 8604 8609 0
8691 8604 8697 0
8691 8697 8698 0
8691 8698 8699 0
8691 8699 8693 0
8612 8700 8701 0
8612 8701 8699 0
8611 8612 8699 0
8698 8611 8699 0
8702 8700 8613 0
8613 8700 8612 0
8703 8702 8614 0
8614 8702 8613 0
8694 8704 8703 0
8694 8703 8614 0
8694 8614 8607 0
8696 8704 8694 0
8705 8704 8696 0
8697 8609 8615 0
8615 8698 8697 0
8616 8698 8615 0
8616 8611 8698 0
8706 8701 8700 0
8700 8707 8706 0
8702 8707 8700 0
8702 8708 8707 0
8703 8708 8702 0
8703 8709 8708 0
8704 8709 8703 0
8704 8705 8709 0
8712 8710 8711 0
8712 8713 8710 0
8714 8713 8712 0
8715 8713 8714 0
8621 8716 8711 0
8622 8621 8711 0
8710 8622 8711 0
8710 8713 8622 0
8622 8713 8623 0
8623 8717 8624 0
8623 8718 8717 0
8713 8718 8623 0
8715 8718 8713 0
8624 8717 8626 0
8621 8719 8716 0
8627 8719 8621 0
8718 8720 8629 0
8718 8629 8630 0
8718 8630 8717 0
8630 8626 8717 0
8722 8632 8721 0
8633 8632 8722 0
8723 8633 8722 0
8634 8633 8723 0
8634 8723 8627 0
8627 8723 8719 0
8629 8720 8725 0
8629 8725 8724 0
8629 8724 8635 0
8635 8724 8637 0
8632 8726 8721 0
8638 8726 8632 0
8725 8728 8724 0
8724 8728 8727 0
8724 8727 8729 0
8637 8724 8729 0
8639 8637 8729 0
8639 8729 8640 0
8638 8730 8726 0
8642 8730 8638 0
8731 8727 8728 0
8731 8732 8727 0
8727 8732 8729 0
8733 8643 8640 0
8732 8733 8640 0
8729 8732 8640 0
8646 8645 8734 0
8736 8647 8646 0
8735 8736 8646 0
8734 8735 8646 0
8647 8736 8642 0
8642 8736 8730 0
8648 8733 8737 0
8643 8733 8648 0
8652 8651 8738 0
8738 8739 8734 0
8652 8738 8734 0
8645 8652 8734 0
8734 8739 8735 0
8735 8739 8740 0
8741 8653 8737 0
8737 8653 8648 0
8742 8653 8741 0
8654 8653 8742 0
8743 8654 8742 0
8655 8654 8743 0
8657 8656 8744 0
8658 8744 8745 0
8657 8744 8658 0
8738 8746 8747 0
8738 8651 8746 0
8651 8745 8746 0
8658 8745 8651 0
8747 8748 8738 0
8738 8748 8739 0
8748 8740 8739 0
8659 8743 8749 0
8655 8743 8659 0
8744 8656 8661 0
8750 8745 8744 0
8663 8750 8744 0
8661 8663 8744 0
8745 8750 8746 0
8746 8750 8751 0
8664 8749 8752 0
8659 8749 8664 0
8663 8666 8753 0
8750 8663 8753 0
8754 8750 8753 0
8754 8751 8750 0
8667 8752 8755 0
8664 8752 8667 0
8666 8756 8753 0
8669 8756 8666 0
8670 8755 8757 0
8667 8755 8670 0
8756 8671 8758 0
8669 8671 8756 0
8758 8671 8759 0
8759 8671 8672 0
8673 8757 8760 0
8670 8757 8673 0
8672 8761 8759 0
8674 8761 8672 0
8675 8760 8762 0
8673 8760 8675 0
8674 8763 8761 0
8676 8763 8674 0
8677 8762 8764 0
8675 8762 8677 0
8763 8678 8765 0
8676 8678 8763 0
8765 8679 8766 0
8678 8679 8765 0
8766 8681 8767 0
8679 8681 8766 0
8767 8683 8768 0
8681 8683 8767 0
8770 8768 8683 0
8770 8683 8684 0
8770 8684 8769 0
8770 8769 8771 0
8685 8764 8772 0
8677 8764 8685 0
8773 8684 8687 0
8769 8684 8773 0
8769 8773 8774 0
8769 8774 8775 0
8769 8775 8771 0
8775 8774 8776 0
8688 8772 8777 0
8685 8772 8688 0
8773 8687 8689 0
8689 8774 8773 0
8690 8774 8689 0
8690 8692 8778 0
8774 8690 8778 0
8776 8774 8778 0
8778 8692 8779 0
8779 8692 8693 0
8688 8777 8781 0
8688 8781 8780 0
8688 8780 8695 0
8695 8780 8696 0
8779 8699 8782 0
8693 8699 8779 0
8782 8699 8783 0
8783 8699 8701 0
8781 8785 8780 0
8780 8785 8784 0
8780 8705 8696 0
8784 8705 8780 0
8783 8706 8786 0
8701 8706 8783 0
8786 8707 8787 0
8706 8707 8786 0
8787 8707 8708 0
8787 8708 8788 0
8787 8788 8789 0
8785 8790 8784 0
8790 8709 8784 0
8790 8788 8709 0
8788 8708 8709 0
8709 8705 8784 0
8789 8788 8791 0
8788 8790 8791 0
8793 8711 8792 0
8712 8711 8793 0
8794 8712 8793 0
8714 8712 8794 0
8795 8714 8794 0
8715 8714 8795 0
8711 8796 8792 0
8716 8796 8711 0
8718 8795 8797 0
8715 8795 8718 0
8716 8798 8796 0
8719 8798 8716 0
8720 8797 8799 0
8718 8797 8720 0
8801 8721 8800 0
8722 8721 8801 0
8802 8722 8801 0
8723 8722 8802 0
8723 8802 8719 0
8719 8802 8798 0
8725 8799 8803 0
8720 8799 8725 0
8721 8804 8800 0
8726 8804 8721 0
8728 8803 8805 0
8725 8803 8728 0
8726 8806 8804 0
8730 8806 8726 0
8728 8805 8808 0
8728 8808 8807 0
8728 8807 8731 0
8732 8807 8809 0
8731 8807 8732 0
8732 8809 8733 0
8811 8735 8810 0
8736 8735 8811 0
8736 8811 8730 0
8730 8811 8806 0
8812 8807 8808 0
8812 8813 8807 0
8807 8813 8809 0
8814 8737 8733 0
8813 8814 8733 0
8809 8813 8733 0
8735 8815 8810 0
8740 8815 8735 0
8816 8741 8814 0
8814 8741 8737 0
8817 8741 8816 0
8742 8741 8817 0
8818 8742 8817 0
8743 8742 8818 0
8820 8746 8819 0
8747 8746 8820 0
8821 8747 8820 0
8748 8747 8821 0
8748 8821 8740 0
8740 8821 8815 0
8749 8818 8822 0
8743 8818 8749 0
8746 8823 8819 0
8751 8823 8746 0
8752 8822 8824 0
8749 8822 8752 0
8754 8753 8825 0
8826 8823 8751 0
8826 8751 8754 0
8826 8754 8825 0
8755 8824 8827 0
8752 8824 8755 0
8828 8753 8756 0
8825 8753 8828 0
8825 8828 8826 0
8826 8828 8829 0
8757 8827 8830 0
8755 8827 8757 0
8828 8756 8758 0
8759 8831 8829 0
8759 8829 8828 0
8759 8828 8758 0
8760 8830 8832 0
8757 8830 8760 0
8831 8759 8761 0
8834 8831 8761 0
8833 8834 8761 0
8833 8835 8834 0
8834 8835 8836 0
8836 8835 8837 0
8762 8832 8838 0
8760 8832 8762 0
8839 8761 8763 0
8833 8761 8839 0
8839 8835 8833 0
8840 8835 8839 0
8835 8840 8837 0
8837 8840 8841 0
8764 8838 8842 0
8762 8838 8764 0
8839 8763 8765 0
8765 8840 8839 0
8766 8840 8765 0
8766 8767 8843 0
8840 8766 8843 0
8841 8840 8843 0
8843 8768 8844 0
8767 8768 8843 0
8844 8770 8845 0
8768 8770 8844 0
8847 8845 8770 0
8847 8770 8771 0
8847 8771 8846 0
8847 8846 8848 0
8772 8842 8849 0
8764 8842 8772 0
8846 8771 8775 0
8776 8850 8848 0
8776 8848 8846 0
8776 8846 8775 0
8777 8849 8851 0
8772 8849 8777 0
8850 8778 8852 0
8776 8778 8850 0
8852 8778 8853 0
8853 8778 8779 0
8781 8851 8854 0
8777 8851 8781 0
8853 8782 8855 0
8779 8782 8853 0
8855 8782 8856 0
8856 8782 8783 0
8785 8854 8857 0
8781 8854 8785 0
8856 8786 8858 0
8783 8786 8856 0
8858 8787 8859 0
8786 8787 8858 0
8859 8787 8860 0
8860 8787 8789 0
8790 8857 8861 0
8785 8857 8790 0
8860 8791 8862 0
8789 8791 8860 0
