#!ascii version of /media/datadisk/atena/Carstendataset/Carsten_freesurfer/Carsten/surf/outer_outer_skull_surface
10242 20480
76.180344  -48.741165  29.129978  0
76.102295  -50.251396  32.175819  0
25.964649  73.467361  -30.906956  0
23.824495  74.692963  -35.484032  0
28.338081  72.299500  -35.045692  0
56.334122  23.455690  -77.989105  0
52.831604  26.749504  -81.013733  0
53.422905  21.540342  -82.601372  0
50.477348  19.472689  -87.337891  0
54.091324  16.238403  -84.155319  0
-68.443878  27.792316  -25.987724  0
-69.616112  25.523445  -29.834801  0
-68.056793  29.762329  -30.461979  0
-28.882736  59.474426  -94.958473  0
-32.260841  53.788212  -95.071960  0
-27.299412  54.976524  -99.151840  0
-25.398647  49.876644  -102.830811  0
-21.818684  55.613800  -102.732956  0
-54.344078  -69.237015  -19.475121  0
-52.823021  -70.434128  -23.296600  0
-54.803192  -67.196770  -23.325193  0
-64.921570  -25.905846  -77.513031  0
-63.951313  -30.635952  -79.514969  0
-64.266167  -26.630777  -83.227745  0
-63.552849  -27.429508  -89.279984  0
-64.185860  -22.347502  -86.737671  0
31.144871  -95.968185  -19.786762  0
32.441933  -93.894043  -23.115345  0
28.988953  -94.889526  -23.140104  0
-11.293047  -77.234161  -69.856949  0
-7.358892  -77.395744  -72.000458  0
-10.700047  -75.658104  -75.190735  0
-10.135987  -74.485123  -80.865143  0
-14.252081  -73.948471  -78.310104  0
78.001747  -19.839142  -21.016151  0
77.345291  -17.512537  -24.687523  0
78.506668  -21.502575  -25.239170  0
54.970932  -55.652885  -70.687149  0
56.527275  -52.041206  -73.160858  0
54.817406  -55.037010  -76.252518  0
54.906956  -54.675514  -82.177788  0
52.638969  -57.977615  -79.172203  0
-14.702213  -10.148237  112.326660  0
-14.383705  -7.091037  111.959106  0
-12.134245  -8.907259  112.805328  0
6.392350  -5.184674  113.303894  0
4.383940  -2.993187  113.021820  0
7.245094  -2.257320  112.750000  0
8.127026  0.735429  112.196426  0
10.130558  -1.598607  112.375076  0
-15.057066  -37.587219  114.745193  0
-17.685350  -36.221313  113.781967  0
-15.267486  -34.475025  114.565536  0
-12.710751  -14.899671  113.545212  0
-15.198446  -16.245289  112.994736  0
-14.974047  -13.196634  112.664841  0
-17.267578  -11.476685  111.694031  0
10.396091  -46.387375  116.650215  0
8.286933  -48.775089  116.718170  0
7.342512  -45.735016  117.072342  0
-10.067503  -37.069530  116.254562  0
-9.710150  -40.115005  116.390732  0
-12.390247  -38.887993  115.626282  0
-14.779671  -40.725319  114.858841  0
25.305099  -23.834194  111.935806  0
26.754948  -26.503002  111.694878  0
23.984158  -26.455788  112.733559  0
11.380178  -41.055779  116.722610  0
14.338490  -41.567738  116.186676  0
12.423152  -43.979431  116.471298  0
13.478092  -46.960396  116.121849  0
13.038764  -1.016270  111.893707  0
12.066427  -3.945646  112.503227  0
21.068329  -21.244152  113.032585  0
22.300838  -18.593702  112.286072  0
23.820995  -21.194984  112.126770  0
26.574427  -21.155445  111.085167  0
46.729103  61.989899  57.317429  0
49.400757  59.528053  57.360146  0
47.655476  60.002174  60.379593  0
47.264038  46.463276  79.133392  0
49.622559  46.310623  76.835098  0
49.385155  43.790596  79.229401  0
51.341904  41.017853  79.253937  0
48.997665  41.205147  81.535477  0
17.414455  74.956573  57.483917  0
19.230959  76.046593  54.152153  0
21.057301  74.364113  57.401711  0
42.058655  64.473602  60.306732  0
40.949074  66.388931  57.261124  0
43.904526  64.280243  57.279617  0
45.630150  63.869446  54.145439  0
3.424082  60.250290  83.986130  0
1.142323  62.030243  81.745781  0
4.749638  62.402092  81.316856  0
17.530945  72.267685  63.763290  0
13.943533  72.556038  63.905174  0
15.653406  73.801270  60.737968  0
13.726657  75.332748  57.579784  0
-67.158997  14.179420  53.895103  0
-67.252899  16.002892  51.133369  0
-66.435364  17.308598  53.876789  0
-59.046803  36.564888  57.755177  0
-60.032501  35.668922  54.707085  0
-58.731529  38.795925  55.104240  0
-58.298180  41.020592  52.296234  0
-57.345367  41.898502  55.526981  0
-61.298553  -1.172435  75.858742  0
-62.802208  -2.608912  73.892410  0
-62.364975  0.453469  73.544052  0
-66.051186  13.678391  59.096794  0
-66.688919  10.614841  59.162529  0
-66.974503  12.381752  56.572556  0
-67.853188  11.002384  53.931149  0
-55.685326  -84.523361  55.548279  0
-57.150482  -83.965393  52.628082  0
-57.870903  -82.378677  55.432034  0
-67.097122  -64.844559  57.979435  0
-66.747833  -66.402550  55.217773  0
-67.910210  -63.449799  55.240875  0
-68.592789  -61.993702  52.421173  0
-68.940262  -60.482567  55.284073  0
-40.990898  -84.700684  80.442810  0
-40.025597  -86.909424  78.213684  0
-42.718651  -85.196274  77.829567  0
-54.884056  -83.282791  60.977539  0
-52.509724  -85.357445  61.188545  0
-54.132050  -84.992004  58.399429  0
-53.277584  -86.615707  55.703552  0
43.079987  -99.208374  55.983002  0
42.035732  -100.561783  53.042984  0
40.168156  -100.780457  55.871178  0
20.484303  -106.267563  58.409523  0
22.158463  -106.905830  55.680527  0
18.920376  -107.337158  55.713509  0
17.281269  -108.372002  52.911751  0
15.632735  -107.661850  55.756474  0
47.571373  -84.684692  80.700325  0
49.874073  -84.442368  78.419754  0
47.477638  -86.524033  78.052544  0
42.097084  -98.036346  61.556801  0
44.851616  -96.436600  61.713272  0
44.028137  -97.835976  58.882553  0
45.961685  -97.556808  56.102684  0
78.517685  -10.176619  54.660110  0
79.355873  -11.524222  51.979713  0
79.064407  -13.249372  54.558563  0
79.294594  -32.669212  57.265091  0
79.889503  -31.346977  54.581070  0
79.617706  -34.343933  54.690956  0
79.842041  -36.013840  52.038528  0
79.244171  -37.367210  54.841640  0
55.675575  54.382156  -23.979603  0
54.627281  55.208187  -28.360594  0
57.216072  52.148167  -27.057247  0
68.098602  31.496784  -40.425552  0
66.376648  34.637672  -42.981598  0
67.744240  31.166740  -44.997658  0
67.129379  30.662628  -49.706493  0
68.839279  27.584023  -46.832802  0
-52.385002  58.243763  -26.751698  0
-53.321716  56.875111  -30.955265  0
-50.343864  59.891197  -30.555321  0
-29.220104  72.318420  -50.992809  0
-32.832905  69.446701  -52.699913  0
-29.480911  71.764999  -56.109291  0
-29.726784  71.068878  -61.502975  0
-25.988420  74.211441  -59.428879  0
-76.047379  -45.461937  -19.147331  0
-73.242577  -45.358223  -22.755283  0
-76.833206  -43.515465  -23.003834  0
-72.763451  -24.817497  -38.762775  0
-72.101746  -27.611488  -40.336906  0
-70.441147  -24.405849  -42.620316  0
-68.458183  -24.070942  -46.912231  0
-69.147758  -20.983635  -45.063927  0
2.663644  -101.792282  -17.416670  0
3.923397  -99.871323  -20.859867  0
0.516231  -100.433990  -20.266140  0
-16.358006  -90.838486  -33.753906  0
-13.173161  -90.688477  -35.471169  0
-15.668979  -88.922348  -37.690491  0
-14.989076  -87.071152  -41.829430  0
-18.253460  -87.085075  -39.809856  0
80.724197  -49.099075  -17.769995  0
80.347511  -47.260284  -21.890930  0
78.328697  -49.254211  -20.320084  0
58.812744  -60.701172  -32.624935  0
59.905838  -57.527000  -34.343941  0
57.989361  -60.059021  -36.799667  0
57.164131  -59.436703  -41.166508  0
56.200546  -62.645096  -39.199303  0
-49.124763  16.226341  87.392303  0
-49.010002  19.246613  86.732216  0
-47.274090  17.982517  88.878860  0
-30.843740  27.219055  97.989456  0
-33.190445  28.844368  96.076279  0
-30.342201  30.569256  96.916611  0
-29.810192  33.922287  95.716652  0
-27.365822  32.236015  97.662567  0
-11.459888  12.114441  109.277924  0
-13.835693  14.168596  108.341217  0
-10.832838  15.394697  108.696762  0
-2.808626  35.882088  102.314301  0
-6.215285  34.913994  102.512512  0
-5.307658  38.053741  100.915970  0
-7.824695  40.198830  99.388931  0
-4.353492  41.170609  99.184204  0
-3.355947  44.251408  97.346588  0
-0.853085  42.072548  98.893326  0
21.623226  43.099636  95.993958  0
19.362720  45.475697  95.004211  0
22.537994  45.784851  93.971741  0
23.438869  48.355751  91.903938  0
25.615097  46.032196  92.826424  0
-51.673843  -63.830139  90.414734  0
-53.864365  -62.258049  89.071571  0
-52.208946  -60.985962  91.331261  0
-51.376831  -40.289452  94.964966  0
-53.557518  -41.900188  93.294655  0
-53.453754  -38.613281  93.224892  0
-55.387173  -36.958260  91.400101  0
-53.254662  -35.331314  93.068939  0
-32.299156  -27.094681  106.107330  0
-34.780945  -28.748650  104.878494  0
-34.668152  -25.461052  104.624062  0
-47.401062  -12.298336  94.693832  0
-47.632874  -15.516600  94.980484  0
-49.487732  -13.903019  93.106873  0
-51.501381  -15.505295  91.443649  0
-51.253723  -12.296175  91.139542  0
-52.939911  -10.691122  89.093994  0
-50.974041  -9.102974  90.791519  0
-47.527073  11.763794  90.044922  0
-49.360653  10.042188  88.428619  0
-49.231728  13.163458  87.947105  0
-50.828896  14.501590  85.828041  0
24.598633  -88.435349  90.877136  0
22.351044  -89.928047  89.481323  0
21.665136  -88.107712  91.908508  0
1.457205  -83.862907  99.286652  0
2.404847  -85.945145  96.858627  0
-0.907583  -85.471130  97.445381  0
-3.248923  -86.999329  95.479691  0
-4.243017  -84.901947  97.932816  0
-5.690643  -62.289352  113.682030  0
-4.893397  -65.381393  112.534225  0
-8.136026  -64.385406  112.537231  0
-25.836040  -73.964554  102.144135  0
-22.679810  -75.297066  102.554092  0
-24.981499  -76.814804  100.443459  0
-24.078182  -79.546547  98.580803  0
-27.194008  -78.219589  98.246353  0
-29.301971  -79.485733  95.940704  0
-30.225258  -76.774658  97.789749  0
-47.533592  -64.184464  93.935265  0
-46.856506  -66.974228  92.757812  0
-49.344421  -65.392715  91.632980  0
-51.041248  -66.548820  89.284912  0
65.655136  -23.961809  86.417053  0
66.849899  -26.508167  85.562531  0
65.156273  -26.534758  87.784714  0
57.510586  -43.145912  95.509232  0
59.968998  -42.949982  93.622910  0
58.619896  -45.852859  94.267006  0
59.597416  -48.513168  92.855103  0
57.168152  -48.803513  94.864914  0
35.112076  -43.524048  108.935944  0
37.986214  -43.595200  107.441475  0
36.404217  -46.404465  108.209007  0
41.377991  -66.665619  101.190002  0
43.307358  -63.836826  100.959625  0
44.233940  -66.575081  99.268204  0
46.998806  -66.411423  97.291107  0
45.066029  -69.223694  97.421249  0
45.787663  -71.744431  95.420639  0
43.066338  -71.868134  97.416809  0
26.298473  -84.773895  94.572800  0
29.191339  -85.003174  93.308472  0
26.876080  -86.796883  92.153091  0
27.404907  -88.690842  89.729561  0
28.605179  46.217117  91.561890  0
27.804546  43.606544  93.611130  0
39.351040  24.749756  97.026733  0
40.295326  27.665924  95.413071  0
42.180672  24.779930  95.341675  0
44.884964  24.749447  93.557800  0
43.967560  21.884752  95.192108  0
30.599133  1.236413  106.537384  0
31.779255  4.186823  105.658875  0
33.490402  1.424810  105.272644  0
51.183418  -1.412402  95.324249  0
49.696800  1.486604  95.836426  0
52.125660  1.322742  93.991364  0
53.030952  4.075589  92.559525  0
54.445679  1.114937  92.055054  0
56.671398  0.863943  90.023636  0
55.835773  -1.790614  91.548508  0
62.635460  -21.277111  89.331459  0
63.238747  -18.662792  87.894470  0
64.449265  -21.349392  87.185249  0
66.181015  -21.412376  84.998604  0
67.003662  40.985420  5.035499  0
68.844162  38.223030  5.412101  0
67.846352  39.848854  8.452364  0
69.772476  31.511116  31.959101  0
70.443604  30.062248  28.755001  0
70.938095  28.219891  32.095284  0
72.010880  24.861282  32.187325  0
71.469093  26.347828  35.337524  0
61.434055  41.682785  57.016899  0
62.725960  40.575401  53.866760  0
63.022308  38.370537  56.883083  0
70.978897  16.509674  58.701241  0
71.073700  18.696934  56.005993  0
72.150589  15.436699  55.865307  0
73.205399  14.312990  53.020203  0
73.141716  12.187153  55.735588  0
74.062805  8.938974  55.600285  0
73.023842  10.044563  58.374855  0
69.601425  -2.087444  74.606766  0
70.963326  -2.812374  72.206200  0
70.403778  -5.009980  74.135300  0
71.185501  -7.900807  73.662231  0
69.825027  -7.239895  75.951172  0
-12.139047  82.028198  1.780200  0
-11.073978  84.586853  -2.068801  0
-9.464563  84.750999  1.809855  0
10.024669  80.560822  4.051880  0
7.844209  82.684883  -0.008599  0
11.429340  79.931564  -0.338737  0
13.018597  79.220467  -4.822538  0
15.257477  77.268692  -0.520014  0
30.406975  78.664139  33.346779  0
28.412563  79.571854  30.061928  0
32.249626  77.909836  29.841461  0
43.871582  65.620056  8.475197  0
40.412010  67.605164  8.223825  0
41.501709  65.583603  4.457484  0
39.294540  65.748184  0.233281  0
42.790802  63.783707  0.593865  0
44.353508  62.328049  -3.310207  0
46.095734  61.636116  1.019051  0
63.916847  45.451736  7.766127  0
62.694916  46.327339  4.156738  0
64.954422  43.676994  4.616896  0
66.008011  42.006519  1.542598  0
-47.988953  37.142136  79.968079  0
-49.799545  37.763390  77.414421  0
-47.742134  40.067841  78.307381  0
-40.867474  58.759865  64.578857  0
-43.774399  56.383347  64.170341  0
-42.735161  58.839912  61.219246  0
-44.517609  58.751205  57.789627  0
-41.598614  61.209137  58.120575  0
-12.705717  70.587296  65.193314  0
-16.547745  69.830826  65.346832  0
-15.014294  71.694160  61.989151  0
-26.704742  78.814575  38.051483  0
-28.326752  77.005844  41.445312  0
-30.335262  77.053055  37.896393  0
-33.832893  74.981255  37.683231  0
-32.255219  76.653778  34.341843  0
-34.060310  75.810822  30.793373  0
-30.414318  77.713669  31.121515  0
-12.264978  80.490509  9.533653  0
-15.481897  78.254944  9.648336  0
-13.596693  79.839005  5.675361  0
-15.000511  79.083260  1.776518  0
-73.183334  -13.030603  6.540039  0
-72.474762  -11.492538  3.236174  0
-72.200218  -9.338319  6.218591  0
-72.572739  14.511962  6.614914  0
-72.740646  12.618317  3.445827  0
-72.467499  16.208546  2.998430  0
-72.098259  17.828945  -0.686700  0
-71.916229  19.798603  2.588298  0
-66.235657  27.282633  32.745705  0
-67.099548  25.839809  29.460838  0
-66.008820  29.288887  29.328114  0
-61.294338  43.787361  8.179193  0
-63.232803  40.515244  8.237609  0
-62.131149  42.144516  4.457036  0
-63.049171  40.615868  0.718238  0
-60.965118  43.832306  0.563621  0
-59.818420  45.667149  -3.401303  0
-58.733772  46.932617  0.466057  0
-41.718338  64.044708  4.992084  0
-42.566071  62.509930  1.027062  0
-39.384285  64.361740  1.245728  0
-37.163040  64.972672  -2.581537  0
-36.000809  66.044601  1.459167  0
-64.702530  -52.805996  78.648758  0
-65.583984  -54.249348  76.247131  0
-66.048050  -51.244217  76.437042  0
-72.155273  -38.154503  60.962166  0
-71.930389  -41.427155  60.997875  0
-72.680084  -39.751907  58.198391  0
-73.028290  -41.342617  55.397606  0
-73.333817  -38.074287  55.406116  0
-70.825264  -11.754668  60.017700  0
-71.250488  -14.978310  60.173458  0
-71.904297  -13.299630  57.543442  0
-73.643387  -21.275085  38.111542  0
-73.889191  -22.964638  41.210281  0
-73.613831  -24.667088  38.140045  0
-73.609978  -28.038345  38.125694  0
-73.473671  -26.400562  34.928749  0
-73.656418  -28.126221  31.612410  0
-73.517372  -24.797451  31.669111  0
-73.163033  -12.498602  12.757143  0
-74.402832  -16.026897  12.871422  0
-73.863945  -14.543413  9.742625  0
-74.665474  -16.461651  6.869192  0
-34.089291  -102.106583  6.732200  0
-34.922615  -100.595718  3.567488  0
-36.775589  -100.412186  6.513684  0
-52.902946  -86.347275  8.686769  0
-51.043648  -87.103676  5.461774  0
-53.119385  -84.327789  5.391789  0
-53.261658  -82.234764  2.044096  0
-55.165092  -81.446381  5.329606  0
-63.016914  -77.531548  34.154320  0
-62.317574  -78.931229  31.003582  0
-63.697655  -75.889206  30.922823  0
-67.141739  -60.781029  11.903517  0
-66.005112  -64.209549  11.812359  0
-66.310677  -61.880417  8.586754  0
-65.320793  -62.903145  5.250110  0
-66.843582  -59.489815  5.348959  0
-67.685074  -57.116390  2.096460  0
-68.746628  -56.128613  5.430402  0
-82.062347  -39.959084  10.822009  0
-82.476334  -41.829330  7.417140  0
-82.860764  -39.021034  8.011222  0
-82.988693  -37.856674  4.848547  0
-82.672897  -35.799652  8.437777  0
9.505871  -97.392578  78.680832  0
10.673579  -98.738747  76.124657  0
7.455605  -98.644318  76.572403  0
-7.680884  -105.408676  62.528595  0
-4.279564  -105.671356  62.273315  0
-6.200547  -106.513771  59.589798  0
-4.687526  -107.574577  56.606987  0
-8.148571  -107.250488  56.779266  0
-33.691643  -98.546234  62.920471  0
-30.685997  -99.989349  63.044155  0
-32.488762  -100.164871  60.081360  0
-26.001495  -107.885300  38.630711  0
-24.300541  -108.039307  41.809883  0
-22.804050  -109.201202  38.617970  0
-19.559486  -110.343185  38.571396  0
-21.303715  -110.284706  35.440849  0
-19.789570  -111.193108  32.289597  0
-23.028576  -109.968430  32.275932  0
-34.884552  -103.272697  12.871674  0
-32.056305  -104.866508  12.989616  0
-33.134174  -103.549637  9.869446  0
-31.338543  -103.643295  6.914503  0
61.109993  -79.483627  7.865788  0
59.778214  -80.105011  4.774775  0
59.318642  -82.085548  7.521080  0
45.719131  -98.790436  8.162767  0
46.715191  -96.856956  5.008779  0
44.193878  -98.999344  4.740700  0
42.557590  -98.954132  1.291685  0
41.475746  -100.911255  4.559898  0
34.340767  -107.900925  34.309059  0
36.095757  -107.458206  31.051682  0
32.867508  -108.948975  31.059652  0
18.506783  -111.339478  11.166196  0
22.105156  -110.595154  11.077520  0
20.033569  -110.124825  7.773165  0
21.514757  -108.678070  4.399228  0
17.914574  -109.459885  4.522784  0
15.756332  -108.615433  1.309144  0
14.282791  -110.117668  4.659691  0
-8.523082  -112.092499  9.079319  0
-6.920508  -111.559708  5.760376  0
-10.229046  -111.162537  6.073716  0
-11.849276  -110.008438  3.202656  0
-13.435272  -110.563210  6.370364  0
72.894371  -40.408241  77.680542  0
74.107246  -39.779312  75.209045  0
73.544632  -42.559471  75.817024  0
73.340012  -57.736420  61.869381  0
74.485062  -54.687927  61.645046  0
74.162445  -56.541275  58.949905  0
74.873138  -55.311932  56.033752  0
73.718674  -58.349709  56.184040  0
61.318016  -81.016228  62.499649  0
63.249977  -78.332748  62.504585  0
62.834084  -80.140335  59.608864  0
67.502983  -74.412125  38.496460  0
68.138069  -72.901489  41.594032  0
68.604095  -71.347198  38.466850  0
69.705429  -68.234192  38.438683  0
69.072029  -69.770538  35.325180  0
69.564651  -68.191757  32.185265  0
68.481049  -71.227661  32.216427  0
61.862801  -80.601616  13.718306  0
63.595337  -77.969528  13.891788  0
62.398476  -78.774956  10.896711  0
62.826920  -76.940552  8.133282  0
75.324333  20.024906  6.464799  0
75.576935  18.626339  3.394874  0
75.658333  16.743530  6.476125  0
76.740372  -6.148561  9.838612  0
76.081734  -4.219576  6.461106  0
76.097977  -7.908280  6.340158  0
75.672615  -9.771559  2.693821  0
76.286430  -11.699255  6.137177  0
81.776505  -20.326580  35.120270  0
81.439949  -18.605743  32.149422  0
81.215622  -21.848427  32.224407  0
80.643265  -36.169273  12.314865  0
80.263901  -32.968010  12.260580  0
81.412354  -34.952187  9.104534  0
81.775642  -33.551392  5.825899  0
82.461258  -37.013657  6.144161  0
83.147560  -39.225487  3.130209  0
82.752983  -40.359955  6.408751  0
72.391869  -56.714012  10.789330  0
73.575607  -55.188168  7.538833  0
71.630562  -57.916985  7.964693  0
70.710114  -59.075577  5.244166  0
70.084778  -60.830055  8.300262  0
-6.208344  91.884995  -27.928270  0
-8.758814  89.998917  -31.610334  0
-4.825131  90.500671  -32.642342  0
8.696218  80.331505  -64.111580  0
3.657284  82.058960  -63.416489  0
5.432469  80.864075  -69.139008  0
1.815940  81.132355  -74.122566  0
7.401392  79.477203  -74.971466  0
45.346813  56.706642  -57.562958  0
41.345627  59.879883  -59.175991  0
43.393215  56.764397  -62.848053  0
28.038834  47.715889  -96.830009  0
27.077839  53.381645  -94.494957  0
23.148907  51.412849  -99.030579  0
17.939201  55.059883  -100.986313  0
18.899517  48.874352  -103.145172  0
14.474421  45.830559  -106.836746  0
19.803404  42.656532  -105.091003  0
34.935135  6.118990  -117.355865  0
29.579514  8.815923  -118.889481  0
31.785984  3.449721  -120.696648  0
28.063007  0.349758  -122.849983  0
33.863987  -2.151175  -122.052628  0
-70.624405  -2.598497  -18.904755  0
-70.559113  -5.242963  -21.870872  0
-70.725273  -1.165703  -22.984938  0
-72.039841  9.389511  -51.930580  0
-71.925323  5.412004  -50.485802  0
-71.420967  6.120103  -55.349831  0
-70.637024  2.641844  -58.607307  0
-70.427460  6.818611  -60.214527  0
-57.357094  44.781075  -58.165352  0
-60.253101  40.611046  -58.079453  0
-57.613525  42.136017  -62.756245  0
-50.134514  21.046246  -92.140213  0
-53.869446  20.360905  -87.370758  0
-52.907196  15.894758  -91.299728  0
-55.596214  10.797588  -90.263634  0
-52.299412  11.374567  -95.459442  0
-52.159813  6.885134  -99.874298  0
-48.804230  11.946606  -100.614120  0
-16.042294  17.831245  -121.854408  0
-20.455929  13.118507  -122.266769  0
-14.507330  12.352041  -123.317291  0
-12.779032  6.649660  -124.084457  0
-8.384985  11.262388  -123.811096  0
-38.117096  -91.235657  -16.374668  0
-35.886803  -91.394257  -18.934711  0
-38.334068  -89.393860  -19.785955  0
-41.822617  -74.669449  -44.051628  0
-38.780251  -76.851524  -42.878105  0
-38.967609  -74.855515  -47.279060  0
-35.946678  -75.073929  -50.466354  0
-39.221550  -72.937477  -51.806862  0
-59.192947  -50.457581  -46.744263  0
-57.681076  -54.300846  -47.176750  0
-58.352528  -51.926094  -51.323608  0
-50.439682  -55.416958  -83.862305  0
-49.128593  -57.432640  -78.346008  0
-46.348202  -58.402130  -83.140213  0
-42.118187  -61.170517  -82.064522  0
-43.300175  -59.622311  -87.951874  0
-39.924477  -61.100262  -92.710449  0
-44.751343  -58.204147  -94.030983  0
-47.977905  -31.214582  -121.512131  0
-44.646404  -37.672958  -122.001717  0
-41.559349  -31.492119  -123.308243  0
-34.666409  -31.630157  -124.185226  0
-37.942261  -25.275467  -123.971504  0
52.327164  -82.030769  -15.328783  0
53.008385  -79.649712  -17.863060  0
51.134434  -82.008896  -19.008724  0
40.696190  -80.529068  -43.373833  0
43.781769  -79.231400  -42.571114  0
42.162750  -78.257980  -46.731575  0
43.660988  -75.946564  -50.055252  0
40.437576  -77.294312  -51.018501  0
11.054262  -87.872849  -43.626060  0
14.812252  -87.083176  -44.123837  0
12.285786  -85.987091  -47.798073  0
18.920650  -74.332352  -79.195992  0
21.572168  -74.940834  -74.390602  0
23.580265  -73.267853  -79.280624  0
28.203749  -72.079590  -79.018829  0
25.868637  -71.827515  -84.325363  0
28.510479  -70.587898  -89.460922  0
23.358351  -71.955551  -89.757690  0
-5.437648  -70.899826  -116.396667  0
1.037067  -70.570572  -117.705948  0
-3.896551  -67.768364  -120.099899  0
-2.120585  -63.174370  -122.501709  0
-8.859358  -64.063347  -121.783691  0
72.670380  10.766883  -16.499123  0
72.285645  13.060250  -19.719208  0
71.955009  9.608320  -20.269264  0
68.148651  -2.653503  -45.938217  0
68.259064  1.783991  -45.514801  0
67.738388  0.272707  -50.064198  0
67.818665  3.136772  -54.192154  0
67.216187  -1.349154  -54.651115  0
69.979813  -34.525589  -44.757401  0
70.671158  -30.973307  -45.642143  0
67.541237  -32.701508  -48.645103  0
61.013195  -24.317257  -82.191315  0
61.774349  -21.369843  -77.473541  0
61.594467  -19.166040  -82.509277  0
62.129196  -14.175165  -82.462280  0
61.050591  -16.855194  -87.481583  0
59.980316  -14.411081  -92.357773  0
60.247368  -19.729002  -92.733200  0
48.968872  -48.822708  -118.126953  0
49.743752  -41.916096  -119.576851  0
44.383629  -45.816082  -121.396301  0
39.024940  -42.382858  -123.305099  0
38.261383  -49.406708  -122.473015  0
-5.894924  -16.989082  115.185005  0
-5.553851  -14.239895  114.781006  0
-3.486351  -15.917360  115.241287  0
3.302965  -15.959392  115.302299  0
1.454807  -14.132751  115.064056  0
4.003362  -13.419376  114.862770  0
4.762607  -10.777880  114.377869  0
6.604674  -12.806531  114.591858  0
-5.937248  -30.628826  116.780655  0
-8.334637  -29.415127  116.241714  0
-6.152787  -27.851566  116.521637  0
-4.043975  -21.189457  115.989319  0
-6.269751  -22.428709  115.904434  0
-6.140389  -19.715839  115.555862  0
-8.285448  -18.175123  115.003662  0
6.654116  -34.977463  117.212799  0
4.748634  -37.062897  117.483459  0
3.966258  -34.348412  117.388878  0
-1.546539  -30.028835  117.187714  0
-1.119337  -32.711189  117.390564  0
-3.541003  -31.726036  117.168510  0
-5.638868  -33.479103  117.017670  0
14.383703  -23.816950  115.055855  0
15.724189  -26.274422  115.073280  0
13.070971  -26.181587  115.583878  0
7.497964  -30.297745  116.754593  0
10.121386  -30.687031  116.487122  0
8.451268  -32.855034  116.872635  0
9.398881  -35.491875  116.929291  0
9.251461  -12.277905  114.242203  0
8.347858  -14.875875  114.758026  0
10.409960  -21.525707  115.456482  0
11.513414  -19.167669  114.968781  0
12.977827  -21.439468  115.019203  0
15.623419  -21.368404  114.476135  0
38.997868  62.298065  68.758545  0
41.723557  60.350128  68.796425  0
39.654488  60.215797  71.308044  0
38.151375  55.706398  78.181702  0
40.394852  55.884132  76.149475  0
40.469772  53.644676  78.500748  0
42.775070  51.414619  78.771660  0
40.362263  51.355297  80.814377  0
24.378071  68.494583  69.096893  0
26.096922  69.464874  66.330246  0
27.544333  67.744904  68.952698  0
34.360432  63.620956  71.232773  0
33.433357  65.547623  68.791718  0
36.234131  64.045082  68.759140  0
38.167686  64.326889  66.080185  0
17.106892  61.051674  81.787224  0
15.143117  62.930031  79.856369  0
18.382374  62.885525  79.332428  0
24.275867  65.590012  74.007477  0
21.183426  66.038651  74.334732  0
22.734089  67.353218  71.756210  0
21.082165  69.062637  69.285828  0
-63.178661  18.859161  63.782455  0
-63.506203  20.654182  61.507256  0
-62.343307  21.602531  63.864090  0
-59.190468  27.752302  66.772125  0
-60.365944  27.091110  64.310898  0
-59.300674  29.898335  64.732910  0
-59.324486  32.102844  62.561703  0
-58.214706  32.718674  65.277527  0
-59.387821  10.824986  74.459991  0
-60.875656  9.422144  72.557053  0
-60.382214  12.336946  72.321426  0
-61.432659  18.186941  68.093399  0
-62.052658  15.484716  68.095810  0
-62.693336  17.137066  65.967743  0
-63.913349  16.040939  63.770515  0
-58.124435  -77.580635  65.716599  0
-59.513748  -77.240997  63.221840  0
-59.920547  -75.457947  65.640671  0
-63.062386  -69.361679  68.056458  0
-62.914639  -70.920090  65.669205  0
-64.148140  -68.472160  65.719070  0
-65.183083  -67.400055  63.243168  0
-65.252594  -65.866959  65.767670  0
-50.888680  -77.652771  78.412552  0
-50.027229  -79.704468  76.445007  0
-52.280128  -77.830765  75.902336  0
-57.165329  -75.949982  70.480789  0
-55.150547  -77.863220  70.763222  0
-56.648239  -77.771667  68.218071  0
-56.116760  -79.636414  65.869019  0
35.580383  -99.384033  66.304764  0
34.681248  -100.728203  63.736862  0
32.895302  -100.484848  66.126038  0
25.955933  -101.553726  68.250763  0
27.489952  -102.175606  65.934555  0
24.708073  -102.756645  65.918991  0
23.370983  -103.965698  63.499733  0
21.844376  -103.181641  65.948364  0
37.772026  -92.148560  78.577408  0
40.039886  -92.128014  76.609665  0
37.607670  -93.729118  76.095612  0
34.416649  -97.877319  70.962921  0
36.905884  -96.661324  71.254593  0
36.326889  -98.035385  68.806808  0
38.250725  -98.133652  66.519531  0
76.820740  -17.034328  64.025337  0
77.757431  -18.247578  61.740150  0
77.210678  -19.824104  63.936539  0
77.070740  -26.532877  66.278595  0
77.704742  -25.256123  64.048615  0
77.779816  -27.955849  64.236420  0
78.388084  -29.456169  62.055832  0
77.741333  -30.677763  64.501328  0
63.939247  42.230522  -18.625481  0
63.228283  42.877419  -22.672533  0
64.815292  39.882980  -21.071533  0
68.050072  31.817982  -23.537228  0
66.810959  34.604862  -25.597652  0
68.039856  31.775818  -27.586990  0
68.154724  31.749331  -31.745537  0
69.303101  28.898006  -29.338125  0
-39.234894  67.089096  -24.930157  0
-40.286240  66.684952  -28.854347  0
-36.718384  68.348740  -28.142677  0
-27.748795  73.381302  -32.864517  0
-31.087515  71.265869  -34.218628  0
-28.173218  73.228165  -37.019878  0
-28.556709  73.009262  -41.459190  0
-25.278353  75.498482  -39.612503  0
-82.852913  -38.232742  -18.393789  0
-82.207710  -38.000153  -22.446613  0
-81.856125  -35.584541  -21.555737  0
-77.892044  -26.780401  -24.773010  0
-79.232086  -29.402020  -26.575211  0
-77.632965  -26.202396  -28.362331  0
-76.677933  -25.688202  -31.816708  0
-75.791420  -23.050255  -29.807760  0
-10.123128  -102.789696  -14.823946  0
-9.108702  -101.308304  -18.028360  0
-12.117542  -101.313446  -17.165363  0
-18.961460  -98.242828  -19.999599  0
-16.220402  -98.241882  -21.286308  0
-18.355709  -96.588028  -23.121559  0
-17.708973  -94.732285  -26.455757  0
-20.569382  -94.850769  -24.844213  0
69.882797  -55.778488  -12.362007  0
69.852402  -54.650787  -15.827909  0
67.303207  -57.023285  -14.577076  0
61.655602  -63.380829  -17.605320  0
62.823906  -60.557503  -18.946962  0
61.002640  -62.686420  -21.088856  0
60.317558  -62.013767  -24.771019  0
59.373810  -64.915649  -23.145275  0
-41.769714  10.510927  95.611893  0
-41.568237  13.758108  95.072708  0
-39.538033  12.215521  96.989777  0
-32.448967  13.900364  101.119751  0
-34.716400  15.576336  99.438477  0
-32.113159  17.211929  100.490173  0
-31.735836  20.543201  99.761658  0
-29.372700  18.816975  101.435410  0
1.022350  16.259422  109.517059  0
-1.389905  18.564724  108.857239  0
1.876851  19.477057  108.706970  0
6.987543  26.720135  106.379990  0
3.656144  25.924847  106.742172  0
4.584452  29.107029  105.572968  0
2.137710  31.427444  104.638496  0
5.537032  32.237312  104.255783  0
6.505645  35.314461  102.778481  0
8.901899  32.967999  103.771393  0
17.807890  31.668297  103.081940  0
15.520662  34.160213  102.406036  0
18.784859  34.630424  101.510918  0
19.750734  37.516800  99.795151  0
22.006905  35.031433  100.483658  0
-44.022743  -58.508320  99.009598  0
-46.469940  -56.826462  97.598564  0
-44.327888  -55.341869  99.464890  0
-42.256752  -47.123489  101.385162  0
-44.598717  -48.778839  99.828491  0
-44.622688  -45.407646  99.849716  0
-46.933968  -43.689255  98.266861  0
-44.607506  -42.035851  99.819778  0
-31.833508  -13.962121  105.227798  0
-34.273613  -15.569093  103.937630  0
-34.154411  -12.279589  103.765923  0
-38.487415  -5.711172  100.544830  0
-38.657257  -8.969894  100.754776  0
-40.771881  -7.348674  99.148727  0
-43.022804  -9.013195  97.701759  0
-42.789658  -5.737853  97.435394  0
-44.726730  -4.134538  95.613708  0
-42.582024  -2.457962  97.157104  0
-39.996582  5.689146  97.926849  0
-42.192982  4.030105  96.500809  0
-41.980083  7.263624  96.087906  0
-43.889801  8.803547  94.143311  0
21.862362  -80.057404  100.460114  0
19.414940  -81.952881  99.138184  0
18.620796  -79.696709  101.476120  0
11.150412  -76.494873  105.505478  0
12.026438  -78.916771  103.319885  0
8.713644  -78.465515  104.126404  0
6.278716  -80.354767  102.620781  0
5.380140  -77.952148  104.830765  0
-18.113832  -57.616608  112.054764  0
-17.567738  -60.864948  111.403488  0
-20.635513  -59.523277  110.720490  0
-28.590847  -61.706131  106.938766  0
-25.607071  -63.173172  107.738068  0
-28.034864  -64.885620  106.069252  0
-27.378292  -67.985046  104.979225  0
-30.406929  -66.509079  104.274780  0
-32.687603  -68.037598  102.354858  0
-33.353680  -64.988167  103.473183  0
-39.300270  -58.694298  102.158585  0
-38.889465  -61.829979  101.518829  0
-41.494644  -60.183861  100.326630  0
-43.591133  -61.584534  98.322693  0
57.868523  -23.795937  94.409920  0
59.284950  -26.498333  93.766922  0
56.952225  -26.514400  95.506775  0
52.139126  -32.138176  99.133713  0
54.797802  -32.086037  97.510696  0
53.589699  -34.904961  98.410217  0
54.973907  -37.658218  97.576324  0
52.283417  -37.744164  99.240662  0
28.110313  -54.638790  111.223404  0
31.145451  -54.863129  109.878525  0
29.256550  -57.658440  110.218300  0
29.480318  -66.194473  107.710999  0
31.504898  -63.602951  107.777542  0
32.545792  -66.453445  106.314552  0
35.537136  -66.614410  104.752777  0
33.504524  -69.189865  104.659164  0
34.375378  -71.783020  102.802689  0
31.359646  -71.602722  104.296951  0
23.551836  -75.681046  103.888855  0
26.736481  -76.016785  102.771408  0
24.312725  -78.076782  101.684708  0
25.017738  -80.393570  99.362366  0
25.169947  35.364929  99.330933  0
24.205135  32.474289  101.004684  0
27.399555  24.141903  103.027138  0
28.406651  27.135983  101.582329  0
30.433697  24.377594  101.661507  0
33.446655  24.551342  100.188507  0
32.431725  21.580036  101.634903  0
37.096905  -9.786818  104.823669  0
38.307312  -6.914255  103.894028  0
39.860844  -9.725538  103.389648  0
46.868942  -12.528217  99.855209  0
45.339382  -9.693200  100.360245  0
48.010181  -9.711349  98.789192  0
49.121548  -6.914561  97.696083  0
50.594604  -9.754032  97.168991  0
53.064762  -9.832666  95.482681  0
52.040245  -12.587231  96.631500  0
53.972462  -21.006502  96.664291  0
54.941444  -18.252380  95.534149  0
56.412148  -21.049271  94.985489  0
58.664543  -21.113297  93.234360  0
62.920746  48.026695  17.441872  0
64.755356  44.898094  17.726120  0
63.659866  46.554428  20.880737  0
63.854122  44.617821  31.209335  0
64.849510  43.117516  27.909603  0
65.472321  41.300529  31.411816  0
67.023193  38.010704  31.603634  0
66.124344  39.460052  34.819550  0
61.840698  32.458382  68.172867  0
63.365067  31.548954  65.316628  0
63.247032  29.182446  67.869095  0
65.506760  20.273975  69.679794  0
65.834953  22.692347  67.299393  0
67.016296  19.445583  67.029755  0
68.407906  18.531097  64.314819  0
68.158432  16.200972  66.769104  0
69.274033  12.983391  66.519196  0
67.849174  13.831189  69.152740  0
65.495041  9.743561  76.137955  0
67.128540  9.081168  73.702957  0
66.693871  6.725267  75.803787  0
67.780365  3.762488  75.446915  0
66.170853  4.358518  77.767670  0
-6.485374  82.968658  16.876394  0
-4.957899  83.693741  12.963242  0
-3.351644  83.596840  16.693775  0
5.387947  83.415558  20.253939  0
3.097950  83.364532  16.490002  0
6.557929  82.583984  16.437059  0
7.657207  81.816727  12.449964  0
10.205378  81.484055  16.384905  0
44.176285  70.152634  32.859970  0
42.892540  71.832703  29.334826  0
46.051258  69.358063  29.332054  0
52.014030  64.030403  22.775602  0
49.272041  66.828262  22.614868  0
50.484180  65.033432  19.357494  0
48.542885  65.543083  15.890221  0
51.460976  62.958588  16.101284  0
52.294598  60.724442  12.813980  0
54.133514  60.176147  16.341782  0
59.925133  52.985741  20.331524  0
58.849041  54.227680  16.883213  0
60.953102  51.143295  17.163059  0
61.947384  49.236080  14.034906  0
-37.993069  45.726662  83.350487  0
-40.204689  46.668457  80.662476  0
-37.306053  48.718922  81.280960  0
-32.417206  56.421673  76.957901  0
-35.640419  54.528625  76.595505  0
-34.677986  57.309471  74.017273  0
-36.847492  58.005447  70.980629  0
-33.618935  59.962990  71.295029  0
-6.100462  77.366287  51.380859  0
-10.147167  76.960159  51.520420  0
-8.415820  78.655312  47.972977  0
-11.083899  82.411636  37.830948  0
-12.986401  81.119522  41.258308  0
-15.125215  81.946686  37.989170  0
-19.085804  81.246048  38.098625  0
-17.094046  82.236298  34.755661  0
-18.865242  81.871506  31.518929  0
-14.925880  82.726837  31.412441  0
-6.793487  83.499420  24.216970  0
-10.410032  82.757797  24.437864  0
-8.318691  82.722153  20.726414  0
-9.685676  81.889038  17.093349  0
-72.562065  -4.760223  18.816223  0
-72.343636  -3.094386  15.447210  0
-72.558578  -1.242939  18.529905  0
-72.224152  7.328409  20.901703  0
-72.444801  5.663369  17.776445  0
-72.214241  9.132679  17.372227  0
-72.326546  10.952953  13.792606  0
-71.851730  12.645293  16.981464  0
-61.237785  40.910889  32.526234  0
-62.247181  39.586372  29.104280  0
-60.824860  43.059155  29.076576  0
-58.216770  50.721405  22.180977  0
-59.862823  47.244217  22.152651  0
-59.092278  49.082031  18.766632  0
-59.852112  47.329704  15.331750  0
-57.964104  50.639603  15.384042  0
-56.463730  51.941399  11.906260  0
-55.927887  53.882538  15.463049  0
-50.660645  61.958179  19.075283  0
-51.300354  60.060051  15.603296  0
-48.679356  62.910995  15.658571  0
-46.446365  63.507347  12.171961  0
-45.860699  65.495956  15.748033  0
-65.216705  -40.099831  78.989212  0
-66.508377  -41.702774  76.607323  0
-66.421844  -38.424690  76.515442  0
-68.417976  -31.737329  71.276871  0
-68.598785  -35.042389  71.429077  0
-69.582291  -33.347702  68.816162  0
-70.602417  -34.954361  66.275192  0
-70.511063  -31.648315  66.150520  0
-72.376350  -4.974763  49.001820  0
-72.913101  -8.211771  49.191628  0
-73.034836  -6.504636  46.281754  0
-73.550980  -7.966812  37.635315  0
-73.697029  -9.630819  40.692642  0
-73.708183  -11.238611  37.792229  0
-73.737717  -14.537149  37.927399  0
-73.569122  -12.890181  34.812660  0
-73.384628  -14.619187  31.742977  0
-73.394516  -11.264284  31.660645  0
-72.968826  -4.597400  25.118389  0
-73.026169  -8.022411  25.302235  0
-72.805611  -6.398357  22.091236  0
-72.677109  -8.336819  19.002056  0
-40.938488  -100.160973  18.857058  0
-42.030533  -98.927452  15.609726  0
-43.669205  -98.103630  18.731865  0
-50.552910  -92.851242  21.700640  0
-48.953041  -93.776871  18.513481  0
-51.414688  -91.490479  18.429575  0
-52.085709  -89.958099  15.177204  0
-53.705688  -89.067505  18.361519  0
-67.562813  -64.816467  34.227940  0
-67.027939  -66.314346  31.002022  0
-67.910522  -63.070995  31.129427  0
-69.367538  -55.842041  24.944126  0
-68.492233  -59.229446  24.875332  0
-68.905853  -57.134186  21.703848  0
-68.406906  -58.398987  18.453247  0
-69.581657  -54.979958  18.491123  0
-70.684982  -52.862259  15.254738  0
-70.994759  -51.694069  18.498802  0
-73.938431  -44.379753  21.761766  0
-74.324570  -45.656082  18.568329  0
-75.972923  -42.864235  18.702339  0
-78.335449  -41.678967  15.918903  0
-77.363403  -40.120571  18.898550  0
-3.488978  -96.927193  80.781021  0
-2.309546  -98.388390  78.063126  0
-5.588200  -98.184822  78.488106  0
-13.040260  -100.131104  73.872253  0
-9.752237  -100.550858  73.623856  0
-11.798918  -101.618225  71.099197  0
-10.490561  -102.982559  68.283081  0
-13.821459  -102.558487  68.510818  0
-40.375420  -97.931732  50.685478  0
-37.576115  -99.812073  50.855087  0
-39.173244  -99.408630  47.695133  0
-38.247688  -101.408035  38.334885  0
-36.652306  -102.004745  41.609341  0
-35.267754  -103.162079  38.474701  0
-32.227386  -104.843979  38.562462  0
-33.826408  -104.305588  35.273327  0
-32.389565  -105.428749  32.060005  0
-35.403423  -103.677109  31.966396  0
-41.244648  -100.239746  25.282684  0
-38.382790  -102.163666  25.369965  0
-39.721222  -101.238708  22.104881  0
-38.174820  -102.111542  18.984188  0
58.782349  -86.849838  19.434460  0
57.559700  -87.688034  16.165066  0
56.830452  -89.403442  19.212547  0
51.377861  -95.977287  21.918388  0
52.406647  -94.364395  18.743462  0
49.982956  -96.842628  18.497543  0
48.580055  -97.643906  15.047943  0
47.484428  -99.286453  18.252251  0
20.940479  -112.234970  34.466454  0
22.735538  -112.239052  31.206287  0
19.227613  -112.906784  31.293404  0
11.903582  -113.839569  24.896526  0
15.578003  -113.529099  24.786036  0
13.637083  -113.536789  21.467224  0
15.317322  -113.036652  18.024975  0
11.644680  -113.381523  18.140388  0
9.612209  -113.081619  14.818871  0
7.943111  -113.619064  18.276934  0
-1.117797  -114.112358  21.993145  0
0.569762  -113.859177  18.569641  0
-3.034498  -113.834442  18.721523  0
-4.910474  -113.405281  15.451004  0
-6.551630  -113.652473  18.878168  0
69.361816  -51.886902  79.831985  0
70.925591  -51.269855  77.314087  0
69.760956  -54.206749  77.647049  0
68.794205  -61.577946  73.075699  0
70.177017  -58.662766  72.913956  0
70.198776  -60.796997  70.385361  0
71.391739  -59.898354  67.618958  0
70.107986  -62.878681  67.766243  0
59.097824  -87.885391  50.622391  0
61.164795  -85.240761  50.645752  0
60.446983  -86.825073  47.596153  0
61.762482  -85.757034  38.399498  0
62.665298  -84.408661  41.518295  0
63.496567  -83.044571  38.462120  0
65.013710  -80.264725  38.508835  0
64.173157  -81.565567  35.389648  0
64.753967  -79.975693  32.301979  0
63.237328  -82.783546  32.254555  0
59.297974  -87.600235  25.770962  0
61.121490  -84.965530  25.910318  0
59.971622  -85.940659  22.687119  0
60.609940  -84.202499  19.627628  0
75.846817  12.137541  19.555708  0
76.038956  10.705696  16.329632  0
76.599487  8.703121  19.645658  0
78.810898  0.100326  22.803253  0
78.030502  1.897332  19.673054  0
78.551224  -1.420139  19.658573  0
78.079895  -2.943477  16.466671  0
78.849213  -4.741508  19.666477  0
80.316284  -33.373833  35.320992  0
79.990860  -31.750629  32.270424  0
79.541412  -34.989212  32.250454  0
77.748154  -41.207649  25.784702  0
78.309937  -38.162941  25.749874  0
78.067307  -39.752441  22.383228  0
78.729385  -38.446564  18.951088  0
78.186996  -41.369537  19.009428  0
78.650238  -43.040405  15.719639  0
77.391205  -44.229797  19.140787  0
74.746376  -51.547745  22.914047  0
75.277344  -49.949638  19.565994  0
74.147217  -52.890553  19.798859  0
73.593307  -54.196949  16.723877  0
73.072311  -55.889145  19.989998  0
9.634832  85.538368  -30.771275  0
7.337471  86.279266  -34.955360  0
11.288691  83.491928  -35.396904  0
19.410248  77.051651  -44.800797  0
14.984932  79.776138  -44.804794  0
17.037188  78.077454  -49.504448  0
14.470049  78.945709  -54.268982  0
19.152859  76.308945  -54.205635  0
52.593735  42.192139  -70.067993  0
48.812695  45.556755  -72.453362  0
50.205154  41.242001  -75.059006  0
45.319328  33.462204  -86.737305  0
44.520195  38.624081  -84.747360  0
41.281586  36.910431  -89.421875  0
37.064217  40.440445  -92.002846  0
37.855946  34.915512  -93.991333  0
34.312275  32.658134  -98.481453  0
38.684387  29.327457  -95.967087  0
44.964409  15.118665  -97.359177  0
40.913612  18.304718  -100.278488  0
42.465160  12.922057  -102.618317  0
40.066986  10.726494  -107.911057  0
44.363247  7.612782  -105.015167  0
-72.441040  12.303947  -22.905716  0
-72.727676  10.185459  -26.292622  0
-72.737411  13.763742  -27.307484  0
-71.636826  20.705713  -37.323441  0
-72.729095  16.661419  -36.356163  0
-72.237251  18.104469  -41.036034  0
-72.496643  15.361187  -44.731415  0
-71.398132  19.565208  -45.818054  0
-44.965958  51.727314  -76.737289  0
-48.196316  47.003174  -76.838928  0
-44.640663  48.733887  -81.503830  0
-38.461006  42.472351  -94.439468  0
-42.830086  41.325085  -90.068069  0
-41.440025  36.966759  -93.956314  0
-44.381485  31.566959  -93.423080  0
-39.959595  32.313065  -97.804520  0
-38.618439  27.528553  -101.791763  0
-35.304306  32.933014  -102.077972  0
-21.638586  38.945587  -109.656281  0
-25.360260  33.622551  -109.926552  0
-20.078625  33.546799  -113.151398  0
-18.713120  28.297905  -116.569016  0
-14.592497  33.076168  -115.639679  0
-46.716850  -81.772766  -18.712654  0
-45.063839  -82.448486  -21.937954  0
-47.021179  -79.733551  -22.470898  0
-50.028175  -72.747780  -30.734955  0
-47.934647  -75.622658  -30.239239  0
-48.499500  -73.590256  -34.213844  0
-46.658829  -74.141342  -37.547054  0
-49.064690  -71.568527  -38.259575  0
-61.999626  -39.855942  -62.736931  0
-60.886299  -44.040047  -63.697334  0
-61.789284  -41.043674  -67.743111  0
-61.653610  -40.107647  -82.593575  0
-60.740143  -43.267509  -78.032089  0
-59.860741  -44.502357  -83.559486  0
-57.375305  -48.524117  -84.095367  0
-58.833279  -45.924591  -89.332504  0
-57.478119  -47.475574  -95.223663  0
-60.140762  -42.943237  -94.538269  0
-61.912170  -29.056797  -102.135880  0
-61.081795  -34.901962  -104.272797  0
-60.330605  -29.748047  -108.414368  0
-57.593784  -30.329361  -114.003510  0
-58.716515  -24.075565  -111.833054  0
43.485855  -90.456161  -18.673027  0
44.562840  -88.246933  -21.738596  0
41.878853  -89.938629  -22.299881  0
35.037605  -89.429855  -29.814713  0
38.358551  -88.259262  -29.543537  0
36.404995  -87.176666  -33.218170  0
37.818142  -84.962715  -36.624710  0
34.337540  -86.015549  -36.955620  0
0.574083  -83.641373  -57.629517  0
4.385914  -83.087784  -58.738739  0
1.609347  -81.989746  -62.191620  0
0.867304  -77.109879  -75.553741  0
3.928280  -78.296371  -71.723824  0
5.213830  -76.662674  -76.928589  0
9.696075  -76.043381  -78.007629  0
6.602004  -75.467941  -82.428284  0
8.137759  -74.712891  -88.140732  0
3.297903  -75.048782  -86.821091  0
-9.032106  -73.528946  -92.972160  0
-4.180547  -74.170738  -95.301682  0
-8.406196  -73.436798  -99.283066  0
-7.649750  -73.268280  -105.572342  0
-12.935749  -72.312141  -102.990356  0
73.325348  -4.668711  -18.806807  0
72.369995  -2.255132  -22.107719  0
73.463852  -6.204110  -22.763371  0
74.785339  -13.054438  -31.486168  0
73.309387  -9.207535  -30.765182  0
72.885880  -10.747656  -34.808102  0
70.908142  -8.249802  -38.267452  0
72.161331  -12.304412  -38.806580  0
59.909714  -43.811035  -57.841400  0
60.722748  -39.907181  -59.231361  0
59.600090  -42.879562  -62.959099  0
58.931625  -43.973843  -77.411728  0
59.551140  -40.703209  -73.539734  0
59.659920  -39.459694  -79.106316  0
60.134644  -34.622383  -80.477455  0
59.854172  -38.113770  -84.909485  0
60.082550  -36.583672  -90.906952  0
59.572746  -41.856655  -89.327362  0
55.706543  -54.381702  -94.785057  0
57.886681  -49.924286  -97.648018  0
55.662113  -53.920986  -101.286575  0
54.675903  -52.910538  -107.657166  0
52.152596  -57.614120  -104.438133  0
-24.008327  -3.034340  107.996902  0
-23.698277  0.213891  107.654991  0
-21.348328  -1.605789  108.843307  0
-13.604240  -0.866836  111.116455  0
-15.916277  1.073509  110.202362  0
-13.133175  2.327300  110.667328  0
-12.611374  5.573217  110.222473  0
-10.279232  3.529785  110.999367  0
-4.645538  -8.605625  113.837891  0
-6.845661  -6.684752  113.267487  0
-4.087089  -5.665866  113.318817  0
0.121278  1.378564  112.298447  0
-2.805181  0.439634  112.332214  0
-2.110164  3.550109  111.852982  0
-4.395551  5.715042  111.337784  0
-1.379000  6.696969  111.351517  0
-0.609637  9.872910  110.813599  0
1.684357  7.620327  111.275650  0
9.963507  6.869802  111.070679  0
7.844221  9.269802  110.855927  0
10.907715  9.972704  110.460495  0
11.870855  13.075867  109.769798  0
13.978165  10.595203  109.913605  0
-24.876804  -44.884377  110.912674  0
-27.471901  -43.403214  109.736313  0
-25.014793  -41.582062  110.871826  0
-22.727470  -33.347900  111.607880  0
-25.147087  -35.072037  110.583450  0
-25.144615  -31.847218  110.359718  0
-27.532192  -30.297718  109.004395  0
-25.109486  -28.620869  110.111214  0
-13.128401  -26.716263  114.797745  0
-15.487739  -28.303230  114.140083  0
-15.508941  -25.275215  113.908234  0
-20.144232  -19.120102  111.532974  0
-20.236820  -22.226803  111.812225  0
-22.577412  -20.628857  110.632919  0
-24.984955  -22.188551  109.622421  0
-24.897015  -18.994347  109.377327  0
-27.204636  -17.330473  108.049896  0
-24.789690  -15.797255  109.127747  0
-21.935650  -8.001978  109.514404  0
-24.492655  -9.429308  108.617111  0
-24.276896  -6.249487  108.321838  0
-26.605396  -4.495473  107.057701  0
14.514061  -58.571701  114.153931  0
12.246960  -60.993889  113.806290  0
11.242000  -57.960587  114.786728  0
3.866962  -53.433914  116.391296  0
4.750300  -56.532349  115.709885  0
1.535207  -55.717331  115.969208  0
-0.854944  -57.962372  115.386597  0
-1.648550  -54.822052  116.089569  0
0.664631  -41.204788  117.684097  0
1.384338  -44.174068  117.550430  0
-1.493525  -43.282715  117.560776  0
-8.832254  -46.378494  116.350700  0
-5.998704  -47.476318  116.793228  0
-8.329029  -49.578468  116.157097  0
-7.769768  -52.786362  115.823441  0
-10.701463  -51.650230  115.358231  0
-13.123144  -53.678993  114.396416  0
-13.606234  -50.424828  114.680496  0
-19.678047  -44.446075  113.014740  0
-19.373577  -47.739983  112.948448  0
-22.175274  -46.327667  111.972664  0
-24.685530  -48.206337  110.870537  0
36.480461  -23.811291  106.864929  0
37.983513  -26.584801  106.404831  0
35.156204  -26.578964  107.831955  0
29.575132  -31.980320  110.986771  0
32.400063  -32.085003  109.686615  0
30.973236  -34.824604  110.535309  0
