#!ascii version of 
806 1608
1.500000  -18.000000  30.000000  0
1.000000  -18.000000  30.500000  0
3.000000  -18.000000  29.500000  0
2.000000  -18.000000  29.500000  0
3.000000  -17.500000  32.000000  0
3.500000  -17.000000  32.000000  0
3.000000  -17.000000  32.500000  0
2.000000  -17.500000  32.000000  0
2.000000  -17.000000  32.500000  0
1.000000  -17.500000  32.000000  0
1.000000  -17.000000  32.500000  0
0.500000  -17.000000  32.000000  0
3.500000  -17.000000  31.000000  0
0.500000  -17.000000  31.000000  0
3.500000  -17.000000  30.000000  0
1.500000  -17.000000  30.000000  0
1.000000  -17.000000  30.500000  0
3.000000  -17.000000  29.500000  0
2.000000  -17.000000  29.500000  0
3.000000  -16.500000  33.000000  0
3.500000  -16.000000  33.000000  0
3.000000  -16.000000  33.500000  0
2.000000  -16.500000  33.000000  0
2.000000  -16.000000  33.500000  0
1.000000  -16.500000  33.000000  0
1.000000  -16.000000  33.500000  0
0.500000  -16.000000  33.000000  0
3.500000  -16.000000  32.000000  0
0.500000  -16.000000  32.000000  0
3.500000  -16.000000  31.000000  0
0.500000  -16.000000  31.000000  0
3.500000  -16.000000  30.000000  0
1.000000  -16.500000  30.000000  0
0.500000  -16.000000  30.000000  0
3.000000  -16.500000  29.000000  0
3.500000  -16.000000  29.000000  0
2.000000  -16.500000  29.000000  0
1.000000  -16.500000  29.000000  0
0.500000  -16.000000  29.000000  0
3.000000  -16.500000  28.000000  0
3.500000  -16.000000  28.000000  0
2.000000  -16.500000  28.000000  0
1.000000  -16.500000  28.000000  0
0.500000  -16.000000  28.000000  0
3.000000  -16.500000  27.000000  0
3.500000  -16.000000  27.000000  0
2.000000  -16.500000  27.000000  0
1.000000  -16.500000  27.000000  0
0.500000  -16.000000  27.000000  0
3.000000  -16.500000  26.000000  0
3.500000  -16.000000  26.000000  0
2.000000  -16.500000  26.000000  0
1.000000  -16.500000  26.000000  0
0.500000  -16.000000  26.000000  0
3.000000  -16.500000  25.000000  0
3.500000  -16.000000  25.000000  0
2.000000  -16.500000  25.000000  0
1.000000  -16.500000  25.000000  0
0.500000  -16.000000  25.000000  0
3.000000  -16.000000  24.500000  0
2.000000  -16.000000  24.500000  0
1.000000  -16.000000  24.500000  0
3.500000  -15.000000  33.000000  0
3.000000  -15.000000  33.500000  0
2.000000  -15.000000  33.500000  0
1.000000  -15.500000  33.000000  0
1.500000  -15.000000  33.000000  0
3.500000  -15.000000  32.000000  0
1.000000  -15.500000  32.000000  0
1.500000  -15.000000  32.000000  0
3.500000  -15.000000  31.000000  0
1.000000  -15.000000  31.500000  0
0.500000  -15.000000  31.000000  0
3.500000  -15.000000  30.000000  0
0.500000  -15.000000  30.000000  0
3.500000  -15.000000  29.000000  0
0.500000  -15.000000  29.000000  0
3.500000  -15.000000  28.000000  0
0.500000  -15.000000  28.000000  0
3.500000  -15.000000  27.000000  0
0.500000  -15.000000  27.000000  0
3.500000  -15.000000  26.000000  0
0.500000  -15.000000  26.000000  0
3.500000  -15.000000  25.000000  0
0.500000  -15.000000  25.000000  0
3.000000  -15.000000  24.500000  0
2.000000  -15.000000  24.500000  0
1.000000  -15.000000  24.500000  0
3.500000  -14.000000  33.000000  0
3.000000  -14.000000  33.500000  0
2.000000  -14.000000  33.500000  0
1.500000  -14.000000  33.000000  0
3.500000  -14.000000  32.000000  0
1.500000  -14.000000  32.000000  0
3.500000  -14.000000  31.000000  0
1.000000  -14.000000  31.500000  0
0.500000  -14.000000  31.000000  0
3.500000  -14.000000  30.000000  0
0.500000  -14.000000  30.000000  0
3.500000  -14.000000  29.000000  0
0.500000  -14.000000  29.000000  0
3.500000  -14.000000  28.000000  0
0.500000  -14.000000  28.000000  0
3.500000  -14.000000  27.000000  0
0.500000  -14.000000  27.000000  0
3.500000  -14.000000  26.000000  0
0.500000  -14.000000  26.000000  0
3.500000  -14.000000  25.000000  0
0.500000  -14.000000  25.000000  0
3.000000  -14.000000  24.500000  0
2.000000  -14.000000  24.500000  0
1.000000  -14.000000  24.500000  0
3.500000  -13.000000  33.000000  0
3.000000  -13.000000  33.500000  0
2.000000  -13.000000  33.500000  0
1.500000  -13.000000  33.000000  0
3.500000  -13.000000  32.000000  0
1.500000  -13.000000  32.000000  0
3.500000  -13.000000  31.000000  0
1.000000  -13.000000  31.500000  0
0.500000  -13.000000  31.000000  0
3.500000  -13.000000  30.000000  0
0.500000  -13.000000  30.000000  0
3.500000  -13.000000  29.000000  0
0.500000  -13.000000  29.000000  0
3.500000  -13.000000  28.000000  0
0.500000  -13.000000  28.000000  0
3.500000  -13.000000  27.000000  0
0.500000  -13.000000  27.000000  0
3.500000  -13.000000  26.000000  0
0.500000  -13.000000  26.000000  0
3.000000  -13.500000  25.000000  0
3.000000  -13.000000  25.500000  0
2.500000  -13.000000  25.000000  0
1.000000  -13.500000  25.000000  0
1.500000  -13.000000  25.000000  0
1.000000  -13.000000  25.500000  0
2.000000  -13.000000  24.500000  0
3.000000  -12.500000  33.000000  0
2.000000  -12.500000  33.000000  0
3.500000  -12.000000  32.000000  0
3.000000  -12.000000  32.500000  0
2.000000  -12.000000  32.500000  0
1.500000  -12.000000  32.000000  0
3.500000  -12.000000  31.000000  0
1.000000  -12.500000  31.000000  0
1.500000  -12.000000  31.000000  0
3.500000  -12.000000  30.000000  0
1.000000  -12.000000  30.500000  0
0.500000  -12.000000  30.000000  0
3.500000  -12.000000  29.000000  0
0.500000  -12.000000  29.000000  0
3.500000  -12.000000  28.000000  0
0.500000  -12.000000  28.000000  0
3.500000  -12.000000  27.000000  0
0.500000  -12.000000  27.000000  0
3.500000  -12.000000  26.000000  0
0.500000  -12.000000  26.000000  0
3.000000  -12.000000  25.500000  0
2.500000  -12.000000  25.000000  0
1.500000  -12.000000  25.000000  0
1.000000  -12.000000  25.500000  0
2.000000  -12.000000  24.500000  0
3.000000  -11.500000  32.000000  0
2.000000  -11.500000  32.000000  0
3.000000  -11.500000  31.000000  0
2.500000  -11.000000  31.000000  0
2.000000  -11.000000  31.500000  0
1.500000  -11.000000  31.000000  0
3.500000  -11.000000  30.000000  0
3.000000  -11.000000  30.500000  0
1.000000  -11.000000  30.500000  0
0.500000  -11.000000  30.000000  0
3.500000  -11.000000  29.000000  0
0.500000  -11.000000  29.000000  0
3.500000  -11.000000  28.000000  0
0.500000  -11.000000  28.000000  0
3.500000  -11.000000  27.000000  0
0.500000  -11.000000  27.000000  0
3.500000  -11.000000  26.000000  0
0.500000  -11.000000  26.000000  0
3.000000  -11.000000  25.500000  0
2.500000  -11.000000  25.000000  0
1.500000  -11.000000  25.000000  0
1.000000  -11.000000  25.500000  0
2.000000  -11.000000  24.500000  0
2.000000  -10.500000  31.000000  0
3.000000  -10.500000  30.000000  0
2.500000  -10.000000  30.000000  0
2.000000  -10.000000  30.500000  0
1.000000  -10.500000  30.000000  0
1.500000  -10.000000  30.000000  0
3.500000  -10.000000  29.000000  0
3.000000  -10.000000  29.500000  0
1.000000  -10.000000  29.500000  0
0.500000  -10.000000  29.000000  0
3.500000  -10.000000  28.000000  0
0.500000  -10.000000  28.000000  0
3.500000  -10.000000  27.000000  0
0.500000  -10.000000  27.000000  0
3.500000  -10.000000  26.000000  0
0.500000  -10.000000  26.000000  0
3.000000  -10.000000  25.500000  0
2.500000  -10.000000  25.000000  0
1.500000  -10.000000  25.000000  0
1.000000  -10.000000  25.500000  0
2.000000  -10.000000  24.500000  0
2.500000  -9.000000  30.000000  0
2.000000  -9.000000  30.500000  0
1.500000  -9.000000  30.000000  0
3.000000  -9.500000  29.000000  0
2.500000  -9.000000  29.000000  0
1.000000  -9.000000  29.500000  0
0.500000  -9.000000  29.000000  0
3.000000  -9.500000  28.000000  0
2.500000  -9.000000  28.000000  0
0.500000  -9.000000  28.000000  0
3.000000  -9.500000  27.000000  0
2.500000  -9.000000  27.000000  0
0.500000  -9.000000  27.000000  0
3.000000  -9.500000  26.000000  0
2.500000  -9.000000  26.000000  0
0.500000  -9.000000  26.000000  0
2.500000  -9.000000  25.000000  0
1.500000  -9.000000  25.000000  0
1.000000  -9.000000  25.500000  0
2.000000  -9.000000  24.500000  0
2.000000  -8.500000  30.000000  0
2.000000  -8.500000  29.000000  0
1.000000  -8.500000  29.000000  0
2.500000  -8.000000  28.000000  0
2.000000  -8.000000  28.500000  0
1.000000  -8.000000  28.500000  0
0.500000  -8.000000  28.000000  0
2.500000  -8.000000  27.000000  0
0.500000  -8.000000  27.000000  0
2.500000  -8.000000  26.000000  0
0.500000  -8.000000  26.000000  0
2.500000  -8.000000  25.000000  0
1.500000  -8.000000  25.000000  0
1.000000  -8.000000  25.500000  0
2.000000  -8.000000  24.500000  0
2.000000  -7.500000  28.000000  0
1.000000  -7.500000  28.000000  0
2.500000  -7.000000  27.000000  0
2.000000  -7.000000  27.500000  0
1.000000  -7.000000  27.500000  0
0.500000  -7.000000  27.000000  0
2.500000  -7.000000  26.000000  0
0.500000  -7.000000  26.000000  0
2.500000  -7.000000  25.000000  0
1.000000  -7.500000  25.000000  0
0.500000  -7.000000  25.000000  0
2.000000  -7.000000  24.500000  0
1.000000  -7.000000  24.500000  0
2.500000  -6.000000  27.000000  0
2.000000  -6.000000  27.500000  0
1.000000  -6.000000  27.500000  0
0.500000  -6.000000  27.000000  0
2.500000  -6.000000  26.000000  0
0.500000  -6.000000  26.000000  0
2.500000  -6.000000  25.000000  0
0.500000  -6.000000  25.000000  0
2.000000  -6.000000  24.500000  0
1.000000  -6.000000  24.500000  0
2.000000  -5.500000  27.000000  0
1.000000  -5.500000  27.000000  0
2.500000  -5.000000  26.000000  0
2.000000  -5.000000  26.500000  0
1.000000  -5.000000  26.500000  0
0.500000  -5.000000  26.000000  0
2.500000  -5.000000  25.000000  0
0.500000  -5.000000  25.000000  0
2.000000  -5.500000  24.000000  0
2.500000  -5.000000  24.000000  0
1.000000  -5.500000  24.000000  0
0.500000  -5.000000  24.000000  0
2.000000  -5.000000  23.500000  0
1.000000  -5.000000  23.500000  0
2.500000  -4.000000  26.000000  0
2.000000  -4.000000  26.500000  0
1.000000  -4.000000  26.500000  0
0.500000  -4.000000  26.000000  0
2.500000  -4.000000  25.000000  0
0.500000  -4.000000  25.000000  0
2.500000  -4.000000  24.000000  0
0.500000  -4.000000  24.000000  0
2.000000  -4.500000  23.000000  0
2.500000  -4.000000  23.000000  0
1.000000  -4.500000  23.000000  0
0.500000  -4.000000  23.000000  0
2.000000  -4.000000  22.500000  0
1.000000  -4.000000  22.500000  0
2.500000  -3.000000  26.000000  0
2.000000  -3.000000  26.500000  0
1.000000  -3.000000  26.500000  0
0.500000  -3.000000  26.000000  0
2.500000  -3.000000  25.000000  0
0.500000  -3.000000  25.000000  0
2.500000  -3.000000  24.000000  0
0.500000  -3.000000  24.000000  0
2.500000  -3.000000  23.000000  0
0.500000  -3.000000  23.000000  0
2.000000  -3.000000  22.500000  0
1.000000  -3.000000  22.500000  0
2.500000  -2.000000  26.000000  0
2.000000  -2.000000  26.500000  0
1.000000  -2.000000  26.500000  0
0.500000  -2.000000  26.000000  0
2.500000  -2.000000  25.000000  0
0.500000  -2.000000  25.000000  0
2.500000  -2.000000  24.000000  0
0.500000  -2.000000  24.000000  0
2.500000  -2.000000  23.000000  0
0.500000  -2.000000  23.000000  0
2.000000  -2.000000  22.500000  0
1.000000  -2.000000  22.500000  0
1.000000  -1.500000  27.000000  0
1.500000  -1.000000  27.000000  0
1.000000  -1.000000  27.500000  0
0.500000  -1.000000  27.000000  0
2.500000  -1.000000  26.000000  0
2.000000  -1.000000  26.500000  0
0.500000  -1.000000  26.000000  0
2.500000  -1.000000  25.000000  0
0.500000  -1.000000  25.000000  0
2.500000  -1.000000  24.000000  0
0.500000  -1.000000  24.000000  0
2.500000  -1.000000  23.000000  0
0.500000  -1.000000  23.000000  0
2.000000  -1.000000  22.500000  0
1.000000  -1.000000  22.500000  0
1.500000  0.000000  27.000000  0
1.000000  0.000000  27.500000  0
0.500000  0.000000  27.000000  0
2.500000  0.000000  26.000000  0
2.000000  0.000000  26.500000  0
0.500000  0.000000  26.000000  0
2.500000  0.000000  25.000000  0
0.500000  0.000000  25.000000  0
2.500000  0.000000  24.000000  0
0.500000  0.000000  24.000000  0
2.500000  0.000000  23.000000  0
0.500000  0.000000  23.000000  0
2.000000  0.000000  22.500000  0
1.000000  -0.500000  22.000000  0
1.500000  0.000000  22.000000  0
0.500000  0.000000  22.000000  0
1.000000  0.000000  21.500000  0
1.500000  1.000000  27.000000  0
1.000000  1.000000  27.500000  0
0.500000  1.000000  27.000000  0
2.500000  1.000000  26.000000  0
2.000000  1.000000  26.500000  0
0.500000  1.000000  26.000000  0
2.500000  1.000000  25.000000  0
0.500000  1.000000  25.000000  0
2.500000  1.000000  24.000000  0
0.500000  1.000000  24.000000  0
2.500000  1.000000  23.000000  0
0.500000  1.000000  23.000000  0
2.000000  0.500000  22.000000  0
2.500000  1.000000  22.000000  0
0.500000  1.000000  22.000000  0
2.000000  1.000000  21.500000  0
1.000000  1.000000  21.500000  0
2.000000  1.500000  27.000000  0
2.500000  2.000000  27.000000  0
2.000000  2.000000  27.500000  0
1.000000  2.000000  27.500000  0
0.500000  2.000000  27.000000  0
2.500000  2.000000  26.000000  0
0.000000  1.500000  26.000000  0
0.000000  2.000000  26.500000  0
-0.500000  2.000000  26.000000  0
2.500000  2.000000  25.000000  0
0.000000  1.500000  25.000000  0
-0.500000  2.000000  25.000000  0
2.500000  2.000000  24.000000  0
0.000000  1.500000  24.000000  0
-0.500000  2.000000  24.000000  0
2.500000  2.000000  23.000000  0
0.000000  1.500000  23.000000  0
-0.500000  2.000000  23.000000  0
2.500000  2.000000  22.000000  0
0.000000  1.500000  22.000000  0
-0.500000  2.000000  22.000000  0
2.000000  1.500000  21.000000  0
2.500000  2.000000  21.000000  0
1.000000  1.500000  21.000000  0
0.500000  2.000000  21.000000  0
0.000000  2.000000  21.500000  0
2.000000  2.000000  20.500000  0
1.000000  2.000000  20.500000  0
2.000000  2.500000  28.000000  0
2.500000  3.000000  28.000000  0
2.000000  3.000000  28.500000  0
1.000000  2.500000  28.000000  0
1.000000  3.000000  28.500000  0
0.500000  3.000000  28.000000  0
2.500000  3.000000  27.000000  0
0.500000  3.000000  27.000000  0
2.500000  3.000000  26.000000  0
0.000000  3.000000  26.500000  0
-0.500000  3.000000  26.000000  0
2.500000  3.000000  25.000000  0
-0.500000  3.000000  25.000000  0
2.500000  3.000000  24.000000  0
-0.500000  3.000000  24.000000  0
2.500000  3.000000  23.000000  0
-0.500000  3.000000  23.000000  0
2.500000  3.000000  22.000000  0
-0.500000  3.000000  22.000000  0
2.500000  3.000000  21.000000  0
0.000000  2.500000  21.000000  0
-0.500000  3.000000  21.000000  0
2.000000  2.500000  20.000000  0
2.500000  3.000000  20.000000  0
1.000000  2.500000  20.000000  0
0.500000  3.000000  20.000000  0
0.000000  3.000000  20.500000  0
2.000000  3.000000  19.500000  0
1.000000  2.500000  19.000000  0
1.500000  3.000000  19.000000  0
0.500000  3.000000  19.000000  0
1.000000  3.000000  18.500000  0
2.500000  4.000000  28.000000  0
2.000000  4.000000  28.500000  0
1.000000  4.000000  28.500000  0
0.500000  4.000000  28.000000  0
2.500000  4.000000  27.000000  0
0.000000  3.500000  27.000000  0
0.000000  4.000000  27.500000  0
-0.500000  4.000000  27.000000  0
2.500000  4.000000  26.000000  0
-0.500000  4.000000  26.000000  0
2.500000  4.000000  25.000000  0
-0.500000  4.000000  25.000000  0
2.500000  4.000000  24.000000  0
-0.500000  4.000000  24.000000  0
2.500000  4.000000  23.000000  0
-0.500000  4.000000  23.000000  0
2.500000  4.000000  22.000000  0
-0.500000  4.000000  22.000000  0
2.500000  4.000000  21.000000  0
-0.500000  4.000000  21.000000  0
2.500000  4.000000  20.000000  0
0.000000  3.500000  20.000000  0
-0.500000  4.000000  20.000000  0
2.000000  3.500000  19.000000  0
2.500000  4.000000  19.000000  0
0.000000  3.500000  19.000000  0
-0.500000  4.000000  19.000000  0
2.000000  3.500000  18.000000  0
2.500000  4.000000  18.000000  0
1.000000  3.500000  18.000000  0
0.500000  4.000000  18.000000  0
0.000000  4.000000  18.500000  0
2.000000  3.500000  17.000000  0
2.500000  4.000000  17.000000  0
1.000000  3.500000  17.000000  0
0.500000  4.000000  17.000000  0
2.000000  4.000000  16.500000  0
1.000000  4.000000  16.500000  0
2.000000  4.500000  30.000000  0
2.500000  5.000000  30.000000  0
2.000000  5.000000  30.500000  0
1.000000  4.500000  30.000000  0
1.000000  5.000000  30.500000  0
0.500000  5.000000  30.000000  0
2.000000  4.500000  29.000000  0
2.500000  5.000000  29.000000  0
1.000000  4.500000  29.000000  0
0.500000  5.000000  29.000000  0
2.500000  5.000000  28.000000  0
0.000000  4.500000  28.000000  0
0.000000  5.000000  28.500000  0
-0.500000  5.000000  28.000000  0
2.500000  5.000000  27.000000  0
-0.500000  5.000000  27.000000  0
2.500000  5.000000  26.000000  0
-0.500000  5.000000  26.000000  0
2.500000  5.000000  25.000000  0
-0.500000  5.000000  25.000000  0
2.500000  5.000000  24.000000  0
-0.500000  5.000000  24.000000  0
2.500000  5.000000  23.000000  0
-0.500000  5.000000  23.000000  0
2.500000  5.000000  22.000000  0
-0.500000  5.000000  22.000000  0
2.500000  5.000000  21.000000  0
-0.500000  5.000000  21.000000  0
2.500000  5.000000  20.000000  0
-0.500000  5.000000  20.000000  0
2.500000  5.000000  19.000000  0
-0.500000  5.000000  19.000000  0
2.500000  5.000000  18.000000  0
0.500000  5.000000  18.000000  0
0.000000  5.000000  18.500000  0
2.500000  5.000000  17.000000  0
0.500000  5.000000  17.000000  0
2.000000  5.000000  16.500000  0
1.000000  4.500000  16.000000  0
1.500000  5.000000  16.000000  0
0.500000  5.000000  16.000000  0
1.000000  5.000000  15.500000  0
2.000000  5.500000  31.000000  0
2.500000  6.000000  31.000000  0
2.000000  6.000000  31.500000  0
1.000000  5.500000  31.000000  0
1.000000  6.000000  31.500000  0
0.000000  5.500000  31.000000  0
0.000000  6.000000  31.500000  0
-0.500000  6.000000  31.000000  0
2.500000  6.000000  30.000000  0
0.000000  5.500000  30.000000  0
-0.500000  6.000000  30.000000  0
2.500000  6.000000  29.000000  0
0.000000  5.500000  29.000000  0
-0.500000  6.000000  29.000000  0
2.500000  6.000000  28.000000  0
-0.500000  6.000000  28.000000  0
2.500000  6.000000  27.000000  0
-0.500000  6.000000  27.000000  0
2.500000  6.000000  26.000000  0
-0.500000  6.000000  26.000000  0
2.500000  6.000000  25.000000  0
-0.500000  6.000000  25.000000  0
2.500000  6.000000  24.000000  0
-0.500000  6.000000  24.000000  0
2.500000  6.000000  23.000000  0
-0.500000  6.000000  23.000000  0
2.500000  6.000000  22.000000  0
-0.500000  6.000000  22.000000  0
2.500000  6.000000  21.000000  0
-0.500000  6.000000  21.000000  0
2.500000  6.000000  20.000000  0
-0.500000  6.000000  20.000000  0
2.500000  6.000000  19.000000  0
0.000000  5.500000  19.000000  0
0.500000  6.000000  19.000000  0
0.000000  6.000000  19.500000  0
2.500000  6.000000  18.000000  0
0.500000  6.000000  18.000000  0
2.500000  6.000000  17.000000  0
0.500000  6.000000  17.000000  0
2.000000  6.000000  16.500000  0
1.500000  6.000000  16.000000  0
0.500000  6.000000  16.000000  0
1.000000  6.000000  15.500000  0
0.000000  6.500000  32.000000  0
0.500000  7.000000  32.000000  0
0.000000  7.000000  32.500000  0
-0.500000  7.000000  32.000000  0
2.500000  7.000000  31.000000  0
2.000000  7.000000  31.500000  0
1.000000  7.000000  31.500000  0
-0.500000  7.000000  31.000000  0
2.500000  7.000000  30.000000  0
-0.500000  7.000000  30.000000  0
2.500000  7.000000  29.000000  0
-0.500000  7.000000  29.000000  0
2.500000  7.000000  28.000000  0
-0.500000  7.000000  28.000000  0
2.500000  7.000000  27.000000  0
-0.500000  7.000000  27.000000  0
2.500000  7.000000  26.000000  0
-0.500000  7.000000  26.000000  0
2.500000  7.000000  25.000000  0
-0.500000  7.000000  25.000000  0
2.500000  7.000000  24.000000  0
-0.500000  7.000000  24.000000  0
2.500000  7.000000  23.000000  0
-0.500000  7.000000  23.000000  0
2.500000  7.000000  22.000000  0
-0.500000  7.000000  22.000000  0
2.500000  7.000000  21.000000  0
-0.500000  7.000000  21.000000  0
2.500000  7.000000  20.000000  0
-0.500000  7.000000  20.000000  0
2.500000  7.000000  19.000000  0
0.000000  6.500000  19.000000  0
-0.500000  7.000000  19.000000  0
2.500000  7.000000  18.000000  0
0.500000  7.000000  18.000000  0
0.000000  7.000000  18.500000  0
2.500000  7.000000  17.000000  0
0.500000  7.000000  17.000000  0
2.000000  7.000000  16.500000  0
1.500000  7.000000  16.000000  0
0.500000  7.000000  16.000000  0
1.000000  7.000000  15.500000  0
1.000000  7.500000  32.000000  0
1.500000  8.000000  32.000000  0
1.000000  8.000000  32.500000  0
0.000000  7.500000  32.000000  0
0.500000  8.000000  32.000000  0
2.500000  8.000000  31.000000  0
2.000000  8.000000  31.500000  0
0.000000  8.000000  31.500000  0
-1.000000  7.500000  31.000000  0
-1.000000  8.000000  31.500000  0
-1.500000  8.000000  31.000000  0
2.500000  8.000000  30.000000  0
-1.000000  7.500000  30.000000  0
-1.500000  8.000000  30.000000  0
2.500000  8.000000  29.000000  0
-0.500000  8.000000  29.000000  0
-1.000000  8.000000  29.500000  0
2.500000  8.000000  28.000000  0
0.000000  7.500000  28.000000  0
0.500000  8.000000  28.000000  0
0.000000  8.000000  28.500000  0
2.500000  8.000000  27.000000  0
0.000000  7.500000  27.000000  0
0.500000  8.000000  27.000000  0
2.500000  8.000000  26.000000  0
0.000000  8.000000  26.500000  0
-0.500000  8.000000  26.000000  0
2.500000  8.000000  25.000000  0
-0.500000  8.000000  25.000000  0
2.500000  8.000000  24.000000  0
-0.500000  8.000000  24.000000  0
2.500000  8.000000  23.000000  0
-0.500000  8.000000  23.000000  0
2.500000  8.000000  22.000000  0
-0.500000  8.000000  22.000000  0
2.500000  8.000000  21.000000  0
-0.500000  8.000000  21.000000  0
2.500000  8.000000  20.000000  0
-0.500000  8.000000  20.000000  0
2.500000  8.000000  19.000000  0
-0.500000  8.000000  19.000000  0
2.500000  8.000000  18.000000  0
0.000000  7.500000  18.000000  0
-0.500000  8.000000  18.000000  0
2.500000  8.000000  17.000000  0
0.000000  7.500000  17.000000  0
-0.500000  8.000000  17.000000  0
2.000000  8.000000  16.500000  0
1.500000  8.000000  16.000000  0
0.500000  8.000000  16.000000  0
0.000000  8.000000  16.500000  0
1.000000  8.000000  15.500000  0
2.000000  8.500000  32.000000  0
2.500000  9.000000  32.000000  0
2.000000  9.000000  32.500000  0
1.000000  9.000000  32.500000  0
0.500000  9.000000  32.000000  0
2.500000  9.000000  31.000000  0
0.000000  8.500000  31.000000  0
0.500000  9.000000  31.000000  0
-1.000000  8.500000  31.000000  0
2.500000  9.000000  30.000000  0
1.000000  8.500000  30.000000  0
1.500000  9.000000  30.000000  0
1.000000  9.000000  30.500000  0
0.000000  8.500000  30.000000  0
-1.000000  8.500000  30.000000  0
2.500000  9.000000  29.000000  0
1.000000  8.500000  29.000000  0
1.500000  9.000000  29.000000  0
0.000000  8.500000  29.000000  0
2.000000  8.500000  28.000000  0
2.000000  9.000000  28.500000  0
1.000000  8.500000  28.000000  0
2.000000  8.500000  27.000000  0
1.000000  8.500000  27.000000  0
2.500000  9.000000  26.000000  0
2.000000  9.000000  26.500000  0
1.000000  9.000000  26.500000  0
0.000000  8.500000  26.000000  0
0.500000  9.000000  26.000000  0
2.500000  9.000000  25.000000  0
0.000000  9.000000  25.500000  0
-0.500000  9.000000  25.000000  0
2.500000  9.000000  24.000000  0
-0.500000  9.000000  24.000000  0
2.500000  9.000000  23.000000  0
-0.500000  9.000000  23.000000  0
2.500000  9.000000  22.000000  0
-0.500000  9.000000  22.000000  0
2.500000  9.000000  21.000000  0
-0.500000  9.000000  21.000000  0
2.500000  9.000000  20.000000  0
-0.500000  9.000000  20.000000  0
2.500000  9.000000  19.000000  0
-0.500000  9.000000  19.000000  0
2.500000  9.000000  18.000000  0
-0.500000  9.000000  18.000000  0
2.500000  9.000000  17.000000  0
-0.500000  9.000000  17.000000  0
2.000000  9.000000  16.500000  0
1.500000  9.000000  16.000000  0
0.500000  9.000000  16.000000  0
0.000000  9.000000  16.500000  0
1.000000  9.000000  15.500000  0
2.000000  9.500000  32.000000  0
1.000000  9.500000  32.000000  0
2.000000  9.500000  31.000000  0
1.000000  9.500000  31.000000  0
2.000000  9.500000  30.000000  0
2.000000  9.500000  29.000000  0
2.000000  9.500000  26.000000  0
1.000000  9.500000  26.000000  0
2.000000  9.500000  25.000000  0
1.000000  9.500000  25.000000  0
0.000000  9.500000  25.000000  0
2.000000  9.500000  24.000000  0
1.500000  10.000000  24.000000  0
1.000000  10.000000  24.500000  0
0.000000  10.000000  24.500000  0
-0.500000  10.000000  24.000000  0
2.500000  10.000000  23.000000  0
2.000000  10.000000  23.500000  0
-0.500000  10.000000  23.000000  0
2.500000  10.000000  22.000000  0
-0.500000  10.000000  22.000000  0
2.500000  10.000000  21.000000  0
-0.500000  10.000000  21.000000  0
2.500000  10.000000  20.000000  0
-0.500000  10.000000  20.000000  0
2.500000  10.000000  19.000000  0
-0.500000  10.000000  19.000000  0
2.500000  10.000000  18.000000  0
-0.500000  10.000000  18.000000  0
2.500000  10.000000  17.000000  0
-0.500000  10.000000  17.000000  0
2.000000  10.000000  16.500000  0
1.500000  10.000000  16.000000  0
0.500000  10.000000  16.000000  0
0.000000  10.000000  16.500000  0
1.000000  10.000000  15.500000  0
1.000000  10.500000  24.000000  0
0.000000  10.500000  24.000000  0
2.000000  10.500000  23.000000  0
1.500000  11.000000  23.000000  0
1.000000  11.000000  23.500000  0
0.000000  10.500000  23.000000  0
0.500000  11.000000  23.000000  0
2.000000  10.500000  22.000000  0
1.500000  11.000000  22.000000  0
0.000000  10.500000  22.000000  0
0.500000  11.000000  22.000000  0
2.000000  10.500000  21.000000  0
1.500000  11.000000  21.000000  0
0.000000  10.500000  21.000000  0
0.500000  11.000000  21.000000  0
2.000000  10.500000  20.000000  0
1.500000  11.000000  20.000000  0
0.000000  10.500000  20.000000  0
0.500000  11.000000  20.000000  0
2.000000  10.500000  19.000000  0
1.500000  11.000000  19.000000  0
0.000000  11.000000  19.500000  0
-0.500000  11.000000  19.000000  0
2.500000  11.000000  18.000000  0
2.000000  11.000000  18.500000  0
-0.500000  11.000000  18.000000  0
2.000000  10.500000  17.000000  0
2.000000  11.000000  17.500000  0
1.000000  10.500000  17.000000  0
1.000000  11.000000  17.500000  0
0.000000  10.500000  17.000000  0
0.000000  11.000000  17.500000  0
1.000000  10.500000  16.000000  0
1.000000  11.500000  23.000000  0
1.000000  11.500000  22.000000  0
1.000000  11.500000  21.000000  0
1.000000  11.500000  20.000000  0
1.000000  11.500000  19.000000  0
0.000000  11.500000  19.000000  0
2.000000  11.500000  18.000000  0
1.000000  11.500000  18.000000  0
0.000000  11.500000  18.000000  0
2 0 1 0
2 3 0 0
4 3 2 0
5 3 4 0
0 7 1 0
6 7 0 0
8 0 3 0
6 0 8 0
9 8 3 0
10 9 3 0
5 10 3 0
10 11 9 0
12 11 10 0
13 11 12 0
7 6 14 0
6 15 14 0
8 15 6 0
8 16 15 0
9 16 8 0
9 17 16 0
11 17 9 0
11 13 17 0
2 1 18 0
4 18 19 0
2 18 4 0
22 20 21 0
4 19 5 0
22 23 20 0
24 23 22 0
24 25 23 0
26 25 24 0
27 25 26 0
28 1 7 0
18 1 28 0
28 19 18 0
29 19 28 0
30 10 29 0
30 21 10 0
21 20 10 0
29 10 19 0
19 10 5 0
20 23 10 0
10 23 12 0
23 25 12 0
25 13 12 0
25 32 13 0
32 31 13 0
25 27 32 0
28 7 14 0
14 29 28 0
15 29 14 0
15 16 33 0
29 15 33 0
30 29 33 0
33 17 34 0
16 17 33 0
13 34 17 0
31 34 13 0
37 35 36 0
37 38 35 0
39 38 37 0
39 40 38 0
41 40 39 0
42 40 41 0
21 43 36 0
22 21 36 0
35 22 36 0
35 38 22 0
22 38 24 0
38 40 24 0
24 40 26 0
42 44 27 0
40 42 27 0
26 40 27 0
21 45 43 0
30 45 21 0
46 31 47 0
47 31 32 0
27 47 32 0
44 47 27 0
45 33 48 0
30 33 45 0
48 34 49 0
33 34 48 0
31 49 34 0
46 49 31 0
52 50 51 0
52 53 50 0
54 53 52 0
54 55 53 0
56 55 54 0
57 55 56 0
36 58 51 0
37 36 51 0
50 37 51 0
50 53 37 0
37 53 39 0
53 55 39 0
39 55 41 0
57 59 42 0
55 57 42 0
41 55 42 0
36 60 58 0
43 60 36 0
44 59 61 0
42 59 44 0
43 62 60 0
45 62 43 0
63 46 47 0
44 61 64 0
47 44 64 0
63 47 64 0
66 62 45 0
65 66 45 0
48 65 45 0
67 65 49 0
49 65 48 0
63 68 67 0
63 67 49 0
63 49 46 0
64 68 63 0
69 68 64 0
65 71 66 0
70 71 65 0
72 65 67 0
70 65 72 0
73 67 68 0
72 67 73 0
69 73 68 0
74 73 69 0
70 76 71 0
75 76 70 0
77 70 72 0
75 70 77 0
78 72 73 0
77 72 78 0
74 78 73 0
79 78 74 0
75 81 76 0
80 81 75 0
82 75 77 0
80 75 82 0
83 77 78 0
82 77 83 0
79 83 78 0
84 83 79 0
80 86 81 0
85 86 80 0
87 80 82 0
85 80 87 0
88 82 83 0
87 82 88 0
84 88 83 0
89 88 84 0
86 85 90 0
85 91 90 0
87 91 85 0
87 92 91 0
88 92 87 0
88 89 92 0
94 51 93 0
52 51 94 0
95 52 94 0
54 52 95 0
56 54 95 0
96 56 95 0
97 96 95 0
56 96 57 0
51 98 93 0
58 98 51 0
97 100 96 0
96 100 99 0
96 59 57 0
99 59 96 0
58 101 98 0
60 101 58 0
102 99 100 0
103 61 59 0
102 103 59 0
99 102 59 0
60 104 101 0
62 104 60 0
64 103 105 0
61 103 64 0
62 106 104 0
66 106 62 0
69 105 107 0
64 105 69 0
66 108 106 0
71 108 66 0
74 107 109 0
69 107 74 0
71 110 108 0
76 110 71 0
79 109 111 0
74 109 79 0
76 112 110 0
81 112 76 0
84 111 113 0
79 111 84 0
81 114 112 0
86 114 81 0
89 113 115 0
84 113 89 0
114 90 116 0
86 90 114 0
116 91 117 0
90 91 116 0
117 92 118 0
91 92 117 0
89 118 92 0
115 118 89 0
120 93 119 0
94 93 120 0
121 94 120 0
95 94 121 0
122 95 121 0
97 95 122 0
93 123 119 0
98 123 93 0
100 122 124 0
97 122 100 0
98 125 123 0
101 125 98 0
126 102 124 0
124 102 100 0
127 102 126 0
103 102 127 0
101 128 125 0
104 128 101 0
105 127 129 0
103 127 105 0
104 130 128 0
106 130 104 0
107 129 131 0
105 129 107 0
106 132 130 0
108 132 106 0
109 131 133 0
107 131 109 0
108 134 132 0
110 134 108 0
111 133 135 0
109 133 111 0
110 136 134 0
112 136 110 0
113 135 137 0
111 135 113 0
112 138 136 0
114 138 112 0
115 137 139 0
113 137 115 0
138 116 140 0
114 116 138 0
140 117 141 0
116 117 140 0
141 118 142 0
117 118 141 0
115 142 118 0
139 142 115 0
144 119 143 0
120 119 144 0
145 120 144 0
121 120 145 0
146 121 145 0
122 121 146 0
119 147 143 0
123 147 119 0
124 146 148 0
122 146 124 0
123 149 147 0
125 149 123 0
150 126 148 0
148 126 124 0
151 126 150 0
127 126 151 0
125 152 149 0
128 152 125 0
129 151 153 0
127 151 129 0
128 154 152 0
130 154 128 0
131 153 155 0
129 153 131 0
130 156 154 0
132 156 130 0
133 155 157 0
131 155 133 0
132 158 156 0
134 158 132 0
135 157 159 0
133 157 135 0
134 160 158 0
136 160 134 0
137 159 161 0
135 159 137 0
160 136 138 0
163 160 138 0
162 163 138 0
163 162 164 0
166 165 167 0
139 137 161 0
165 139 161 0
167 165 161 0
162 138 140 0
140 141 168 0
162 140 168 0
164 162 168 0
168 141 142 0
166 168 142 0
165 166 142 0
142 139 165 0
144 143 169 0
145 169 170 0
144 169 145 0
145 170 146 0
143 147 171 0
169 143 171 0
172 169 171 0
172 173 169 0
169 173 170 0
174 148 146 0
173 174 146 0
170 173 146 0
147 175 171 0
149 175 147 0
148 174 177 0
148 177 176 0
148 176 150 0
150 176 151 0
149 178 175 0
152 178 149 0
179 176 177 0
180 153 151 0
179 180 151 0
176 179 151 0
152 181 178 0
154 181 152 0
155 180 182 0
153 180 155 0
154 183 181 0
156 183 154 0
157 182 184 0
155 182 157 0
156 185 183 0
158 185 156 0
159 184 186 0
157 184 159 0
158 187 185 0
160 187 158 0
161 186 188 0
159 186 161 0
187 163 189 0
160 163 187 0
189 163 190 0
190 163 164 0
191 166 192 0
192 166 167 0
161 192 167 0
188 192 161 0
190 168 193 0
164 168 190 0
166 193 168 0
191 193 166 0
172 171 194 0
173 194 195 0
172 194 173 0
173 195 174 0
196 171 175 0
194 171 196 0
195 194 196 0
195 196 197 0
195 197 198 0
199 177 174 0
198 199 174 0
195 198 174 0
175 178 200 0
196 175 200 0
201 196 200 0
201 197 196 0
202 179 199 0
199 179 177 0
203 179 202 0
180 179 203 0
178 204 200 0
181 204 178 0
182 203 205 0
180 203 182 0
181 206 204 0
183 206 181 0
184 205 207 0
182 205 184 0
183 208 206 0
185 208 183 0
186 207 209 0
184 207 186 0
185 210 208 0
187 210 185 0
188 209 211 0
186 209 188 0
210 189 212 0
187 189 210 0
212 189 213 0
213 189 190 0
214 191 215 0
215 191 192 0
188 215 192 0
211 215 188 0
213 193 216 0
190 193 213 0
191 216 193 0
214 216 191 0
198 197 217 0
198 217 199 0
201 200 218 0
217 219 220 0
217 197 219 0
197 218 219 0
201 218 197 0
220 199 217 0
220 222 199 0
222 202 199 0
221 202 222 0
202 221 203 0
200 204 223 0
218 200 223 0
224 218 223 0
224 219 218 0
225 221 222 0
226 205 203 0
225 226 203 0
221 225 203 0
204 227 223 0
206 227 204 0
207 226 228 0
205 226 207 0
206 229 227 0
208 229 206 0
209 228 230 0
207 228 209 0
208 231 229 0
210 231 208 0
211 230 232 0
209 230 211 0
231 212 233 0
210 212 231 0
233 212 234 0
234 212 213 0
235 214 236 0
236 214 215 0
211 236 215 0
232 236 211 0
234 216 237 0
213 216 234 0
214 237 216 0
235 237 214 0
239 219 238 0
220 219 239 0
240 220 239 0
222 220 240 0
224 223 241 0
242 238 219 0
242 219 224 0
242 224 241 0
243 225 240 0
240 225 222 0
244 225 243 0
226 225 244 0
245 223 227 0
241 223 245 0
241 245 242 0
242 245 246 0
228 244 247 0
226 244 228 0
248 227 229 0
245 227 248 0
245 248 246 0
246 248 249 0
230 247 250 0
228 247 230 0
251 229 231 0
248 229 251 0
248 251 249 0
249 251 252 0
232 250 253 0
230 250 232 0
251 231 233 0
234 254 252 0
234 252 251 0
234 251 233 0
255 235 256 0
256 235 236 0
232 256 236 0
253 256 232 0
254 237 257 0
234 237 254 0
235 257 237 0
255 257 235 0
239 238 258 0
239 258 240 0
259 238 242 0
258 238 259 0
258 259 260 0
240 258 260 0
243 240 260 0
243 260 244 0
242 246 261 0
259 242 261 0
262 259 261 0
262 263 259 0
259 263 260 0
264 247 244 0
263 264 244 0
260 263 244 0
246 265 261 0
249 265 246 0
250 264 266 0
247 264 250 0
249 267 265 0
252 267 249 0
253 266 268 0
250 266 253 0
252 269 267 0
254 269 252 0
270 255 271 0
271 255 256 0
253 271 256 0
268 271 253 0
269 257 272 0
254 257 269 0
255 272 257 0
270 272 255 0
262 261 273 0
263 273 274 0
262 273 263 0
263 274 264 0
261 265 275 0
273 261 275 0
276 273 275 0
276 277 273 0
273 277 274 0
278 266 264 0
277 278 264 0
274 277 264 0
265 279 275 0
267 279 265 0
268 278 280 0
266 278 268 0
267 281 279 0
269 281 267 0
282 270 271 0
268 280 283 0
271 268 283 0
282 271 283 0
281 272 284 0
269 272 281 0
285 284 272 0
282 285 272 0
270 282 272 0
282 283 285 0
287 275 286 0
276 275 287 0
288 276 287 0
277 276 288 0
289 277 288 0
278 277 289 0
275 290 286 0
279 290 275 0
280 289 291 0
278 289 280 0
279 292 290 0
281 292 279 0
283 291 293 0
280 291 283 0
292 284 294 0
281 284 292 0
294 285 295 0
284 285 294 0
283 295 285 0
293 295 283 0
287 286 296 0
288 296 297 0
287 296 288 0
288 297 289 0
286 290 298 0
296 286 298 0
299 296 298 0
299 300 296 0
296 300 297 0
301 291 289 0
300 301 289 0
297 300 289 0
290 302 298 0
292 302 290 0
293 301 303 0
291 301 293 0
305 302 292 0
304 305 292 0
294 304 292 0
306 304 295 0
295 304 294 0
293 303 307 0
295 293 307 0
306 295 307 0
305 304 308 0
304 309 308 0
306 309 304 0
306 307 309 0
311 298 310 0
299 298 311 0
312 299 311 0
300 299 312 0
313 300 312 0
301 300 313 0
298 314 310 0
302 314 298 0
303 313 315 0
301 313 303 0
302 316 314 0
305 316 302 0
307 315 317 0
303 315 307 0
319 316 305 0
318 319 305 0
308 318 305 0
320 318 309 0
309 318 308 0
307 317 321 0
309 307 321 0
320 309 321 0
319 318 322 0
318 323 322 0
320 323 318 0
320 321 323 0
325 310 324 0
311 310 325 0
326 311 325 0
312 311 326 0
327 312 326 0
313 312 327 0
310 328 324 0
314 328 310 0
315 327 329 0
313 327 315 0
314 330 328 0
316 330 314 0
317 329 331 0
315 329 317 0
316 332 330 0
319 332 316 0
321 331 333 0
317 331 321 0
332 322 334 0
319 322 332 0
334 323 335 0
322 323 334 0
321 335 323 0
333 335 321 0
337 324 336 0
325 324 337 0
338 325 337 0
326 325 338 0
339 326 338 0
327 326 339 0
324 340 336 0
328 340 324 0
329 339 341 0
327 339 329 0
328 342 340 0
330 342 328 0
331 341 343 0
329 341 331 0
330 344 342 0
332 344 330 0
333 343 345 0
331 343 333 0
344 334 346 0
332 334 344 0
346 335 347 0
334 335 346 0
333 347 335 0
345 347 333 0
350 348 349 0
351 348 350 0
353 336 352 0
337 336 353 0
338 337 353 0
338 353 349 0
338 349 348 0
351 354 339 0
348 351 339 0
338 348 339 0
336 355 352 0
340 355 336 0
341 354 356 0
339 354 341 0
340 357 355 0
342 357 340 0
343 356 358 0
341 356 343 0
342 359 357 0
344 359 342 0
345 358 360 0
343 358 345 0
359 346 361 0
344 346 359 0
361 347 362 0
346 347 361 0
345 362 347 0
360 362 345 0
364 349 363 0
350 349 364 0
365 350 364 0
351 350 365 0
367 352 366 0
353 352 367 0
353 367 349 0
349 367 363 0
354 365 368 0
351 365 354 0
352 369 366 0
355 369 352 0
356 368 370 0
354 368 356 0
355 371 369 0
357 371 355 0
358 370 372 0
356 370 358 0
357 373 371 0
359 373 357 0
360 372 374 0
358 372 360 0
373 361 375 0
359 361 373 0
375 361 362 0
375 362 376 0
375 376 377 0
360 374 378 0
362 360 378 0
376 362 378 0
377 376 379 0
376 378 379 0
381 363 380 0
364 363 381 0
382 364 381 0
365 364 382 0
384 366 383 0
367 366 384 0
367 384 363 0
363 384 380 0
368 382 385 0
365 382 368 0
366 386 383 0
369 386 366 0
370 385 387 0
368 385 370 0
369 388 386 0
371 388 369 0
372 387 389 0
370 387 372 0
371 390 388 0
373 390 371 0
374 389 391 0
372 389 374 0
393 390 373 0
392 393 373 0
375 392 373 0
377 392 375 0
378 391 394 0
374 391 378 0
393 392 395 0
379 396 395 0
377 379 395 0
392 377 395 0
378 396 379 0
394 396 378 0
399 397 398 0
399 400 381 0
397 399 381 0
380 397 381 0
401 381 400 0
382 381 401 0
383 402 398 0
384 383 398 0
397 384 398 0
397 380 384 0
385 382 401 0
385 401 404 0
385 404 403 0
405 403 404 0
383 406 402 0
386 406 383 0
387 385 407 0
407 385 403 0
405 407 403 0
408 407 405 0
386 409 406 0
388 409 386 0
389 387 410 0
410 387 407 0
408 410 407 0
411 410 408 0
388 412 409 0
390 412 388 0
391 389 413 0
413 389 410 0
411 413 410 0
414 413 411 0
390 415 412 0
393 415 390 0
394 391 416 0
416 391 413 0
414 416 413 0
417 416 414 0
419 415 393 0
418 419 393 0
395 418 393 0
420 418 396 0
396 418 395 0
421 416 422 0
421 420 416 0
420 394 416 0
396 394 420 0
416 417 422 0
419 418 423 0
418 424 423 0
420 424 418 0
420 421 424 0
427 425 426 0
427 428 425 0
429 428 427 0
430 428 429 0
398 431 426 0
399 398 426 0
425 399 426 0
425 428 399 0
399 428 400 0
430 432 401 0
428 430 401 0
400 428 401 0
398 433 431 0
402 433 398 0
434 404 432 0
432 404 401 0
435 404 434 0
405 404 435 0
402 436 433 0
406 436 402 0
408 435 437 0
405 435 408 0
406 438 436 0
409 438 406 0
411 437 439 0
408 437 411 0
409 440 438 0
412 440 409 0
414 439 441 0
411 439 414 0
412 442 440 0
415 442 412 0
417 441 443 0
414 441 417 0
415 444 442 0
419 444 415 0
445 421 422 0
417 443 446 0
422 417 446 0
445 422 446 0
448 444 419 0
447 448 419 0
423 447 419 0
449 447 424 0
424 447 423 0
450 445 451 0
450 449 445 0
449 421 445 0
424 421 449 0
445 446 451 0
448 447 452 0
447 449 453 0
452 447 453 0
454 452 453 0
450 453 449 0
455 453 450 0
454 453 456 0
453 455 456 0
458 426 457 0
427 426 458 0
459 427 458 0
429 427 459 0
460 429 459 0
430 429 460 0
426 461 457 0
431 461 426 0
432 430 460 0
432 460 463 0
432 463 462 0
464 462 463 0
431 465 461 0
433 465 431 0
434 432 462 0
464 466 435 0
462 464 435 0
434 462 435 0
433 467 465 0
436 467 433 0
437 466 468 0
435 466 437 0
436 469 467 0
438 469 436 0
439 468 470 0
437 468 439 0
438 471 469 0
440 471 438 0
441 470 472 0
439 470 441 0
440 473 471 0
442 473 440 0
443 472 474 0
441 472 443 0
442 475 473 0
444 475 442 0
446 474 476 0
443 474 446 0
444 477 475 0
448 477 444 0
478 450 451 0
446 476 479 0
451 446 479 0
478 451 479 0
481 477 448 0
480 481 448 0
452 480 448 0
454 480 452 0
455 450 482 0
482 450 478 0
479 482 478 0
483 482 479 0
480 485 481 0
484 485 480 0
486 484 480 0
486 480 454 0
486 454 456 0
487 482 488 0
487 486 482 0
486 455 482 0
456 455 486 0
482 483 488 0
484 490 485 0
489 490 484 0
491 484 486 0
489 484 491 0
487 491 486 0
492 491 487 0
490 489 493 0
489 494 493 0
491 494 489 0
491 492 494 0
497 495 496 0
497 498 495 0
499 498 497 0
500 498 499 0
495 502 496 0
501 502 495 0
503 495 498 0
501 495 503 0
500 503 498 0
504 503 500 0
457 505 502 0
458 457 502 0
501 458 502 0
501 503 458 0
458 503 459 0
507 503 504 0
507 506 503 0
506 459 503 0
460 459 506 0
508 506 507 0
457 509 505 0
461 509 457 0
463 460 506 0
508 510 464 0
506 508 464 0
463 506 464 0
461 511 509 0
465 511 461 0
466 510 512 0
464 510 466 0
465 513 511 0
467 513 465 0
468 512 514 0
466 512 468 0
467 515 513 0
469 515 467 0
470 514 516 0
468 514 470 0
469 517 515 0
471 517 469 0
472 516 518 0
470 516 472 0
471 519 517 0
473 519 471 0
474 518 520 0
472 518 474 0
473 521 519 0
475 521 473 0
476 520 522 0
474 520 476 0
475 523 521 0
477 523 475 0
479 522 524 0
476 522 479 0
477 525 523 0
481 525 477 0
483 524 526 0
479 524 483 0
481 527 525 0
485 527 481 0
528 487 529 0
529 487 488 0
483 529 488 0
526 529 483 0
485 530 527 0
490 530 485 0
492 528 531 0
487 528 492 0
530 493 532 0
490 493 530 0
532 493 494 0
532 494 533 0
532 533 534 0
492 531 535 0
494 492 535 0
533 494 535 0
534 533 536 0
533 535 536 0
539 537 538 0
539 540 537 0
541 540 539 0
541 542 540 0
543 542 541 0
544 542 543 0
496 545 538 0
497 496 538 0
537 497 538 0
537 540 497 0
497 540 499 0
540 542 546 0
540 546 500 0
540 500 499 0
544 546 542 0
547 546 544 0
496 548 545 0
502 548 496 0
504 500 549 0
549 500 546 0
547 549 546 0
550 549 547 0
502 551 548 0
505 551 502 0
507 504 549 0
550 552 508 0
549 550 508 0
507 549 508 0
505 553 551 0
509 553 505 0
510 552 554 0
508 552 510 0
509 555 553 0
511 555 509 0
512 554 556 0
510 554 512 0
511 557 555 0
513 557 511 0
514 556 558 0
512 556 514 0
513 559 557 0
515 559 513 0
516 558 560 0
514 558 516 0
515 561 559 0
517 561 515 0
518 560 562 0
516 560 518 0
517 563 561 0
519 563 517 0
520 562 564 0
518 562 520 0
519 565 563 0
521 565 519 0
522 564 566 0
520 564 522 0
521 567 565 0
523 567 521 0
524 566 568 0
522 566 524 0
523 569 567 0
525 569 523 0
571 570 572 0
526 524 568 0
570 526 568 0
572 570 568 0
525 573 569 0
527 573 525 0
571 574 528 0
571 528 529 0
571 529 570 0
529 526 570 0
527 575 573 0
530 575 527 0
531 574 576 0
528 574 531 0
575 532 577 0
530 532 575 0
577 532 578 0
578 532 534 0
535 576 579 0
531 576 535 0
578 536 580 0
534 536 578 0
535 580 536 0
579 580 535 0
583 581 582 0
584 581 583 0
586 538 585 0
539 538 586 0
587 539 586 0
541 539 587 0
543 541 587 0
543 587 582 0
543 582 581 0
584 588 544 0
581 584 544 0
543 581 544 0
538 589 585 0
545 589 538 0
547 588 590 0
544 588 547 0
545 591 589 0
548 591 545 0
550 590 592 0
547 590 550 0
548 593 591 0
551 593 548 0
552 592 594 0
550 592 552 0
551 595 593 0
553 595 551 0
554 594 596 0
552 594 554 0
553 597 595 0
555 597 553 0
556 596 598 0
554 596 556 0
555 599 597 0
557 599 555 0
558 598 600 0
556 598 558 0
557 601 599 0
559 601 557 0
560 600 602 0
558 600 560 0
559 603 601 0
561 603 559 0
562 602 604 0
560 602 562 0
561 605 603 0
563 605 561 0
564 604 606 0
562 604 564 0
563 607 605 0
565 607 563 0
566 606 608 0
564 606 566 0
565 609 607 0
567 609 565 0
568 608 610 0
566 608 568 0
567 611 609 0
569 611 567 0
612 571 572 0
568 610 613 0
572 568 613 0
612 572 613 0
569 614 611 0
573 614 569 0
615 574 571 0
615 571 612 0
615 612 616 0
612 613 616 0
573 617 614 0
575 617 573 0
576 615 618 0
574 615 576 0
617 577 619 0
575 577 617 0
619 577 620 0
620 577 578 0
579 618 621 0
576 618 579 0
620 580 622 0
578 580 620 0
579 622 580 0
621 622 579 0
625 623 624 0
583 582 626 0
625 627 623 0
583 626 584 0
629 585 628 0
586 585 629 0
587 586 629 0
587 629 624 0
587 624 623 0
587 623 627 0
587 627 630 0
582 587 630 0
626 582 630 0
588 584 631 0
584 632 631 0
584 626 632 0
626 630 632 0
633 631 632 0
585 634 628 0
589 634 585 0
590 588 635 0
635 588 631 0
633 635 631 0
636 635 633 0
589 637 634 0
591 637 589 0
638 592 590 0
638 590 635 0
638 635 639 0
635 636 639 0
591 640 637 0
593 640 591 0
642 641 643 0
594 592 638 0
641 594 638 0
643 641 638 0
593 644 640 0
595 644 593 0
642 646 641 0
641 646 645 0
641 596 594 0
645 596 641 0
595 647 644 0
597 647 595 0
648 645 646 0
649 598 596 0
648 649 596 0
645 648 596 0
597 650 647 0
599 650 597 0
600 649 651 0
598 649 600 0
599 652 650 0
601 652 599 0
602 651 653 0
600 651 602 0
601 654 652 0
603 654 601 0
604 653 655 0
602 653 604 0
603 656 654 0
605 656 603 0
606 655 657 0
604 655 606 0
605 658 656 0
607 658 605 0
608 657 659 0
606 657 608 0
607 660 658 0
609 660 607 0
610 659 661 0
608 659 610 0
609 662 660 0
611 662 609 0
613 661 663 0
610 661 613 0
611 664 662 0
614 664 611 0
665 615 616 0
613 663 666 0
616 613 666 0
665 616 666 0
614 667 664 0
617 667 614 0
618 615 668 0
668 615 665 0
666 668 665 0
669 668 666 0
667 619 670 0
617 619 667 0
670 619 671 0
671 619 620 0
672 621 618 0
672 618 668 0
672 668 673 0
668 669 673 0
671 622 674 0
620 622 671 0
621 674 622 0
672 674 621 0
677 675 676 0
677 678 625 0
675 677 625 0
624 675 625 0
679 625 678 0
627 625 679 0
628 680 676 0
629 628 676 0
675 629 676 0
675 624 629 0
627 679 682 0
627 682 681 0
627 681 630 0
632 681 683 0
630 681 632 0
632 683 633 0
628 684 680 0
634 684 628 0
686 685 687 0
685 688 681 0
685 681 682 0
685 682 687 0
688 683 681 0
689 683 688 0
683 636 633 0
689 636 683 0
634 690 684 0
637 690 634 0
686 692 685 0
685 692 691 0
691 688 685 0
693 688 691 0
689 688 693 0
639 689 693 0
638 639 693 0
639 636 689 0
690 637 640 0
695 690 640 0
694 695 640 0
694 696 691 0
694 691 692 0
694 692 695 0
693 691 696 0
643 693 696 0
642 643 696 0
643 638 693 0
697 640 644 0
694 640 697 0
697 696 694 0
698 696 697 0
696 646 642 0
698 646 696 0
644 647 699 0
697 644 699 0
700 697 699 0
700 701 697 0
697 701 698 0
701 646 698 0
701 703 646 0
703 648 646 0
702 648 703 0
648 702 649 0
647 704 699 0
650 704 647 0
705 702 703 0
706 651 649 0
705 706 649 0
702 705 649 0
650 707 704 0
652 707 650 0
653 706 708 0
651 706 653 0
652 709 707 0
654 709 652 0
655 708 710 0
653 708 655 0
654 711 709 0
656 711 654 0
657 710 712 0
655 710 657 0
656 713 711 0
658 713 656 0
659 712 714 0
657 712 659 0
658 715 713 0
660 715 658 0
661 714 716 0
659 714 661 0
660 717 715 0
662 717 660 0
663 716 718 0
661 716 663 0
662 719 717 0
664 719 662 0
666 718 720 0
663 718 666 0
664 721 719 0
667 721 664 0
669 720 722 0
666 720 669 0
721 670 723 0
667 670 721 0
723 670 724 0
724 670 671 0
725 672 726 0
726 672 673 0
669 726 673 0
722 726 669 0
724 674 727 0
671 674 724 0
672 727 674 0
725 727 672 0
677 676 728 0
678 728 729 0
677 728 678 0
678 729 679 0
730 676 680 0
728 676 730 0
730 729 728 0
731 729 730 0
729 682 679 0
731 682 729 0
732 680 684 0
730 680 732 0
731 730 732 0
687 731 732 0
686 687 732 0
687 682 731 0
733 684 690 0
732 684 733 0
732 692 686 0
733 692 732 0
733 690 695 0
695 692 733 0
700 699 734 0
701 734 735 0
700 734 701 0
701 735 703 0
736 699 704 0
734 699 736 0
736 735 734 0
737 735 736 0
735 737 738 0
703 735 738 0
705 703 738 0
705 738 706 0
739 704 707 0
736 704 739 0
737 736 739 0
737 739 740 0
737 740 741 0
741 742 737 0
737 742 738 0
743 708 706 0
742 743 706 0
738 742 706 0
707 709 744 0
739 707 744 0
745 739 744 0
745 740 739 0
710 743 746 0
708 743 710 0
709 747 744 0
711 747 709 0
712 746 748 0
710 746 712 0
711 749 747 0
713 749 711 0
714 748 750 0
712 748 714 0
713 751 749 0
715 751 713 0
716 750 752 0
714 750 716 0
715 753 751 0
717 753 715 0
718 752 754 0
716 752 718 0
717 755 753 0
719 755 717 0
720 754 756 0
718 754 720 0
719 757 755 0
721 757 719 0
722 756 758 0
720 756 722 0
757 723 759 0
721 723 757 0
759 723 760 0
760 723 724 0
761 725 762 0
762 725 726 0
722 762 726 0
758 762 722 0
760 727 763 0
724 727 760 0
725 763 727 0
761 763 725 0
741 740 764 0
742 764 765 0
741 764 742 0
742 765 743 0
745 744 766 0
764 767 768 0
764 740 767 0
740 766 767 0
745 766 740 0
769 765 764 0
769 764 768 0
769 768 770 0
765 746 743 0
769 746 765 0
771 744 747 0
766 744 771 0
766 771 767 0
767 771 772 0
770 774 769 0
769 774 773 0
769 748 746 0
773 748 769 0
775 747 749 0
771 747 775 0
771 775 772 0
772 775 776 0
774 778 773 0
773 778 777 0
773 750 748 0
777 750 773 0
779 749 751 0
775 749 779 0
775 779 776 0
776 779 780 0
778 782 777 0
777 782 781 0
777 752 750 0
781 752 777 0
783 751 753 0
779 751 783 0
779 783 780 0
780 783 784 0
785 781 782 0
786 754 752 0
785 786 752 0
781 785 752 0
753 755 787 0
783 753 787 0
788 783 787 0
788 784 783 0
756 786 789 0
754 786 756 0
787 755 757 0
791 787 757 0
790 791 757 0
790 792 791 0
791 792 793 0
792 794 793 0
793 794 795 0
758 756 789 0
794 758 789 0
795 794 789 0
790 757 759 0
796 792 790 0
760 796 790 0
759 760 790 0
794 792 796 0
762 794 796 0
761 762 796 0
762 758 794 0
796 760 763 0
763 761 796 0
768 767 797 0
768 797 770 0
798 767 772 0
797 767 798 0
797 774 770 0
798 774 797 0
799 772 776 0
798 772 799 0
798 778 774 0
799 778 798 0
800 776 780 0
799 776 800 0
799 782 778 0
800 782 799 0
801 780 784 0
800 780 801 0
800 801 802 0
782 800 802 0
785 782 802 0
785 802 786 0
788 787 803 0
