#!ascii version of 
1400 2800
8.500000  -29.000000  -2.000000  0
-4.500000  -29.000000  -2.000000  0
8.500000  -29.000000  -3.000000  0
-4.500000  -29.000000  -3.000000  0
8.000000  -29.500000  -4.000000  0
8.000000  -29.000000  -3.500000  0
7.500000  -29.000000  -4.000000  0
-4.500000  -29.000000  -4.000000  0
7.500000  -29.000000  -5.000000  0
1.000000  -29.500000  -5.000000  0
-3.000000  -29.500000  -5.000000  0
-2.500000  -29.000000  -5.000000  0
-3.000000  -29.000000  -4.500000  0
-4.000000  -29.000000  -4.500000  0
7.000000  -29.000000  -5.500000  0
6.000000  -29.000000  -5.500000  0
5.500000  -29.000000  -6.000000  0
-1.000000  -29.500000  -6.000000  0
-0.500000  -29.000000  -6.000000  0
-1.000000  -29.000000  -5.500000  0
-2.000000  -29.500000  -6.000000  0
-2.000000  -29.000000  -5.500000  0
5.000000  -29.000000  -6.500000  0
4.000000  -29.000000  -6.500000  0
3.000000  -29.000000  -6.500000  0
2.000000  -29.000000  -6.500000  0
1.000000  -29.000000  -6.500000  0
0.000000  -29.000000  -6.500000  0
4.000000  -29.500000  -14.000000  0
3.000000  -29.500000  -14.000000  0
2.000000  -29.500000  -14.000000  0
4.000000  -29.500000  -15.000000  0
3.000000  -29.500000  -15.000000  0
4.000000  -28.500000  8.000000  0
4.500000  -28.000000  8.000000  0
4.000000  -28.000000  8.500000  0
3.000000  -28.500000  8.000000  0
3.000000  -28.000000  8.500000  0
2.000000  -28.500000  8.000000  0
2.000000  -28.000000  8.500000  0
1.000000  -28.500000  8.000000  0
1.000000  -28.000000  8.500000  0
0.000000  -28.500000  8.000000  0
0.000000  -28.000000  8.500000  0
-0.500000  -28.000000  8.000000  0
5.000000  -28.500000  7.000000  0
5.500000  -28.000000  7.000000  0
5.000000  -28.000000  7.500000  0
2.000000  -28.500000  7.000000  0
1.000000  -28.500000  7.000000  0
0.000000  -28.500000  7.000000  0
-1.000000  -28.500000  7.000000  0
-1.000000  -28.000000  7.500000  0
-1.500000  -28.000000  7.000000  0
5.500000  -28.000000  6.000000  0
-1.500000  -28.000000  6.000000  0
6.500000  -28.000000  5.000000  0
6.000000  -28.000000  5.500000  0
-2.000000  -28.000000  5.500000  0
-2.500000  -28.000000  5.000000  0
6.500000  -28.000000  4.000000  0
-2.500000  -28.000000  4.000000  0
7.500000  -28.000000  3.000000  0
7.000000  -28.000000  3.500000  0
-2.500000  -28.000000  3.000000  0
7.500000  -28.000000  2.000000  0
-3.000000  -28.000000  2.500000  0
-3.500000  -28.000000  2.000000  0
7.500000  -28.000000  1.000000  0
-3.500000  -28.000000  1.000000  0
8.000000  -28.500000  0.000000  0
7.500000  -28.000000  0.000000  0
-4.000000  -28.500000  0.000000  0
-3.500000  -28.000000  0.000000  0
8.000000  -28.500000  -1.000000  0
7.500000  -28.000000  -1.000000  0
-4.000000  -28.500000  -1.000000  0
-3.500000  -28.000000  -1.000000  0
8.000000  -28.500000  -2.000000  0
7.500000  -28.000000  -2.000000  0
-4.000000  -28.500000  -2.000000  0
-3.500000  -28.000000  -2.000000  0
8.000000  -28.500000  -3.000000  0
7.500000  -28.000000  -3.000000  0
-4.000000  -28.500000  -3.000000  0
-3.500000  -28.000000  -3.000000  0
7.000000  -28.500000  -4.000000  0
7.000000  -28.000000  -3.500000  0
6.000000  -28.500000  -4.000000  0
6.000000  -28.000000  -3.500000  0
5.000000  -28.500000  -4.000000  0
5.000000  -28.000000  -3.500000  0
4.500000  -28.000000  -4.000000  0
0.000000  -28.500000  -4.000000  0
0.500000  -28.000000  -4.000000  0
0.000000  -28.000000  -3.500000  0
-1.000000  -28.500000  -4.000000  0
-1.000000  -28.000000  -3.500000  0
-2.000000  -28.500000  -4.000000  0
-2.000000  -28.000000  -3.500000  0
-3.000000  -28.500000  -4.000000  0
-3.000000  -28.000000  -3.500000  0
-4.000000  -28.500000  -4.000000  0
7.000000  -28.500000  -5.000000  0
6.000000  -28.500000  -5.000000  0
5.000000  -28.500000  -5.000000  0
4.000000  -28.500000  -5.000000  0
4.000000  -28.000000  -4.500000  0
3.500000  -28.000000  -5.000000  0
1.000000  -28.500000  -5.000000  0
1.500000  -28.000000  -5.000000  0
1.000000  -28.000000  -4.500000  0
0.000000  -28.500000  -5.000000  0
-1.000000  -28.500000  -5.000000  0
-2.000000  -28.500000  -5.000000  0
5.000000  -28.500000  -6.000000  0
4.000000  -28.500000  -6.000000  0
3.500000  -28.000000  -6.000000  0
1.000000  -28.500000  -6.000000  0
1.500000  -28.000000  -6.000000  0
0.000000  -28.500000  -6.000000  0
3.000000  -28.000000  -6.500000  0
2.000000  -28.000000  -6.500000  0
4.000000  -27.500000  9.000000  0
4.500000  -27.000000  9.000000  0
4.000000  -27.000000  9.500000  0
3.000000  -27.500000  9.000000  0
3.000000  -27.000000  9.500000  0
2.000000  -27.500000  9.000000  0
2.000000  -27.000000  9.500000  0
1.000000  -27.500000  9.000000  0
1.000000  -27.000000  9.500000  0
0.000000  -27.500000  9.000000  0
0.000000  -27.000000  9.500000  0
-0.500000  -27.000000  9.000000  0
4.500000  -27.000000  8.000000  0
-0.500000  -27.000000  8.000000  0
5.500000  -27.000000  7.000000  0
5.000000  -27.000000  7.500000  0
-1.000000  -27.000000  7.500000  0
-1.500000  -27.000000  7.000000  0
5.500000  -27.000000  6.000000  0
-1.500000  -27.000000  6.000000  0
6.500000  -27.000000  5.000000  0
6.000000  -27.000000  5.500000  0
-2.000000  -27.500000  5.000000  0
-1.500000  -27.000000  5.000000  0
6.500000  -27.000000  4.000000  0
-2.000000  -27.000000  4.500000  0
-2.500000  -27.000000  4.000000  0
7.000000  -27.500000  3.000000  0
6.500000  -27.000000  3.000000  0
-2.500000  -27.000000  3.000000  0
7.000000  -27.500000  2.000000  0
6.500000  -27.000000  2.000000  0
-2.000000  -27.500000  2.000000  0
-1.500000  -27.000000  2.000000  0
-2.000000  -27.000000  2.500000  0
-3.000000  -27.500000  2.000000  0
7.000000  -27.500000  1.000000  0
6.000000  -27.500000  1.000000  0
6.000000  -27.000000  1.500000  0
5.500000  -27.000000  1.000000  0
-2.000000  -27.500000  1.000000  0
-1.500000  -27.000000  1.000000  0
-3.000000  -27.500000  1.000000  0
7.000000  -27.500000  0.000000  0
6.000000  -27.500000  0.000000  0
5.000000  -27.500000  0.000000  0
5.000000  -27.000000  0.500000  0
4.000000  -27.500000  0.000000  0
4.000000  -27.000000  0.500000  0
3.500000  -27.000000  0.000000  0
0.000000  -27.500000  0.000000  0
0.500000  -27.000000  0.000000  0
0.000000  -27.000000  0.500000  0
-1.000000  -27.500000  0.000000  0
-1.000000  -27.000000  0.500000  0
-2.000000  -27.500000  0.000000  0
-3.000000  -27.500000  0.000000  0
7.000000  -27.500000  -1.000000  0
6.000000  -27.500000  -1.000000  0
5.000000  -27.500000  -1.000000  0
4.000000  -27.500000  -1.000000  0
3.000000  -27.500000  -1.000000  0
3.000000  -27.000000  -0.500000  0
2.000000  -27.500000  -1.000000  0
2.000000  -27.000000  -0.500000  0
1.000000  -27.500000  -1.000000  0
1.000000  -27.000000  -0.500000  0
0.000000  -27.500000  -1.000000  0
-1.000000  -27.500000  -1.000000  0
-2.000000  -27.500000  -1.000000  0
-3.000000  -27.500000  -1.000000  0
7.000000  -27.500000  -2.000000  0
6.000000  -27.500000  -2.000000  0
5.000000  -27.500000  -2.000000  0
4.000000  -27.500000  -2.000000  0
3.000000  -27.500000  -2.000000  0
2.000000  -27.500000  -2.000000  0
1.000000  -27.500000  -2.000000  0
0.000000  -27.500000  -2.000000  0
-1.000000  -27.500000  -2.000000  0
-2.000000  -27.500000  -2.000000  0
-3.000000  -27.500000  -2.000000  0
7.000000  -27.500000  -3.000000  0
6.000000  -27.500000  -3.000000  0
5.000000  -27.500000  -3.000000  0
4.000000  -27.500000  -3.000000  0
3.000000  -27.500000  -3.000000  0
2.000000  -27.500000  -3.000000  0
1.000000  -27.500000  -3.000000  0
0.000000  -27.500000  -3.000000  0
-1.000000  -27.500000  -3.000000  0
-2.000000  -27.500000  -3.000000  0
-3.000000  -27.500000  -3.000000  0
4.000000  -27.500000  -4.000000  0
3.000000  -27.500000  -4.000000  0
2.000000  -27.500000  -4.000000  0
1.000000  -27.500000  -4.000000  0
3.000000  -27.500000  -5.000000  0
2.000000  -27.500000  -5.000000  0
3.000000  -27.500000  -6.000000  0
2.000000  -27.500000  -6.000000  0
3.000000  -26.500000  14.000000  0
3.500000  -26.000000  14.000000  0
3.000000  -26.000000  14.500000  0
2.000000  -26.500000  14.000000  0
2.000000  -26.000000  14.500000  0
1.000000  -26.500000  14.000000  0
1.000000  -26.000000  14.500000  0
0.500000  -26.000000  14.000000  0
3.000000  -26.500000  13.000000  0
3.500000  -26.000000  13.000000  0
2.000000  -26.500000  13.000000  0
1.000000  -26.500000  13.000000  0
0.500000  -26.000000  13.000000  0
3.000000  -26.500000  12.000000  0
3.500000  -26.000000  12.000000  0
2.000000  -26.500000  12.000000  0
1.000000  -26.500000  12.000000  0
0.500000  -26.000000  12.000000  0
3.000000  -26.500000  11.000000  0
3.500000  -26.000000  11.000000  0
2.000000  -26.500000  11.000000  0
1.000000  -26.500000  11.000000  0
0.500000  -26.000000  11.000000  0
3.000000  -26.500000  10.000000  0
3.500000  -26.000000  10.000000  0
2.000000  -26.500000  10.000000  0
1.000000  -26.500000  10.000000  0
0.500000  -26.000000  10.000000  0
4.500000  -26.000000  9.000000  0
4.000000  -26.000000  9.500000  0
0.000000  -26.000000  9.500000  0
-0.500000  -26.000000  9.000000  0
4.500000  -26.000000  8.000000  0
-0.500000  -26.000000  8.000000  0
5.000000  -26.500000  7.000000  0
4.500000  -26.000000  7.000000  0
-1.000000  -26.500000  7.000000  0
-0.500000  -26.000000  7.000000  0
5.000000  -26.500000  6.000000  0
4.500000  -26.000000  6.000000  0
-1.000000  -26.500000  6.000000  0
-0.500000  -26.000000  6.000000  0
6.000000  -26.500000  5.000000  0
5.000000  -26.500000  5.000000  0
4.500000  -26.000000  5.000000  0
-1.000000  -26.500000  5.000000  0
-0.500000  -26.000000  5.000000  0
6.000000  -26.500000  4.000000  0
5.000000  -26.500000  4.000000  0
4.500000  -26.000000  4.000000  0
-1.000000  -26.500000  4.000000  0
-0.500000  -26.000000  4.000000  0
-2.000000  -26.500000  4.000000  0
6.000000  -26.500000  3.000000  0
5.000000  -26.500000  3.000000  0
4.000000  -26.500000  3.000000  0
4.000000  -26.000000  3.500000  0
3.500000  -26.000000  3.000000  0
0.000000  -26.500000  3.000000  0
0.500000  -26.000000  3.000000  0
0.000000  -26.000000  3.500000  0
-1.000000  -26.500000  3.000000  0
-2.000000  -26.500000  3.000000  0
6.000000  -26.500000  2.000000  0
5.000000  -26.500000  2.000000  0
4.000000  -26.500000  2.000000  0
3.000000  -26.500000  2.000000  0
3.000000  -26.000000  2.500000  0
2.000000  -26.500000  2.000000  0
2.000000  -26.000000  2.500000  0
1.000000  -26.500000  2.000000  0
1.000000  -26.000000  2.500000  0
0.000000  -26.500000  2.000000  0
-1.000000  -26.500000  2.000000  0
5.000000  -26.500000  1.000000  0
4.000000  -26.500000  1.000000  0
3.000000  -26.500000  1.000000  0
2.000000  -26.500000  1.000000  0
1.000000  -26.500000  1.000000  0
0.000000  -26.500000  1.000000  0
-1.000000  -26.500000  1.000000  0
3.000000  -26.500000  0.000000  0
2.000000  -26.500000  0.000000  0
1.000000  -26.500000  0.000000  0
3.000000  -25.500000  15.000000  0
3.500000  -25.000000  15.000000  0
3.000000  -25.000000  15.500000  0
2.000000  -25.500000  15.000000  0
2.000000  -25.000000  15.500000  0
1.000000  -25.500000  15.000000  0
1.000000  -25.000000  15.500000  0
0.500000  -25.000000  15.000000  0
3.500000  -25.000000  14.000000  0
0.500000  -25.000000  14.000000  0
3.500000  -25.000000  13.000000  0
0.500000  -25.000000  13.000000  0
3.500000  -25.000000  12.000000  0
0.500000  -25.000000  12.000000  0
3.500000  -25.000000  11.000000  0
0.500000  -25.000000  11.000000  0
3.500000  -25.000000  10.000000  0
0.500000  -25.000000  10.000000  0
4.000000  -25.500000  9.000000  0
3.500000  -25.000000  9.000000  0
0.000000  -25.500000  9.000000  0
0.500000  -25.000000  9.000000  0
4.000000  -25.500000  8.000000  0
3.500000  -25.000000  8.000000  0
0.000000  -25.500000  8.000000  0
0.500000  -25.000000  8.000000  0
4.000000  -25.500000  7.000000  0
3.500000  -25.000000  7.000000  0
0.000000  -25.500000  7.000000  0
0.500000  -25.000000  7.000000  0
4.000000  -25.500000  6.000000  0
3.500000  -25.000000  6.000000  0
0.000000  -25.500000  6.000000  0
0.500000  -25.000000  6.000000  0
4.000000  -25.500000  5.000000  0
3.500000  -25.000000  5.000000  0
0.000000  -25.500000  5.000000  0
0.500000  -25.000000  5.000000  0
4.000000  -25.500000  4.000000  0
3.000000  -25.500000  4.000000  0
3.000000  -25.000000  4.500000  0
2.000000  -25.500000  4.000000  0
2.000000  -25.000000  4.500000  0
1.000000  -25.500000  4.000000  0
1.000000  -25.000000  4.500000  0
0.000000  -25.500000  4.000000  0
3.000000  -25.500000  3.000000  0
2.000000  -25.500000  3.000000  0
1.000000  -25.500000  3.000000  0
3.000000  -24.500000  17.000000  0
3.500000  -24.000000  17.000000  0
3.000000  -24.000000  17.500000  0
2.500000  -24.000000  17.000000  0
3.000000  -24.500000  16.000000  0
3.500000  -24.000000  16.000000  0
2.000000  -24.500000  16.000000  0
2.000000  -24.000000  16.500000  0
1.500000  -24.000000  16.000000  0
3.500000  -24.000000  15.000000  0
1.000000  -24.000000  15.500000  0
0.500000  -24.000000  15.000000  0
3.500000  -24.000000  14.000000  0
0.500000  -24.000000  14.000000  0
3.000000  -24.500000  13.000000  0
3.000000  -24.000000  13.500000  0
2.500000  -24.000000  13.000000  0
0.500000  -24.000000  13.000000  0
3.000000  -24.500000  12.000000  0
2.000000  -24.500000  12.000000  0
2.000000  -24.000000  12.500000  0
1.500000  -24.000000  12.000000  0
0.500000  -24.000000  12.000000  0
3.000000  -24.500000  11.000000  0
2.000000  -24.500000  11.000000  0
1.000000  -24.500000  11.000000  0
1.000000  -24.000000  11.500000  0
3.000000  -24.500000  10.000000  0
2.000000  -24.500000  10.000000  0
1.000000  -24.500000  10.000000  0
3.000000  -24.500000  9.000000  0
2.000000  -24.500000  9.000000  0
1.000000  -24.500000  9.000000  0
3.000000  -24.500000  8.000000  0
2.000000  -24.500000  8.000000  0
1.000000  -24.500000  8.000000  0
3.000000  -24.500000  7.000000  0
2.000000  -24.500000  7.000000  0
1.000000  -24.500000  7.000000  0
3.000000  -24.500000  6.000000  0
2.000000  -24.500000  6.000000  0
1.000000  -24.500000  6.000000  0
3.000000  -24.500000  5.000000  0
2.000000  -24.500000  5.000000  0
1.000000  -24.500000  5.000000  0
3.000000  -23.500000  17.000000  0
2.000000  -23.500000  17.000000  0
2.500000  -23.000000  17.000000  0
2.000000  -23.000000  17.500000  0
1.500000  -23.000000  17.000000  0
3.000000  -23.500000  16.000000  0
2.500000  -23.000000  16.000000  0
1.500000  -23.000000  16.000000  0
3.000000  -23.500000  15.000000  0
2.500000  -23.000000  15.000000  0
1.000000  -23.500000  15.000000  0
1.500000  -23.000000  15.000000  0
3.000000  -23.500000  14.000000  0
2.000000  -23.500000  14.000000  0
2.000000  -23.000000  14.500000  0
1.000000  -23.500000  14.000000  0
2.000000  -23.500000  13.000000  0
1.000000  -23.500000  13.000000  0
1.000000  -23.500000  12.000000  0
2.000000  -22.500000  17.000000  0
2.000000  -22.500000  16.000000  0
2.000000  -22.500000  15.000000  0
2 0 1 0
2 3 0 0
4 3 2 0
5 3 4 0
1 0 6 0
0 7 6 0
3 7 0 0
3 5 7 0
10 8 9 0
11 8 10 0
1 12 9 0
2 1 9 0
8 2 9 0
13 4 2 0
13 2 8 0
13 8 11 0
14 4 13 0
5 4 14 0
12 6 15 0
1 6 12 0
15 7 16 0
6 7 15 0
5 16 7 0
14 16 5 0
19 17 18 0
19 20 10 0
17 19 10 0
9 17 10 0
21 10 20 0
11 10 21 0
18 17 22 0
9 12 23 0
9 23 22 0
9 22 17 0
24 13 21 0
21 13 11 0
25 13 24 0
14 13 25 0
23 15 26 0
12 15 23 0
26 16 27 0
15 16 26 0
14 27 16 0
25 27 14 0
30 28 29 0
30 31 28 0
32 31 30 0
32 33 31 0
34 33 32 0
35 33 34 0
38 36 37 0
38 39 36 0
40 39 38 0
41 39 40 0
44 42 43 0
28 45 42 0
29 28 42 0
44 29 42 0
46 28 31 0
45 28 46 0
46 31 33 0
47 46 33 0
48 47 33 0
33 35 48 0
37 36 49 0
39 49 36 0
39 50 49 0
19 50 39 0
18 50 19 0
51 20 19 0
51 19 39 0
51 39 41 0
20 51 53 0
21 20 53 0
52 21 53 0
54 52 53 0
42 56 43 0
55 56 42 0
57 42 45 0
55 42 57 0
58 45 46 0
57 45 58 0
47 58 46 0
59 58 47 0
50 22 60 0
18 22 50 0
60 22 61 0
61 22 23 0
24 21 52 0
54 62 25 0
52 54 25 0
24 52 25 0
56 55 63 0
55 64 63 0
57 64 55 0
57 65 64 0
58 65 57 0
58 59 65 0
61 26 66 0
23 26 61 0
66 27 67 0
26 27 66 0
25 67 27 0
62 67 25 0
70 68 69 0
70 71 68 0
72 71 70 0
72 73 71 0
74 73 72 0
75 73 74 0
78 76 77 0
78 79 76 0
80 79 78 0
68 81 79 0
69 68 79 0
80 69 79 0
82 68 71 0
81 68 82 0
83 71 73 0
82 71 83 0
84 83 73 0
85 84 73 0
75 85 73 0
85 86 84 0
87 86 85 0
88 86 87 0
90 29 89 0
30 29 90 0
91 30 90 0
32 30 91 0
34 32 91 0
34 91 77 0
34 77 76 0
76 79 34 0
79 35 34 0
79 93 35 0
93 92 35 0
79 94 93 0
81 94 79 0
81 95 94 0
82 95 81 0
82 96 95 0
83 96 82 0
83 97 96 0
84 97 83 0
86 97 84 0
86 98 97 0
38 98 86 0
37 98 38 0
99 40 38 0
99 38 86 0
99 86 88 0
100 40 99 0
41 40 100 0
102 43 101 0
44 43 102 0
44 102 29 0
29 102 89 0
103 47 48 0
35 92 104 0
48 35 104 0
103 48 104 0
106 98 37 0
105 106 37 0
49 105 37 0
50 105 49 0
107 51 100 0
100 51 41 0
108 51 107 0
53 51 108 0
109 53 108 0
54 53 109 0
43 110 101 0
56 110 43 0
111 59 47 0
111 47 103 0
111 103 112 0
103 104 112 0
106 105 113 0
113 114 115 0
113 105 114 0
105 60 114 0
50 60 105 0
61 114 60 0
62 54 109 0
62 109 117 0
62 117 116 0
118 116 117 0
110 63 119 0
56 63 110 0
119 64 120 0
63 64 119 0
120 65 121 0
64 65 120 0
59 121 65 0
111 121 59 0
115 114 122 0
66 123 122 0
61 66 122 0
114 61 122 0
123 67 124 0
66 67 123 0
125 124 67 0
116 125 67 0
62 116 67 0
116 118 125 0
128 126 127 0
128 129 70 0
126 128 70 0
69 126 70 0
130 70 129 0
72 70 130 0
131 72 130 0
74 72 131 0
74 131 133 0
75 74 133 0
132 75 133 0
134 132 133 0
136 77 135 0
78 77 136 0
80 78 136 0
80 136 127 0
80 127 126 0
126 69 80 0
85 75 132 0
137 87 85 0
137 85 132 0
137 132 134 0
87 137 139 0
88 87 139 0
138 88 139 0
140 138 139 0
142 89 141 0
90 89 142 0
143 90 142 0
91 90 143 0
91 143 77 0
77 143 135 0
144 92 93 0
93 94 146 0
93 146 145 0
93 145 144 0
146 95 147 0
94 95 146 0
147 96 148 0
95 96 147 0
148 96 97 0
148 97 149 0
148 149 150 0
98 149 97 0
99 88 138 0
152 138 140 0
152 151 138 0
151 99 138 0
100 99 151 0
153 151 152 0
155 101 154 0
102 101 155 0
102 155 89 0
89 155 141 0
156 104 92 0
156 92 144 0
156 144 157 0
144 145 157 0
150 149 158 0
98 106 159 0
98 159 158 0
98 158 149 0
107 100 151 0
160 108 107 0
160 107 151 0
160 151 153 0
161 108 160 0
109 108 161 0
154 101 110 0
163 154 110 0
162 163 110 0
162 164 163 0
163 164 165 0
165 164 166 0
167 111 168 0
168 111 112 0
104 168 112 0
156 168 104 0
159 113 169 0
106 113 159 0
169 113 170 0
170 113 115 0
171 117 161 0
161 117 109 0
172 117 171 0
118 117 172 0
162 110 119 0
119 164 162 0
120 164 119 0
120 121 173 0
164 120 173 0
166 164 173 0
111 173 121 0
167 173 111 0
170 122 174 0
115 122 170 0
174 123 175 0
122 123 174 0
175 124 176 0
123 124 175 0
176 125 177 0
124 125 176 0
118 177 125 0
172 177 118 0
180 178 179 0
180 181 178 0
182 181 180 0
182 183 181 0
184 183 182 0
185 183 184 0
188 186 187 0
188 189 128 0
186 188 128 0
127 186 128 0
129 128 189 0
129 189 179 0
129 179 178 0
178 181 129 0
129 181 130 0
181 183 130 0
130 183 131 0
190 133 131 0
190 131 183 0
190 183 185 0
133 190 192 0
134 133 192 0
191 134 192 0
193 191 192 0
196 194 195 0
187 194 196 0
187 186 194 0
186 135 194 0
136 135 186 0
186 127 136 0
137 134 191 0
197 139 137 0
197 137 191 0
197 191 193 0
198 139 197 0
140 139 198 0
200 141 199 0
142 141 200 0
143 142 200 0
143 200 195 0
143 195 194 0
194 135 143 0
201 145 146 0
202 201 147 0
147 201 146 0
203 202 148 0
148 202 147 0
150 203 148 0
204 152 198 0
198 152 140 0
205 152 204 0
153 152 205 0
207 154 206 0
155 154 207 0
155 207 141 0
141 207 199 0
208 156 157 0
209 201 210 0
209 208 201 0
208 145 201 0
157 145 208 0
201 211 210 0
202 211 201 0
202 212 211 0
203 212 202 0
158 213 212 0
150 158 212 0
203 150 212 0
213 158 214 0
214 158 159 0
215 160 205 0
205 160 153 0
216 160 215 0
161 160 216 0
218 206 154 0
217 218 154 0
163 217 154 0
219 217 165 0
165 217 163 0
166 219 165 0
220 167 221 0
221 167 168 0
222 221 168 0
208 222 168 0
156 208 168 0
208 209 222 0
214 169 223 0
159 169 214 0
223 169 224 0
224 169 170 0
161 216 226 0
161 226 225 0
161 225 171 0
171 225 172 0
218 217 227 0
217 228 227 0
219 228 217 0
173 229 228 0
166 173 228 0
219 166 228 0
167 229 173 0
220 229 167 0
224 174 230 0
170 174 224 0
230 175 231 0
174 175 230 0
231 176 232 0
175 176 231 0
232 176 177 0
226 232 177 0
225 226 177 0
177 172 225 0
235 233 234 0
236 233 235 0
234 233 237 0
233 236 237 0
240 238 239 0
240 241 238 0
242 241 240 0
242 243 180 0
241 242 180 0
179 241 180 0
244 180 243 0
182 180 244 0
245 182 244 0
184 182 245 0
184 245 247 0
185 184 247 0
246 185 247 0
248 246 247 0
187 249 239 0
188 187 239 0
238 188 239 0
238 241 188 0
188 241 189 0
241 179 189 0
190 185 246 0
250 192 190 0
250 190 246 0
250 246 248 0
251 192 250 0
193 192 251 0
253 195 252 0
196 195 253 0
196 253 187 0
187 253 249 0
254 197 251 0
251 197 193 0
255 197 254 0
198 197 255 0
257 199 256 0
200 199 257 0
200 257 195 0
195 257 252 0
258 204 255 0
255 204 198 0
259 204 258 0
205 204 259 0
261 206 260 0
207 206 261 0
207 261 199 0
199 261 256 0
262 209 210 0
210 211 264 0
210 264 263 0
210 263 262 0
264 212 265 0
211 212 264 0
265 212 213 0
265 213 266 0
265 266 267 0
214 266 213 0
268 215 259 0
259 215 205 0
269 215 268 0
216 215 269 0
206 270 260 0
218 270 206 0
272 271 273 0
221 274 273 0
221 273 271 0
221 271 220 0
274 222 275 0
221 222 274 0
276 275 222 0
262 276 222 0
209 262 222 0
262 263 276 0
267 266 277 0
277 278 279 0
277 266 278 0
266 223 278 0
214 223 266 0
224 278 223 0
226 269 280 0
216 269 226 0
270 227 281 0
218 227 270 0
281 228 282 0
227 228 281 0
282 228 229 0
272 282 229 0
271 272 229 0
229 220 271 0
279 278 283 0
230 284 283 0
224 230 283 0
278 224 283 0
284 230 231 0
284 231 285 0
284 285 286 0
287 285 232 0
232 285 231 0
226 280 288 0
232 226 288 0
287 232 288 0
286 285 289 0
285 290 289 0
287 290 285 0
287 288 290 0
293 291 292 0
294 291 293 0
297 295 296 0
291 298 295 0
292 291 295 0
297 292 295 0
299 298 291 0
300 299 291 0
294 300 291 0
301 299 300 0
304 302 303 0
304 305 302 0
306 305 304 0
295 307 305 0
296 295 305 0
306 296 305 0
308 295 298 0
307 295 308 0
309 298 299 0
308 298 309 0
301 309 299 0
310 309 301 0
303 302 311 0
302 305 312 0
311 302 312 0
313 311 312 0
314 305 307 0
312 305 314 0
314 307 308 0
314 308 235 0
314 235 234 0
308 309 315 0
308 315 236 0
308 236 235 0
310 315 309 0
316 315 310 0
312 318 313 0
317 318 312 0
319 312 314 0
317 312 319 0
314 320 319 0
314 321 320 0
234 321 314 0
237 321 234 0
322 321 237 0
315 322 237 0
236 315 237 0
315 316 322 0
318 317 323 0
317 324 323 0
319 324 317 0
319 320 324 0
327 325 326 0
327 328 325 0
329 328 327 0
330 328 329 0
325 332 326 0
331 332 325 0
333 325 328 0
331 325 333 0
330 333 328 0
334 333 330 0
337 335 336 0
331 338 335 0
332 331 335 0
337 332 335 0
339 331 333 0
338 331 339 0
334 339 333 0
340 339 334 0
335 342 336 0
341 342 335 0
343 335 338 0
341 335 343 0
344 338 339 0
343 338 344 0
340 344 339 0
345 344 340 0
341 347 342 0
346 347 341 0
348 341 343 0
346 341 348 0
349 343 344 0
348 343 349 0
345 349 344 0
350 349 345 0
347 346 351 0
346 352 351 0
348 352 346 0
348 353 352 0
349 353 348 0
349 350 353 0
355 239 354 0
240 239 355 0
356 240 355 0
242 240 356 0
357 242 356 0
243 242 357 0
358 243 357 0
244 243 358 0
359 244 358 0
245 244 359 0
360 245 359 0
247 245 360 0
247 360 362 0
248 247 362 0
361 248 362 0
363 361 362 0
366 364 365 0
354 239 249 0
354 249 364 0
354 364 366 0
250 248 361 0
368 361 363 0
368 367 361 0
367 250 361 0
251 250 367 0
369 367 368 0
372 370 371 0
365 370 372 0
365 364 370 0
364 252 370 0
253 252 364 0
364 249 253 0
254 251 367 0
369 373 255 0
367 369 255 0
254 367 255 0
256 374 371 0
257 256 371 0
370 257 371 0
370 252 257 0
375 258 373 0
373 258 255 0
376 258 375 0
259 258 376 0
378 260 377 0
261 260 378 0
261 378 256 0
256 378 374 0
379 263 380 0
380 263 264 0
380 264 265 0
380 265 381 0
380 381 382 0
267 381 265 0
383 268 376 0
376 268 259 0
384 268 383 0
269 268 384 0
260 385 377 0
270 385 260 0
386 272 387 0
387 272 273 0
387 274 388 0
273 274 387 0
388 275 389 0
274 275 388 0
389 276 390 0
275 276 389 0
263 390 276 0
379 390 263 0
382 381 391 0
391 392 393 0
391 381 392 0
381 277 392 0
267 277 381 0
279 392 277 0
280 384 394 0
269 384 280 0
385 281 395 0
270 281 385 0
395 282 396 0
281 282 395 0
272 396 282 0
386 396 272 0
393 392 397 0
283 398 397 0
279 283 397 0
392 279 397 0
398 284 399 0
283 284 398 0
399 284 400 0
400 284 286 0
288 394 401 0
280 394 288 0
400 289 402 0
286 289 400 0
402 290 403 0
289 290 402 0
288 403 290 0
401 403 288 0
406 404 405 0
407 404 406 0
409 292 408 0
293 292 409 0
293 409 411 0
294 293 411 0
410 294 411 0
404 413 405 0
410 411 412 0
404 407 413 0
415 296 414 0
297 296 415 0
297 415 292 0
292 415 408 0
300 294 410 0
417 410 412 0
417 416 410 0
416 300 410 0
301 300 416 0
418 416 417 0
304 303 419 0
421 306 304 0
420 421 304 0
419 420 304 0
306 421 296 0
296 421 414 0
310 301 422 0
422 301 416 0
423 422 416 0
424 423 416 0
418 424 416 0
424 425 423 0
426 425 424 0
427 425 426 0
419 303 311 0
313 428 420 0
313 420 419 0
313 419 311 0
316 310 429 0
429 310 422 0
430 422 423 0
429 422 430 0
431 423 425 0
430 423 431 0
427 431 425 0
432 431 427 0
428 313 318 0
434 428 318 0
433 434 318 0
433 435 434 0
434 435 436 0
321 437 436 0
321 436 435 0
321 435 320 0
437 321 322 0
437 322 438 0
437 438 439 0
429 440 438 0
429 438 322 0
429 322 316 0
441 429 430 0
440 429 441 0
442 430 431 0
441 430 442 0
432 442 431 0
443 442 432 0
433 318 323 0
323 435 433 0
324 435 323 0
324 320 435 0
439 438 444 0
438 445 444 0
440 445 438 0
440 446 445 0
441 446 440 0
441 447 446 0
442 447 441 0
442 443 447 0
450 448 449 0
450 451 327 0
448 450 327 0
326 448 327 0
452 327 451 0
329 327 452 0
453 329 452 0
330 329 453 0
448 455 449 0
454 455 448 0
326 332 448 0
448 332 454 0
334 453 456 0
330 453 334 0
336 457 455 0
337 336 455 0
454 337 455 0
454 332 337 0
340 456 458 0
334 456 340 0
336 459 457 0
342 459 336 0
345 458 460 0
340 458 345 0
342 461 459 0
347 461 342 0
350 460 462 0
345 460 350 0
461 351 463 0
347 351 461 0
463 352 464 0
351 352 463 0
464 353 465 0
352 353 464 0
350 465 353 0
462 465 350 0
468 466 467 0
468 469 466 0
470 469 468 0
470 471 469 0
472 471 470 0
472 473 471 0
474 473 472 0
474 475 473 0
476 475 474 0
476 477 475 0
478 477 476 0
479 477 478 0
354 480 467 0
355 354 467 0
466 355 467 0
466 469 355 0
355 469 356 0
469 471 356 0
356 471 357 0
471 473 357 0
357 473 358 0
473 475 358 0
358 475 359 0
475 477 359 0
359 477 360 0
481 362 360 0
481 360 477 0
481 477 479 0
362 481 483 0
363 362 483 0
482 363 483 0
484 482 483 0
486 365 485 0
366 365 486 0
366 486 354 0
354 486 480 0
368 363 482 0
484 487 369 0
482 484 369 0
368 482 369 0
489 371 488 0
372 371 489 0
372 489 365 0
365 489 485 0
373 369 487 0
373 487 491 0
373 491 490 0
492 490 491 0
371 493 488 0
374 493 371 0
375 373 490 0
495 490 492 0
495 494 490 0
494 375 490 0
376 375 494 0
496 494 495 0
498 377 497 0
378 377 498 0
378 498 374 0
374 498 493 0
499 379 380 0
382 499 380 0
383 376 494 0
496 500 384 0
494 496 384 0
383 494 384 0
377 501 497 0
385 501 377 0
502 386 503 0
503 386 387 0
503 388 504 0
387 388 503 0
504 389 505 0
388 389 504 0
505 389 390 0
505 390 506 0
505 506 507 0
508 499 509 0
508 506 499 0
506 379 499 0
390 379 506 0
391 510 509 0
382 391 509 0
499 382 509 0
510 391 511 0
511 391 393 0
394 500 512 0
384 500 394 0
501 395 513 0
385 395 501 0
513 396 514 0
395 396 513 0
386 514 396 0
502 514 386 0
507 506 515 0
506 508 515 0
511 397 516 0
393 397 511 0
516 398 517 0
397 398 516 0
517 399 518 0
398 399 517 0
518 399 519 0
519 399 400 0
401 512 520 0
394 512 401 0
522 519 400 0
521 522 400 0
402 521 400 0
523 521 403 0
403 521 402 0
401 520 524 0
403 401 524 0
523 403 524 0
522 521 525 0
521 526 525 0
523 526 521 0
523 524 526 0
529 527 528 0
529 530 527 0
531 530 529 0
531 532 530 0
533 532 531 0
534 532 533 0
537 535 536 0
537 538 535 0
539 538 537 0
527 540 538 0
528 527 538 0
539 528 538 0
541 527 530 0
540 527 541 0
542 530 532 0
541 530 542 0
534 542 532 0
543 542 534 0
535 545 536 0
544 545 535 0
546 535 538 0
544 535 546 0
547 538 540 0
546 538 547 0
548 540 541 0
547 540 548 0
548 541 542 0
548 542 406 0
548 406 405 0
543 549 407 0
542 543 407 0
406 542 407 0
545 544 550 0
544 546 551 0
550 544 551 0
552 550 551 0
551 546 547 0
551 547 409 0
551 409 408 0
547 548 409 0
409 548 411 0
548 405 413 0
548 413 553 0
411 548 553 0
412 411 553 0
407 549 554 0
413 407 554 0
553 413 554 0
557 555 556 0
552 555 557 0
552 551 555 0
551 414 555 0
415 414 551 0
551 408 415 0
417 412 553 0
554 558 418 0
553 554 418 0
417 553 418 0
420 559 556 0
421 420 556 0
555 421 556 0
555 414 421 0
418 558 561 0
418 561 560 0
418 560 424 0
426 560 562 0
424 560 426 0
426 562 427 0
420 563 559 0
428 563 420 0
565 564 566 0
564 567 560 0
564 560 561 0
564 561 566 0
567 562 560 0
568 562 567 0
562 432 427 0
568 432 562 0
563 434 569 0
428 434 563 0
569 434 436 0
569 436 570 0
569 570 571 0
572 570 437 0
437 570 436 0
439 572 437 0
565 574 564 0
564 574 573 0
573 567 564 0
575 567 573 0
575 568 567 0
576 568 575 0
568 443 432 0
576 443 568 0
570 578 571 0
577 578 570 0
579 570 572 0
577 570 579 0
580 579 572 0
580 572 439 0
580 439 444 0
574 581 573 0
581 445 573 0
581 580 445 0
580 444 445 0
445 575 573 0
446 575 445 0
446 576 575 0
447 576 446 0
447 443 576 0
584 582 583 0
584 585 582 0
586 585 584 0
577 587 585 0
578 577 585 0
586 578 585 0
588 577 579 0
587 577 588 0
589 579 580 0
588 579 589 0
590 589 580 0
591 590 580 0
581 591 580 0
592 590 591 0
582 594 583 0
593 594 582 0
595 582 585 0
593 582 595 0
596 585 587 0
595 585 596 0
597 587 588 0
596 587 597 0
598 588 589 0
597 588 598 0
599 589 590 0
598 589 599 0
592 599 590 0
600 599 592 0
593 602 594 0
601 602 593 0
601 593 595 0
601 595 450 0
601 450 449 0
595 596 450 0
450 596 451 0
596 597 451 0
451 597 452 0
597 598 603 0
597 603 453 0
597 453 452 0
603 598 599 0
604 603 599 0
605 604 599 0
599 600 605 0
602 601 606 0
449 455 607 0
449 607 606 0
449 606 601 0
456 453 608 0
608 453 603 0
604 608 603 0
609 608 604 0
455 610 607 0
457 610 455 0
611 458 456 0
611 456 608 0
611 608 612 0
608 609 612 0
457 613 610 0
459 613 457 0
460 611 614 0
458 611 460 0
459 615 613 0
461 615 459 0
462 614 616 0
460 614 462 0
615 463 617 0
461 463 615 0
617 464 618 0
463 464 617 0
618 465 619 0
464 465 618 0
462 619 465 0
616 619 462 0
622 620 621 0
622 623 620 0
624 623 622 0
624 625 623 0
626 625 624 0
626 627 625 0
628 627 626 0
628 629 627 0
630 629 628 0
630 631 629 0
632 631 630 0
632 633 631 0
634 633 632 0
635 633 634 0
467 636 621 0
468 467 621 0
620 468 621 0
620 623 468 0
468 623 470 0
623 625 470 0
470 625 472 0
625 627 472 0
472 627 474 0
627 629 474 0
474 629 476 0
629 631 476 0
476 631 478 0
631 633 637 0
631 637 479 0
631 479 478 0
635 637 633 0
638 637 635 0
467 639 636 0
480 639 467 0
481 479 637 0
640 483 481 0
640 481 637 0
640 637 638 0
641 483 640 0
484 483 641 0
643 485 642 0
486 485 643 0
486 643 480 0
480 643 639 0
487 641 644 0
484 641 487 0
646 488 645 0
489 488 646 0
489 646 485 0
485 646 642 0
647 491 644 0
644 491 487 0
648 491 647 0
492 491 648 0
651 649 650 0
645 488 493 0
645 493 649 0
645 649 651 0
652 495 648 0
648 495 492 0
653 495 652 0
496 495 653 0
497 654 650 0
498 497 650 0
649 498 650 0
649 493 498 0
500 653 655 0
496 653 500 0
497 656 654 0
501 656 497 0
657 502 503 0
658 657 504 0
504 657 503 0
659 658 505 0
505 658 504 0
507 659 505 0
660 508 509 0
661 660 510 0
510 660 509 0
511 661 510 0
512 655 662 0
500 655 512 0
664 656 501 0
663 664 501 0
513 663 501 0
513 514 666 0
513 666 665 0
513 665 663 0
667 666 514 0
657 667 514 0
502 657 514 0
657 668 667 0
658 668 657 0
658 659 669 0
668 658 669 0
670 668 669 0
671 669 659 0
671 659 507 0
671 507 515 0
672 660 673 0
672 671 660 0
671 508 660 0
515 508 671 0
660 674 673 0
661 674 660 0
516 675 674 0
511 516 674 0
661 511 674 0
675 516 517 0
675 517 676 0
675 676 677 0
678 676 518 0
518 676 517 0
519 678 518 0
520 662 679 0
512 662 520 0
664 663 680 0
663 665 680 0
669 682 670 0
681 682 669 0
683 669 671 0
681 669 683 0
672 683 671 0
684 683 672 0
677 676 685 0
676 678 686 0
685 676 686 0
687 685 686 0
519 522 678 0
678 522 686 0
524 679 688 0
520 679 524 0
682 681 689 0
681 683 690 0
689 681 690 0
691 689 690 0
692 690 683 0
693 692 683 0
684 693 683 0
694 692 693 0
686 696 687 0
695 696 686 0
697 695 686 0
697 686 522 0
697 522 525 0
698 697 526 0
526 697 525 0
524 688 699 0
526 524 699 0
698 526 699 0
691 690 700 0
692 700 690 0
692 701 700 0
529 701 692 0
528 701 529 0
702 531 529 0
702 529 692 0
702 692 694 0
703 531 702 0
533 531 703 0
704 533 703 0
534 533 704 0
696 695 705 0
695 706 705 0
697 706 695 0
697 707 706 0
698 707 697 0
698 699 707 0
537 536 708 0
539 708 709 0
537 708 539 0
710 701 528 0
710 528 539 0
710 539 709 0
712 711 713 0
543 534 704 0
711 543 704 0
713 711 704 0
714 536 545 0
708 536 714 0
709 708 714 0
709 714 715 0
709 715 716 0
716 710 709 0
712 718 711 0
711 718 717 0
711 549 543 0
717 549 711 0
714 545 550 0
714 720 715 0
714 550 720 0
550 719 720 0
552 719 550 0
720 719 721 0
718 723 717 0
717 723 722 0
717 554 549 0
722 554 717 0
726 724 725 0
726 727 557 0
724 726 557 0
556 724 557 0
557 727 552 0
727 719 552 0
727 729 719 0
729 728 719 0
719 728 730 0
719 730 731 0
719 731 721 0
730 732 731 0
731 732 733 0
732 734 722 0
732 722 723 0
732 723 733 0
722 558 554 0
734 558 722 0
737 735 736 0
724 738 735 0
725 724 735 0
737 725 735 0
556 559 724 0
724 559 738 0
729 740 728 0
728 740 739 0
739 730 728 0
741 730 739 0
741 732 730 0
742 732 741 0
742 734 732 0
743 734 742 0
734 561 558 0
743 561 734 0
735 745 736 0
744 745 735 0
746 735 738 0
744 735 746 0
559 563 738 0
738 563 746 0
740 748 739 0
739 748 747 0
747 741 739 0
749 741 747 0
749 742 741 0
750 742 749 0
743 742 750 0
566 743 750 0
565 566 750 0
566 561 743 0
745 744 751 0
744 746 752 0
751 744 752 0
753 751 752 0
746 754 752 0
746 755 754 0
563 755 746 0
569 755 563 0
571 747 569 0
571 756 747 0
756 757 747 0
569 747 755 0
755 747 748 0
758 749 747 0
758 747 757 0
758 757 759 0
758 750 749 0
760 750 758 0
750 574 565 0
760 574 750 0
752 762 753 0
761 762 752 0
763 761 752 0
764 763 752 0
754 764 752 0
756 571 578 0
756 578 763 0
756 763 764 0
765 758 759 0
765 766 758 0
758 766 760 0
767 581 574 0
766 767 574 0
760 766 574 0
583 768 762 0
584 583 762 0
761 584 762 0
761 763 584 0
584 763 586 0
763 578 586 0
769 591 767 0
767 591 581 0
770 591 769 0
592 591 770 0
583 771 768 0
594 771 583 0
773 772 774 0
600 592 770 0
772 600 770 0
774 772 770 0
594 775 771 0
602 775 594 0
777 776 778 0
776 773 778 0
776 604 773 0
604 772 773 0
605 772 604 0
605 600 772 0
780 775 602 0
779 780 602 0
606 779 602 0
607 779 606 0
777 782 776 0
776 782 781 0
776 609 604 0
781 609 776 0
780 779 783 0
607 610 784 0
607 784 783 0
607 783 779 0
782 785 611 0
782 611 612 0
782 612 781 0
612 609 781 0
610 786 784 0
613 786 610 0
614 785 787 0
611 785 614 0
613 788 786 0
615 788 613 0
616 787 789 0
614 787 616 0
788 617 790 0
615 617 788 0
790 618 791 0
617 618 790 0
791 619 792 0
618 619 791 0
616 792 619 0
789 792 616 0
794 621 793 0
622 621 794 0
795 622 794 0
624 622 795 0
796 624 795 0
626 624 796 0
797 626 796 0
628 626 797 0
798 628 797 0
630 628 798 0
799 630 798 0
632 630 799 0
800 632 799 0
634 632 800 0
634 800 802 0
635 634 802 0
801 635 802 0
803 801 802 0
806 804 805 0
793 621 636 0
793 636 804 0
793 804 806 0
638 635 807 0
807 635 801 0
803 807 801 0
808 807 803 0
811 809 810 0
804 812 809 0
805 804 809 0
811 805 809 0
636 639 804 0
804 639 812 0
640 638 807 0
808 813 641 0
807 808 641 0
640 807 641 0
809 815 810 0
814 815 809 0
814 809 812 0
814 812 643 0
814 643 642 0
812 639 643 0
644 641 813 0
644 813 817 0
644 817 816 0
818 816 817 0
645 819 815 0
646 645 815 0
814 646 815 0
814 642 646 0
647 644 816 0
818 820 648 0
816 818 648 0
647 816 648 0
822 650 821 0
651 650 822 0
651 822 645 0
645 822 819 0
823 652 820 0
820 652 648 0
824 652 823 0
653 652 824 0
650 825 821 0
654 825 650 0
655 824 826 0
653 824 655 0
654 827 825 0
656 827 654 0
662 826 828 0
655 826 662 0
656 829 827 0
664 829 656 0
830 665 666 0
831 830 667 0
667 830 666 0
832 831 668 0
668 831 667 0
670 832 668 0
833 672 673 0
834 833 674 0
674 833 673 0
835 834 675 0
675 834 674 0
677 835 675 0
679 828 836 0
662 828 679 0
838 829 664 0
837 838 664 0
680 837 664 0
830 839 837 0
830 837 680 0
830 680 665 0
840 830 831 0
839 830 840 0
841 831 832 0
840 831 841 0
670 682 832 0
832 682 841 0
684 672 842 0
842 672 833 0
843 833 834 0
842 833 843 0
844 834 835 0
843 834 844 0
845 844 835 0
845 835 677 0
845 677 685 0
687 845 685 0
688 836 846 0
679 836 688 0
838 837 847 0
837 839 848 0
847 837 848 0
849 847 848 0
850 839 840 0
848 839 850 0
851 840 841 0
850 840 851 0
852 851 841 0
852 841 682 0
852 682 689 0
691 852 689 0
693 684 842 0
842 843 693 0
843 694 693 0
843 854 694 0
854 853 694 0
843 844 855 0
854 843 855 0
856 854 855 0
857 844 845 0
855 844 857 0
687 696 845 0
845 696 857 0
859 858 860 0
699 688 846 0
858 699 846 0
860 858 846 0
849 848 861 0
848 862 861 0
850 862 848 0
850 851 863 0
862 850 863 0
864 862 863 0
865 851 852 0
863 851 865 0
866 865 852 0
866 852 691 0
866 691 700 0
701 866 700 0
867 702 853 0
853 702 694 0
703 702 867 0
703 867 856 0
703 856 855 0
855 857 868 0
855 868 704 0
855 704 703 0
869 868 857 0
869 857 696 0
869 696 705 0
705 706 871 0
705 871 870 0
705 870 869 0
871 706 707 0
859 871 707 0
858 859 707 0
707 699 858 0
864 863 872 0
863 873 872 0
865 873 863 0
865 874 873 0
866 874 865 0
876 874 875 0
874 710 875 0
874 866 710 0
866 701 710 0
875 877 876 0
876 877 878 0
713 879 878 0
713 878 877 0
713 877 712 0
880 879 713 0
868 880 713 0
704 868 713 0
868 881 880 0
869 881 868 0
869 870 881 0
716 715 882 0
882 883 875 0
716 882 875 0
710 716 875 0
883 877 875 0
884 877 883 0
877 718 712 0
884 718 877 0
882 715 720 0
885 883 882 0
721 885 882 0
720 721 882 0
885 884 883 0
886 884 885 0
884 723 718 0
886 723 884 0
726 725 887 0
727 887 888 0
726 887 727 0
727 888 729 0
885 721 731 0
731 886 885 0
733 886 731 0
733 723 886 0
737 736 889 0
889 890 887 0
737 889 887 0
725 737 887 0
890 888 887 0
891 888 890 0
888 740 729 0
891 740 888 0
892 736 745 0
889 736 892 0
892 890 889 0
893 890 892 0
893 891 890 0
894 891 893 0
891 748 740 0
894 748 891 0
892 745 751 0
895 893 892 0
753 895 892 0
751 753 892 0
894 893 895 0
755 894 895 0
754 755 895 0
894 755 748 0
896 757 756 0
757 896 759 0
897 753 762 0
895 753 897 0
897 754 895 0
897 764 754 0
898 764 897 0
899 764 898 0
764 899 900 0
764 900 896 0
764 896 756 0
900 901 765 0
900 765 759 0
900 759 896 0
766 765 901 0
902 766 901 0
903 902 901 0
766 902 767 0
904 762 768 0
897 762 904 0
897 904 898 0
898 904 905 0
907 906 908 0
906 909 902 0
906 902 903 0
906 903 908 0
902 909 910 0
767 902 910 0
769 767 910 0
769 910 770 0
911 768 771 0
904 768 911 0
904 911 912 0
904 912 913 0
904 913 905 0
912 914 913 0
913 914 915 0
914 916 906 0
914 906 907 0
914 907 915 0
916 909 906 0
917 909 916 0
910 909 917 0
774 910 917 0
773 774 917 0
774 770 910 0
918 771 775 0
911 771 918 0
918 912 911 0
919 912 918 0
919 914 912 0
920 914 919 0
920 916 914 0
921 916 920 0
917 916 921 0
778 917 921 0
777 778 921 0
778 773 917 0
922 775 780 0
918 775 922 0
922 919 918 0
923 919 922 0
923 920 919 0
924 920 923 0
924 921 920 0
925 921 924 0
921 782 777 0
925 782 921 0
922 780 783 0
926 923 922 0
784 926 922 0
783 784 922 0
926 924 923 0
927 924 926 0
927 925 924 0
928 925 927 0
925 785 782 0
928 785 925 0
929 784 786 0
926 784 929 0
929 927 926 0
930 927 929 0
930 928 927 0
931 928 930 0
928 787 785 0
931 787 928 0
932 786 788 0
929 786 932 0
932 930 929 0
933 930 932 0
933 931 930 0
934 931 933 0
931 789 787 0
934 789 931 0
932 788 790 0
790 933 932 0
791 933 790 0
791 934 933 0
792 934 791 0
792 789 934 0
937 935 936 0
937 938 935 0
939 938 937 0
940 938 939 0
943 941 942 0
935 944 941 0
936 935 941 0
943 936 941 0
945 935 938 0
944 935 945 0
946 945 938 0
947 946 938 0
940 947 938 0
947 948 946 0
949 948 947 0
949 950 948 0
951 950 949 0
951 952 950 0
953 952 951 0
954 952 953 0
957 955 956 0
942 955 957 0
942 941 955 0
941 793 955 0
794 793 941 0
941 944 794 0
794 944 795 0
944 945 795 0
795 945 796 0
945 946 796 0
796 946 797 0
946 948 797 0
797 948 798 0
948 950 798 0
798 950 799 0
950 952 799 0
799 952 800 0
958 802 800 0
958 800 952 0
958 952 954 0
959 802 958 0
803 802 959 0
805 960 956 0
806 805 956 0
955 806 956 0
955 793 806 0
808 959 961 0
803 959 808 0
963 810 962 0
811 810 963 0
811 963 805 0
805 963 960 0
813 961 964 0
808 961 813 0
810 965 962 0
815 965 810 0
966 817 964 0
964 817 813 0
967 817 966 0
818 817 967 0
815 968 965 0
819 968 815 0
820 967 969 0
818 967 820 0
971 821 970 0
822 821 971 0
822 971 819 0
819 971 968 0
972 823 969 0
969 823 820 0
973 823 972 0
824 823 973 0
821 974 970 0
825 974 821 0
826 973 975 0
824 973 826 0
825 976 974 0
827 976 825 0
828 975 977 0
826 975 828 0
827 978 976 0
829 978 827 0
836 977 979 0
828 977 836 0
978 829 838 0
981 978 838 0
980 981 838 0
981 980 982 0
846 979 983 0
836 979 846 0
980 838 847 0
849 984 982 0
849 982 980 0
849 980 847 0
985 853 854 0
856 985 854 0
987 986 988 0
860 989 988 0
860 988 986 0
860 986 859 0
846 989 860 0
983 989 846 0
984 861 990 0
849 861 984 0
990 862 991 0
861 862 990 0
991 862 992 0
992 862 864 0
867 853 985 0
985 856 867 0
994 993 995 0
993 996 995 0
995 996 997 0
996 987 997 0
996 870 987 0
870 986 987 0
871 986 870 0
871 859 986 0
992 872 998 0
864 872 992 0
998 873 999 0
872 873 998 0
999 874 1000 0
873 874 999 0
1000 876 1001 0
874 876 1000 0
1001 878 1002 0
876 878 1001 0
1002 879 1003 0
878 879 1002 0
1003 879 880 0
994 1003 880 0
993 994 880 0
880 996 993 0
881 996 880 0
881 870 996 0
899 898 1004 0
900 1004 1005 0
899 1004 900 0
901 1005 1006 0
900 1005 901 0
901 1006 903 0
1007 898 905 0
1004 898 1007 0
1007 1005 1004 0
1008 1005 1007 0
1006 1005 1008 0
908 1006 1008 0
907 908 1008 0
908 903 1006 0
1007 905 913 0
913 1008 1007 0
915 1008 913 0
915 907 1008 0
1011 1009 1010 0
1011 1012 1009 0
1013 1012 1011 0
1013 1014 1012 0
1015 1014 1013 0
1015 1016 1014 0
1017 1016 1015 0
1017 1018 1016 0
1019 1018 1017 0
1020 1018 1019 0
1023 1021 1022 0
1010 1021 1023 0
1010 1009 1021 0
1009 936 1021 0
937 936 1009 0
1009 1012 937 0
937 1012 939 0
1012 1014 1024 0
1012 1024 940 0
1012 940 939 0
1025 1014 1016 0
1024 1014 1025 0
1026 1016 1018 0
1025 1016 1026 0
1027 1026 1018 0
1028 1027 1018 0
1020 1028 1018 0
1029 1027 1028 0
942 1030 1022 0
943 942 1022 0
1021 943 1022 0
1021 936 943 0
947 940 1024 0
1024 1025 947 0
947 1025 949 0
1025 1026 949 0
949 1026 951 0
1026 1027 951 0
951 1027 953 0
1029 1031 954 0
1027 1029 954 0
953 1027 954 0
1033 956 1032 0
957 956 1033 0
957 1033 942 0
942 1033 1030 0
1034 958 1031 0
1031 958 954 0
1035 958 1034 0
959 958 1035 0
956 1036 1032 0
960 1036 956 0
961 1035 1037 0
959 1035 961 0
1039 962 1038 0
963 962 1039 0
963 1039 960 0
960 1039 1036 0
964 1037 1040 0
961 1037 964 0
962 1041 1038 0
965 1041 962 0
1042 966 1040 0
1040 966 964 0
1043 966 1042 0
967 966 1043 0
965 1044 1041 0
968 1044 965 0
969 1043 1045 0
967 1043 969 0
971 970 1046 0
1047 1044 968 0
1047 968 971 0
1047 971 1046 0
969 1045 1049 0
969 1049 1048 0
969 1048 972 0
972 1048 973 0
1050 970 974 0
1046 970 1050 0
1046 1050 1047 0
1047 1050 1051 0
1049 1053 1048 0
1048 1053 1052 0
1048 975 973 0
1052 975 1048 0
1054 974 976 0
1050 974 1054 0
1050 1054 1051 0
1051 1054 1055 0
1053 1057 1052 0
1052 1057 1056 0
1052 977 975 0
1056 977 1052 0
1058 976 978 0
1054 976 1058 0
1054 1058 1055 0
1055 1058 1059 0
1057 1061 1056 0
1056 1061 1060 0
1056 979 977 0
1060 979 1056 0
1058 978 981 0
1058 1063 1059 0
1058 981 1063 0
981 1062 1063 0
982 1062 981 0
1062 1064 1063 0
1063 1064 1065 0
1064 1066 1065 0
1065 1066 1067 0
1067 1066 1068 0
1070 1069 1071 0
1069 1072 1071 0
1071 1072 1073 0
1072 1074 1073 0
1073 1074 1075 0
1074 1076 1075 0
1075 1076 1077 0
1076 1078 1060 0
1076 1060 1061 0
1076 1061 1077 0
1060 983 979 0
1078 983 1060 0
1079 982 984 0
1062 982 1079 0
1079 1064 1062 0
1080 1064 1079 0
1080 1066 1064 0
1081 1066 1080 0
1066 1081 1082 0
1066 1082 1083 0
1066 1083 1068 0
1083 1082 1084 0
1086 1085 1087 0
1085 1088 1069 0
1085 1069 1070 0
1085 1070 1087 0
1088 1072 1069 0
1089 1072 1088 0
1089 1074 1072 0
1090 1074 1089 0
1076 1074 1090 0
988 1076 1090 0
987 988 1090 0
988 1078 1076 0
989 1078 988 0
989 983 1078 0
1079 984 990 0
990 1080 1079 0
991 1080 990 0
1091 1081 1080 0
992 1091 1080 0
991 992 1080 0
1091 1082 1081 0
1092 1082 1091 0
1082 1092 1084 0
1084 1092 1093 0
1086 1095 1085 0
1085 1095 1094 0
1094 1088 1085 0
1096 1088 1094 0
1089 1088 1096 0
995 1089 1096 0
994 995 1096 0
995 1090 1089 0
997 1090 995 0
997 987 1090 0
1091 992 998 0
998 1092 1091 0
999 1092 998 0
999 1000 1097 0
1092 999 1097 0
1093 1092 1097 0
1097 1001 1098 0
1000 1001 1097 0
1098 1001 1002 0
1095 1098 1002 0
1094 1095 1002 0
1002 1096 1094 0
1003 1096 1002 0
1003 994 1096 0
1101 1099 1100 0
1101 1102 1099 0
1103 1102 1101 0
1103 1104 1102 0
1105 1104 1103 0
1105 1106 1104 0
1107 1106 1105 0
1107 1108 1106 0
1109 1108 1107 0
1110 1108 1109 0
1010 1111 1100 0
1011 1010 1100 0
1099 1011 1100 0
1099 1102 1011 0
1011 1102 1013 0
1102 1104 1013 0
1013 1104 1015 0
1104 1106 1015 0
1015 1106 1017 0
1106 1108 1017 0
1017 1108 1019 0
1110 1112 1020 0
1108 1110 1020 0
1019 1108 1020 0
1114 1022 1113 0
1023 1022 1114 0
1023 1114 1010 0
1010 1114 1111 0
1115 1028 1112 0
1112 1028 1020 0
1116 1028 1115 0
1029 1028 1116 0
1022 1117 1113 0
1030 1117 1022 0
1031 1116 1118 0
1029 1116 1031 0
1120 1032 1119 0
1033 1032 1120 0
1033 1120 1030 0
1030 1120 1117 0
1031 1118 1122 0
1031 1122 1121 0
1031 1121 1034 0
1034 1121 1035 0
1032 1123 1119 0
1036 1123 1032 0
1124 1121 1122 0
1125 1037 1035 0
1124 1125 1035 0
1121 1124 1035 0
1039 1038 1126 0
1127 1123 1036 0
1127 1036 1039 0
1127 1039 1126 0
1040 1125 1128 0
1037 1125 1040 0
1129 1038 1041 0
1126 1038 1129 0
1126 1129 1127 0
1127 1129 1130 0
1132 1131 1133 0
1131 1134 1133 0
1134 1128 1133 0
1134 1042 1128 0
1042 1040 1128 0
1042 1134 1043 0
1135 1041 1044 0
1129 1041 1135 0
1129 1135 1136 0
1129 1136 1137 0
1129 1137 1130 0
1137 1136 1138 0
1132 1140 1131 0
1131 1140 1139 0
1139 1134 1131 0
1141 1134 1139 0
1134 1045 1043 0
1141 1045 1134 0
1142 1044 1047 0
1135 1044 1142 0
1142 1136 1135 0
1143 1136 1142 0
1136 1143 1144 0
1136 1144 1145 0
1136 1145 1138 0
1144 1146 1145 0
1145 1146 1147 0
1147 1146 1148 0
1150 1149 1151 0
1149 1152 1151 0
1151 1152 1153 0
1152 1154 1139 0
1152 1139 1140 0
1152 1140 1153 0
1154 1141 1139 0
1155 1141 1154 0
1141 1049 1045 0
1155 1049 1141 0
1156 1047 1051 0
1142 1047 1156 0
1156 1143 1142 0
1157 1143 1156 0
1157 1144 1143 0
1158 1144 1157 0
1158 1146 1144 0
1159 1146 1158 0
1146 1159 1160 0
1146 1160 1161 0
1146 1161 1148 0
1160 1162 1161 0
1161 1162 1163 0
1162 1164 1163 0
1163 1164 1165 0
1164 1166 1149 0
1164 1149 1150 0
1164 1150 1165 0
1166 1152 1149 0
1167 1152 1166 0
1167 1154 1152 0
1168 1154 1167 0
1168 1155 1154 0
1169 1155 1168 0
1155 1053 1049 0
1169 1053 1155 0
1170 1051 1055 0
1156 1051 1170 0
1170 1157 1156 0
1171 1157 1170 0
1171 1158 1157 0
1172 1158 1171 0
1172 1159 1158 0
1173 1159 1172 0
1173 1160 1159 0
1174 1160 1173 0
1174 1162 1160 0
1175 1162 1174 0
1175 1164 1162 0
1176 1164 1175 0
1176 1166 1164 0
1177 1166 1176 0
1177 1167 1166 0
1178 1167 1177 0
1178 1168 1167 0
1179 1168 1178 0
1179 1169 1168 0
1180 1169 1179 0
1169 1057 1053 0
1180 1057 1169 0
1181 1055 1059 0
1170 1055 1181 0
1181 1171 1170 0
1182 1171 1181 0
1182 1172 1171 0
1183 1172 1182 0
1183 1173 1172 0
1184 1173 1183 0
1184 1174 1173 0
1185 1174 1184 0
1185 1175 1174 0
1186 1175 1185 0
1186 1176 1175 0
1187 1176 1186 0
1187 1177 1176 0
1188 1177 1187 0
1188 1178 1177 0
1189 1178 1188 0
1189 1179 1178 0
1190 1179 1189 0
1190 1180 1179 0
1191 1180 1190 0
1180 1061 1057 0
1191 1061 1180 0
1181 1059 1063 0
1063 1182 1181 0
1065 1182 1063 0
1065 1183 1182 0
1067 1183 1065 0
1192 1184 1183 0
1068 1192 1183 0
1067 1068 1183 0
1192 1185 1184 0
1193 1185 1192 0
1193 1186 1185 0
1194 1186 1193 0
1194 1187 1186 0
1195 1187 1194 0
1188 1187 1195 0
1071 1188 1195 0
1070 1071 1195 0
1071 1189 1188 0
1073 1189 1071 0
1073 1190 1189 0
1075 1190 1073 0
1075 1191 1190 0
1077 1191 1075 0
1077 1061 1191 0
1192 1068 1083 0
1196 1193 1192 0
