#!ascii version of 
596 1188
-6.000000  9.500000  20.000000  0
-5.500000  10.000000  20.000000  0
-6.000000  10.000000  20.500000  0
-7.000000  9.500000  20.000000  0
-7.000000  10.000000  20.500000  0
-8.000000  9.500000  20.000000  0
-8.000000  10.000000  20.500000  0
-9.000000  9.500000  20.000000  0
-9.000000  10.000000  20.500000  0
-9.500000  10.000000  20.000000  0
-6.000000  9.500000  19.000000  0
-5.500000  10.000000  19.000000  0
-7.000000  9.500000  19.000000  0
-8.000000  9.500000  19.000000  0
-9.000000  9.500000  19.000000  0
-9.500000  10.000000  19.000000  0
-6.000000  10.000000  18.500000  0
-7.000000  10.000000  18.500000  0
-8.000000  10.000000  18.500000  0
-9.000000  10.000000  18.500000  0
-4.000000  10.500000  21.000000  0
-3.500000  11.000000  21.000000  0
-4.000000  11.000000  21.500000  0
-5.000000  10.500000  21.000000  0
-5.000000  11.000000  21.500000  0
-5.500000  11.000000  21.000000  0
-4.000000  10.500000  20.000000  0
-3.500000  11.000000  20.000000  0
-5.000000  10.500000  20.000000  0
-6.000000  11.000000  20.500000  0
-7.000000  11.000000  20.500000  0
-8.000000  11.000000  20.500000  0
-9.000000  11.000000  20.500000  0
-9.500000  11.000000  20.000000  0
-4.000000  11.000000  19.500000  0
-5.000000  11.000000  19.500000  0
-5.500000  11.000000  19.000000  0
-9.500000  11.000000  19.000000  0
-6.000000  11.000000  18.500000  0
-7.000000  11.000000  18.500000  0
-8.000000  11.000000  18.500000  0
-9.000000  11.000000  18.500000  0
-2.000000  11.500000  23.000000  0
-1.500000  12.000000  23.000000  0
-2.000000  12.000000  23.500000  0
-3.000000  11.500000  23.000000  0
-3.000000  12.000000  23.500000  0
-4.000000  11.500000  23.000000  0
-4.000000  12.000000  23.500000  0
-5.000000  11.500000  23.000000  0
-5.000000  12.000000  23.500000  0
-5.500000  12.000000  23.000000  0
-2.000000  11.500000  22.000000  0
-1.500000  12.000000  22.000000  0
-3.000000  11.500000  22.000000  0
-4.000000  11.500000  22.000000  0
-5.000000  11.500000  22.000000  0
-6.000000  11.500000  22.000000  0
-6.000000  12.000000  22.500000  0
-7.000000  11.500000  22.000000  0
-7.000000  12.000000  22.500000  0
-7.500000  12.000000  22.000000  0
-2.000000  12.000000  21.500000  0
-3.000000  12.000000  21.500000  0
-3.500000  12.000000  21.000000  0
-6.000000  11.500000  21.000000  0
-7.000000  11.500000  21.000000  0
-7.500000  12.000000  21.000000  0
-3.500000  12.000000  20.000000  0
-8.000000  12.000000  20.500000  0
-9.000000  12.000000  20.500000  0
-9.500000  12.000000  20.000000  0
-4.000000  12.000000  19.500000  0
-5.000000  11.500000  19.000000  0
-4.500000  12.000000  19.000000  0
-9.500000  12.000000  19.000000  0
-5.000000  12.000000  18.500000  0
-6.000000  11.500000  18.000000  0
-5.500000  12.000000  18.000000  0
-7.000000  11.500000  18.000000  0
-8.000000  11.500000  18.000000  0
-9.000000  11.500000  18.000000  0
-9.500000  12.000000  18.000000  0
-6.000000  12.000000  17.500000  0
-7.000000  12.000000  17.500000  0
-8.000000  12.000000  17.500000  0
-9.000000  12.000000  17.500000  0
-3.000000  12.500000  27.000000  0
-2.500000  13.000000  27.000000  0
-3.000000  13.000000  27.500000  0
-3.500000  13.000000  27.000000  0
-2.000000  12.500000  26.000000  0
-1.500000  13.000000  26.000000  0
-2.000000  13.000000  26.500000  0
-3.000000  12.500000  26.000000  0
-3.500000  13.000000  26.000000  0
-2.000000  12.500000  25.000000  0
-1.500000  13.000000  25.000000  0
-3.000000  12.500000  25.000000  0
-3.500000  13.000000  25.000000  0
-2.000000  13.000000  24.500000  0
-3.000000  12.500000  24.000000  0
-2.500000  13.000000  24.000000  0
-4.000000  12.500000  24.000000  0
-4.000000  13.000000  24.500000  0
-5.000000  12.500000  24.000000  0
-5.000000  13.000000  24.500000  0
-5.500000  13.000000  24.000000  0
-1.500000  13.000000  23.000000  0
-2.000000  13.000000  23.500000  0
-5.500000  13.000000  23.000000  0
-1.500000  13.000000  22.000000  0
-6.000000  13.000000  22.500000  0
-7.000000  13.000000  22.500000  0
-7.500000  13.000000  22.000000  0
-2.000000  13.000000  21.500000  0
-3.000000  13.000000  21.500000  0
-3.500000  13.000000  21.000000  0
-7.500000  13.000000  21.000000  0
-3.500000  13.000000  20.000000  0
-8.000000  13.000000  20.500000  0
-9.000000  13.000000  20.500000  0
-9.500000  13.000000  20.000000  0
-4.000000  12.500000  19.000000  0
-3.500000  13.000000  19.000000  0
-9.500000  13.000000  19.000000  0
-4.000000  13.000000  18.500000  0
-5.000000  13.000000  18.500000  0
-5.500000  13.000000  18.000000  0
-9.500000  13.000000  18.000000  0
-6.000000  13.000000  17.500000  0
-7.000000  13.000000  17.500000  0
-8.000000  13.000000  17.500000  0
-9.000000  13.000000  17.500000  0
-2.500000  14.000000  27.000000  0
-3.000000  14.000000  27.500000  0
-3.500000  14.000000  27.000000  0
-1.500000  14.000000  26.000000  0
-2.000000  14.000000  26.500000  0
-3.500000  14.000000  26.000000  0
-1.500000  14.000000  25.000000  0
-4.000000  13.500000  25.000000  0
-4.000000  14.000000  25.500000  0
-5.000000  13.500000  25.000000  0
-5.000000  14.000000  25.500000  0
-5.500000  14.000000  25.000000  0
-2.000000  13.500000  24.000000  0
-1.500000  14.000000  24.000000  0
-6.000000  13.500000  24.000000  0
-6.000000  14.000000  24.500000  0
-7.000000  13.500000  24.000000  0
-7.000000  14.000000  24.500000  0
-7.500000  14.000000  24.000000  0
-1.500000  14.000000  23.000000  0
-6.000000  13.500000  23.000000  0
-7.000000  13.500000  23.000000  0
-7.500000  14.000000  23.000000  0
-1.500000  14.000000  22.000000  0
-7.500000  14.000000  22.000000  0
-2.000000  14.000000  21.500000  0
-3.000000  13.500000  21.000000  0
-2.500000  14.000000  21.000000  0
-8.000000  13.500000  21.000000  0
-8.000000  14.000000  21.500000  0
-8.500000  14.000000  21.000000  0
-3.000000  14.000000  20.500000  0
-3.500000  14.000000  20.000000  0
-9.000000  14.000000  20.500000  0
-9.500000  14.000000  20.000000  0
-3.500000  14.000000  19.000000  0
-9.500000  14.000000  19.000000  0
-4.000000  13.500000  18.000000  0
-3.500000  14.000000  18.000000  0
-5.000000  13.500000  18.000000  0
-9.500000  14.000000  18.000000  0
-4.000000  14.000000  17.500000  0
-5.000000  14.000000  17.500000  0
-6.000000  14.000000  17.500000  0
-7.000000  14.000000  17.500000  0
-8.000000  14.000000  17.500000  0
-9.000000  14.000000  17.500000  0
-2.500000  15.000000  27.000000  0
-3.000000  15.000000  27.500000  0
-3.500000  15.000000  27.000000  0
-1.500000  15.000000  26.000000  0
-2.000000  15.000000  26.500000  0
-4.000000  14.500000  26.000000  0
-4.000000  15.000000  26.500000  0
-5.000000  14.500000  26.000000  0
-5.000000  15.000000  26.500000  0
-6.000000  14.500000  26.000000  0
-6.000000  15.000000  26.500000  0
-6.500000  15.000000  26.000000  0
-1.500000  15.000000  25.000000  0
-5.500000  15.000000  25.000000  0
-6.000000  15.000000  25.500000  0
-1.500000  15.000000  24.000000  0
-6.000000  15.000000  24.500000  0
-7.000000  15.000000  24.500000  0
-7.500000  15.000000  24.000000  0
-1.500000  15.000000  23.000000  0
-7.500000  15.000000  23.000000  0
-1.500000  15.000000  22.000000  0
-7.500000  15.000000  22.000000  0
-2.000000  15.000000  21.500000  0
-2.500000  15.000000  21.000000  0
-8.000000  15.000000  21.500000  0
-8.500000  15.000000  21.000000  0
-3.000000  15.000000  20.500000  0
-3.500000  15.000000  20.000000  0
-9.000000  15.000000  20.500000  0
-9.500000  15.000000  20.000000  0
-3.500000  15.000000  19.000000  0
-9.500000  15.000000  19.000000  0
-3.500000  15.000000  18.000000  0
-9.500000  15.000000  18.000000  0
-4.000000  15.000000  17.500000  0
-5.000000  15.000000  17.500000  0
-6.000000  15.000000  17.500000  0
-7.000000  15.000000  17.500000  0
-8.000000  15.000000  17.500000  0
-9.000000  15.000000  17.500000  0
-4.000000  15.500000  28.000000  0
-3.500000  16.000000  28.000000  0
-4.000000  16.000000  28.500000  0
-4.500000  16.000000  28.000000  0
-2.500000  16.000000  27.000000  0
-3.000000  16.000000  27.500000  0
-4.000000  15.500000  27.000000  0
-4.500000  16.000000  27.000000  0
-1.500000  16.000000  26.000000  0
-2.000000  16.000000  26.500000  0
-5.000000  16.000000  26.500000  0
-6.000000  16.000000  26.500000  0
-6.500000  16.000000  26.000000  0
-1.500000  16.000000  25.000000  0
-5.500000  16.000000  25.000000  0
-6.000000  16.000000  25.500000  0
-1.500000  16.000000  24.000000  0
-6.000000  16.000000  24.500000  0
-7.000000  16.000000  24.500000  0
-7.500000  16.000000  24.000000  0
-1.500000  16.000000  23.000000  0
-7.500000  16.000000  23.000000  0
-1.500000  16.000000  22.000000  0
-8.000000  15.500000  22.000000  0
-8.000000  16.000000  22.500000  0
-9.000000  15.500000  22.000000  0
-9.000000  16.000000  22.500000  0
-9.500000  16.000000  22.000000  0
-2.000000  16.000000  21.500000  0
-2.500000  16.000000  21.000000  0
-9.000000  15.500000  21.000000  0
-9.500000  16.000000  21.000000  0
-3.000000  16.000000  20.500000  0
-3.500000  16.000000  20.000000  0
-9.500000  16.000000  20.000000  0
-3.500000  16.000000  19.000000  0
-5.000000  15.500000  19.000000  0
-4.500000  16.000000  19.000000  0
-5.000000  16.000000  19.500000  0
-6.000000  15.500000  19.000000  0
-6.000000  16.000000  19.500000  0
-7.000000  15.500000  19.000000  0
-7.000000  16.000000  19.500000  0
-7.500000  16.000000  19.000000  0
-9.500000  16.000000  19.000000  0
-4.000000  15.500000  18.000000  0
-4.000000  16.000000  18.500000  0
-5.000000  15.500000  18.000000  0
-6.000000  15.500000  18.000000  0
-7.000000  15.500000  18.000000  0
-7.500000  16.000000  18.000000  0
-9.500000  16.000000  18.000000  0
-8.000000  16.000000  17.500000  0
-9.000000  16.000000  17.500000  0
-3.000000  16.500000  28.000000  0
-2.500000  17.000000  28.000000  0
-3.000000  17.000000  28.500000  0
-4.000000  17.000000  28.500000  0
-4.500000  17.000000  28.000000  0
-2.500000  17.000000  27.000000  0
-4.500000  17.000000  27.000000  0
-1.500000  17.000000  26.000000  0
-2.000000  17.000000  26.500000  0
-5.000000  17.000000  26.500000  0
-6.000000  17.000000  26.500000  0
-6.500000  17.000000  26.000000  0
-1.500000  17.000000  25.000000  0
-5.500000  17.000000  25.000000  0
-6.000000  17.000000  25.500000  0
-1.500000  17.000000  24.000000  0
-6.000000  17.000000  24.500000  0
-7.000000  17.000000  24.500000  0
-7.500000  17.000000  24.000000  0
-1.500000  17.000000  23.000000  0
-7.500000  17.000000  23.000000  0
-9.000000  16.500000  23.000000  0
-8.500000  17.000000  23.000000  0
-9.000000  17.000000  23.500000  0
-9.500000  17.000000  23.000000  0
-2.000000  16.500000  22.000000  0
-2.000000  17.000000  22.500000  0
-2.500000  17.000000  22.000000  0
-8.000000  17.000000  22.500000  0
-9.500000  17.000000  22.000000  0
-3.000000  16.500000  21.000000  0
-3.000000  17.000000  21.500000  0
-3.500000  17.000000  21.000000  0
-9.500000  17.000000  21.000000  0
-4.000000  16.500000  20.000000  0
-4.000000  17.000000  20.500000  0
-5.000000  16.500000  20.000000  0
-5.000000  17.000000  20.500000  0
-5.500000  17.000000  20.000000  0
-9.500000  17.000000  20.000000  0
-4.000000  16.500000  19.000000  0
-6.000000  17.000000  19.500000  0
-7.000000  17.000000  19.500000  0
-7.500000  17.000000  19.000000  0
-9.500000  17.000000  19.000000  0
-8.000000  16.500000  18.000000  0
-8.000000  17.000000  18.500000  0
-9.000000  16.500000  18.000000  0
-9.000000  17.000000  18.500000  0
-2.500000  18.000000  28.000000  0
-3.000000  18.000000  28.500000  0
-4.000000  17.500000  28.000000  0
-3.500000  18.000000  28.000000  0
-2.500000  18.000000  27.000000  0
-4.000000  18.000000  27.500000  0
-4.500000  18.000000  27.000000  0
-1.500000  18.000000  26.000000  0
-2.000000  18.000000  26.500000  0
-5.000000  18.000000  26.500000  0
-6.000000  17.500000  26.000000  0
-5.500000  18.000000  26.000000  0
-1.500000  18.000000  25.000000  0
-5.500000  18.000000  25.000000  0
-2.000000  17.500000  24.000000  0
-2.000000  18.000000  24.500000  0
-2.500000  18.000000  24.000000  0
-6.000000  18.000000  24.500000  0
-7.000000  18.000000  24.500000  0
-7.500000  18.000000  24.000000  0
-2.000000  17.500000  23.000000  0
-3.000000  17.500000  23.000000  0
-3.000000  18.000000  23.500000  0
-3.500000  18.000000  23.000000  0
-8.000000  17.500000  23.000000  0
-8.000000  18.000000  23.500000  0
-9.000000  18.000000  23.500000  0
-9.500000  18.000000  23.000000  0
-3.000000  17.500000  22.000000  0
-3.500000  18.000000  22.000000  0
-9.500000  18.000000  22.000000  0
-3.500000  18.000000  21.000000  0
-5.000000  17.500000  21.000000  0
-4.500000  18.000000  21.000000  0
-5.000000  18.000000  21.500000  0
-5.500000  18.000000  21.000000  0
-9.500000  18.000000  21.000000  0
-4.000000  18.000000  20.500000  0
-5.500000  18.000000  20.000000  0
-9.500000  18.000000  20.000000  0
-6.000000  18.000000  19.500000  0
-7.000000  18.000000  19.500000  0
-8.000000  17.500000  19.000000  0
-8.000000  18.000000  19.500000  0
-9.000000  17.500000  19.000000  0
-9.000000  18.000000  19.500000  0
-2.500000  19.000000  28.000000  0
-3.000000  19.000000  28.500000  0
-4.000000  18.500000  28.000000  0
-4.000000  19.000000  28.500000  0
-4.500000  19.000000  28.000000  0
-2.500000  19.000000  27.000000  0
-4.500000  19.000000  27.000000  0
-2.000000  18.500000  26.000000  0
-3.000000  18.500000  26.000000  0
-3.000000  19.000000  26.500000  0
-3.500000  19.000000  26.000000  0
-5.000000  19.000000  26.500000  0
-6.000000  18.500000  26.000000  0
-6.000000  19.000000  26.500000  0
-6.500000  19.000000  26.000000  0
-2.000000  18.500000  25.000000  0
-3.000000  18.500000  25.000000  0
-3.500000  19.000000  25.000000  0
-6.000000  18.500000  25.000000  0
-7.000000  18.500000  25.000000  0
-7.000000  19.000000  25.500000  0
-8.000000  18.500000  25.000000  0
-8.000000  19.000000  25.500000  0
-9.000000  18.500000  25.000000  0
-9.000000  19.000000  25.500000  0
-9.500000  19.000000  25.000000  0
-3.000000  18.500000  24.000000  0
-3.500000  19.000000  24.000000  0
-8.000000  18.500000  24.000000  0
-9.000000  18.500000  24.000000  0
-9.500000  19.000000  24.000000  0
-3.500000  19.000000  23.000000  0
-10.000000  18.500000  23.000000  0
-10.000000  19.000000  23.500000  0
-10.500000  19.000000  23.000000  0
-3.500000  19.000000  22.000000  0
-10.000000  18.500000  22.000000  0
-10.500000  19.000000  22.000000  0
-4.000000  18.500000  21.000000  0
-4.000000  19.000000  21.500000  0
-5.000000  19.000000  21.500000  0
-6.000000  18.500000  21.000000  0
-6.000000  19.000000  21.500000  0
-7.000000  18.500000  21.000000  0
-7.000000  19.000000  21.500000  0
-8.000000  18.500000  21.000000  0
-8.000000  19.000000  21.500000  0
-9.000000  18.500000  21.000000  0
-9.000000  19.000000  21.500000  0
-10.000000  19.000000  21.500000  0
-6.000000  18.500000  20.000000  0
-7.000000  18.500000  20.000000  0
-8.000000  18.500000  20.000000  0
-9.000000  18.500000  20.000000  0
-2.500000  20.000000  28.000000  0
-3.000000  20.000000  28.500000  0
-4.000000  20.000000  28.500000  0
-4.500000  20.000000  28.000000  0
-2.500000  20.000000  27.000000  0
-4.500000  20.000000  27.000000  0
-3.000000  20.000000  26.500000  0
-4.000000  19.500000  26.000000  0
-4.000000  20.000000  26.500000  0
-4.500000  20.000000  26.000000  0
-5.000000  20.000000  26.500000  0
-6.000000  20.000000  26.500000  0
-7.000000  19.500000  26.000000  0
-7.000000  20.000000  26.500000  0
-7.500000  20.000000  26.000000  0
-4.000000  19.500000  25.000000  0
-4.500000  20.000000  25.000000  0
-8.000000  20.000000  25.500000  0
-9.000000  20.000000  25.500000  0
-9.500000  20.000000  25.000000  0
-4.000000  19.500000  24.000000  0
-4.500000  20.000000  24.000000  0
-9.500000  20.000000  24.000000  0
-4.000000  19.500000  23.000000  0
-4.500000  20.000000  23.000000  0
-10.000000  20.000000  23.500000  0
-11.000000  19.500000  23.000000  0
-11.000000  20.000000  23.500000  0
-11.500000  20.000000  23.000000  0
-4.000000  19.500000  22.000000  0
-5.000000  19.500000  22.000000  0
-5.000000  20.000000  22.500000  0
-5.500000  20.000000  22.000000  0
-10.500000  20.000000  22.000000  0
-11.000000  20.000000  22.500000  0
-6.000000  20.000000  21.500000  0
-7.000000  20.000000  21.500000  0
-8.000000  20.000000  21.500000  0
-9.000000  20.000000  21.500000  0
-10.000000  20.000000  21.500000  0
-3.000000  20.500000  28.000000  0
-4.000000  20.500000  28.000000  0
-3.000000  20.500000  27.000000  0
-4.000000  20.500000  27.000000  0
-5.000000  20.500000  27.000000  0
-4.500000  21.000000  27.000000  0
-5.000000  21.000000  27.500000  0
-6.000000  20.500000  27.000000  0
-6.000000  21.000000  27.500000  0
-7.000000  20.500000  27.000000  0
-7.000000  21.000000  27.500000  0
-8.000000  20.500000  27.000000  0
-8.000000  21.000000  27.500000  0
-8.500000  21.000000  27.000000  0
-4.500000  21.000000  26.000000  0
-8.000000  20.500000  26.000000  0
-8.500000  21.000000  26.000000  0
-5.000000  20.500000  25.000000  0
-5.000000  21.000000  25.500000  0
-5.500000  21.000000  25.000000  0
-9.000000  21.000000  25.500000  0
-10.000000  20.500000  25.000000  0
-10.000000  21.000000  25.500000  0
-11.000000  20.500000  25.000000  0
-11.000000  21.000000  25.500000  0
-11.500000  21.000000  25.000000  0
-5.000000  20.500000  24.000000  0
-6.000000  20.500000  24.000000  0
-6.000000  21.000000  24.500000  0
-6.500000  21.000000  24.000000  0
-10.000000  20.500000  24.000000  0
-11.000000  20.500000  24.000000  0
-11.500000  21.000000  24.000000  0
-5.000000  20.500000  23.000000  0
-6.000000  20.500000  23.000000  0
-6.500000  21.000000  23.000000  0
-11.500000  21.000000  23.000000  0
-6.000000  20.500000  22.000000  0
-7.000000  20.500000  22.000000  0
-7.000000  21.000000  22.500000  0
-7.500000  21.000000  22.000000  0
-10.500000  21.000000  22.000000  0
-11.000000  21.000000  22.500000  0
-8.000000  21.000000  21.500000  0
-9.000000  21.000000  21.500000  0
-10.000000  21.000000  21.500000  0
-5.000000  21.500000  28.000000  0
-4.500000  22.000000  28.000000  0
-5.000000  22.000000  28.500000  0
-6.000000  21.500000  28.000000  0
-6.000000  22.000000  28.500000  0
-6.500000  22.000000  28.000000  0
-4.500000  22.000000  27.000000  0
-7.000000  22.000000  27.500000  0
-8.000000  22.000000  27.500000  0
-8.500000  22.000000  27.000000  0
-4.500000  22.000000  26.000000  0
-8.500000  22.000000  26.000000  0
-5.000000  22.000000  25.500000  0
-6.000000  21.500000  25.000000  0
-6.000000  22.000000  25.500000  0
-6.500000  22.000000  25.000000  0
-9.000000  22.000000  25.500000  0
-10.000000  22.000000  25.500000  0
-11.000000  22.000000  25.500000  0
-11.500000  22.000000  25.000000  0
-6.500000  22.000000  24.000000  0
-11.500000  22.000000  24.000000  0
-6.500000  22.000000  23.000000  0
-11.500000  22.000000  23.000000  0
-7.000000  22.000000  22.500000  0
-8.000000  21.500000  22.000000  0
-8.000000  22.000000  22.500000  0
-9.000000  21.500000  22.000000  0
-9.000000  22.000000  22.500000  0
-10.000000  21.500000  22.000000  0
-10.000000  22.000000  22.500000  0
-11.000000  22.000000  22.500000  0
-5.000000  22.500000  29.000000  0
-4.500000  23.000000  29.000000  0
-5.000000  23.000000  29.500000  0
-6.000000  22.500000  29.000000  0
-6.000000  23.000000  29.500000  0
-6.500000  23.000000  29.000000  0
-4.500000  23.000000  28.000000  0
-6.500000  23.000000  28.000000  0
-5.000000  22.500000  27.000000  0
-5.000000  23.000000  27.500000  0
-5.500000  23.000000  27.000000  0
-7.000000  23.000000  27.500000  0
-8.000000  23.000000  27.500000  0
-8.500000  23.000000  27.000000  0
-5.000000  22.500000  26.000000  0
-5.500000  23.000000  26.000000  0
-8.500000  23.000000  26.000000  0
-6.000000  23.000000  25.500000  0
-6.500000  23.000000  25.000000  0
-9.000000  23.000000  25.500000  0
-10.000000  23.000000  25.500000  0
-11.000000  22.500000  25.000000  0
-10.500000  23.000000  25.000000  0
-6.500000  23.000000  24.000000  0
-11.000000  22.500000  24.000000  0
-10.500000  23.000000  24.000000  0
-7.000000  22.500000  23.000000  0
-7.000000  23.000000  23.500000  0
-8.000000  22.500000  23.000000  0
-8.000000  23.000000  23.500000  0
-9.000000  22.500000  23.000000  0
-9.000000  23.000000  23.500000  0
-10.000000  22.500000  23.000000  0
-10.000000  23.000000  23.500000  0
-11.000000  22.500000  23.000000  0
-5.000000  23.500000  29.000000  0
-6.000000  23.500000  29.000000  0
-5.000000  23.500000  28.000000  0
-6.000000  23.500000  28.000000  0
-6.000000  23.500000  27.000000  0
-7.000000  23.500000  27.000000  0
-8.000000  23.500000  27.000000  0
-6.000000  23.500000  26.000000  0
-7.000000  23.500000  26.000000  0
-8.000000  23.500000  26.000000  0
-7.000000  23.500000  25.000000  0
-8.000000  23.500000  25.000000  0
-9.000000  23.500000  25.000000  0
-10.000000  23.500000  25.000000  0
-7.000000  23.500000  24.000000  0
-8.000000  23.500000  24.000000  0
-9.000000  23.500000  24.000000  0
-10.000000  23.500000  24.000000  0
2 0 1 0
2 3 0 0
4 3 2 0
4 5 3 0
6 5 4 0
6 7 5 0
8 7 6 0
9 7 8 0
0 11 1 0
10 11 0 0
12 0 3 0
10 0 12 0
13 3 5 0
12 3 13 0
14 5 7 0
13 5 14 0
9 14 7 0
15 14 9 0
11 10 16 0
10 17 16 0
12 17 10 0
12 18 17 0
13 18 12 0
13 19 18 0
14 19 13 0
14 15 19 0
22 20 21 0
22 23 20 0
24 23 22 0
25 23 24 0
20 27 21 0
26 27 20 0
28 20 23 0
26 20 28 0
29 2 25 0
2 23 25 0
2 1 23 0
1 28 23 0
30 2 29 0
4 2 30 0
31 4 30 0
6 4 31 0
32 6 31 0
8 6 32 0
33 8 32 0
9 8 33 0
27 26 34 0
26 35 34 0
28 35 26 0
1 11 36 0
1 36 35 0
1 35 28 0
15 33 37 0
9 33 15 0
36 16 38 0
11 16 36 0
38 17 39 0
16 17 38 0
39 18 40 0
17 18 39 0
40 19 41 0
18 19 40 0
15 41 19 0
37 41 15 0
44 42 43 0
44 45 42 0
46 45 44 0
46 47 45 0
48 47 46 0
48 49 47 0
50 49 48 0
51 49 50 0
42 53 43 0
52 53 42 0
54 42 45 0
52 42 54 0
55 45 47 0
54 45 55 0
56 47 49 0
55 47 56 0
57 56 49 0
58 57 49 0
51 58 49 0
58 59 57 0
60 59 58 0
61 59 60 0
53 52 62 0
52 63 62 0
54 63 52 0
55 63 54 0
55 64 63 0
22 64 55 0
21 64 22 0
55 56 22 0
22 56 24 0
56 57 65 0
56 65 25 0
56 25 24 0
66 57 59 0
65 57 66 0
61 66 59 0
67 66 61 0
21 68 64 0
27 68 21 0
29 25 65 0
65 66 29 0
29 66 30 0
69 31 30 0
69 30 66 0
69 66 67 0
70 31 69 0
32 31 70 0
71 32 70 0
33 32 71 0
68 34 72 0
27 34 68 0
72 34 35 0
72 35 73 0
72 73 74 0
36 73 35 0
37 71 75 0
33 71 37 0
74 73 76 0
76 77 78 0
76 73 77 0
73 38 77 0
36 38 73 0
79 77 39 0
39 77 38 0
80 79 40 0
40 79 39 0
81 80 41 0
41 80 40 0
37 75 82 0
41 37 82 0
81 41 82 0
78 77 83 0
77 84 83 0
79 84 77 0
79 85 84 0
80 85 79 0
80 86 85 0
81 86 80 0
81 82 86 0
89 87 88 0
90 87 89 0
93 91 92 0
87 94 91 0
88 87 91 0
93 88 91 0
90 94 87 0
95 94 90 0
91 97 92 0
96 97 91 0
98 91 94 0
96 91 98 0
95 98 94 0
99 98 95 0
97 96 100 0
96 98 101 0
100 96 101 0
102 100 101 0
103 101 98 0
104 103 98 0
99 104 98 0
104 105 103 0
106 105 104 0
107 105 106 0
109 43 108 0
44 43 109 0
46 44 109 0
46 109 102 0
46 102 101 0
101 103 46 0
46 103 48 0
103 105 48 0
48 105 50 0
107 110 51 0
105 107 51 0
50 105 51 0
43 111 108 0
53 111 43 0
112 58 110 0
110 58 51 0
113 58 112 0
60 58 113 0
114 60 113 0
61 60 114 0
111 62 115 0
53 62 111 0
115 63 116 0
62 63 115 0
116 63 117 0
117 63 64 0
67 114 118 0
61 114 67 0
64 119 117 0
68 119 64 0
120 69 118 0
118 69 67 0
121 69 120 0
70 69 121 0
122 70 121 0
71 70 122 0
124 119 68 0
123 124 68 0
72 123 68 0
74 123 72 0
75 122 125 0
71 122 75 0
124 123 126 0
76 127 126 0
74 76 126 0
123 74 126 0
127 76 128 0
128 76 78 0
82 125 129 0
75 125 82 0
128 83 130 0
78 83 128 0
130 84 131 0
83 84 130 0
131 85 132 0
84 85 131 0
132 86 133 0
85 86 132 0
82 133 86 0
129 133 82 0
135 88 134 0
89 88 135 0
136 89 135 0
90 89 136 0
138 92 137 0
93 92 138 0
93 138 88 0
88 138 134 0
95 136 139 0
90 136 95 0
92 140 137 0
97 140 92 0
99 95 139 0
99 139 142 0
99 142 141 0
142 143 141 0
144 143 142 0
145 143 144 0
147 140 97 0
146 147 97 0
100 146 97 0
102 146 100 0
104 99 141 0
141 143 104 0
104 143 106 0
149 143 145 0
149 148 143 0
148 106 143 0
107 106 148 0
149 150 148 0
151 150 149 0
152 150 151 0
108 153 147 0
109 108 147 0
146 109 147 0
146 102 109 0
110 107 154 0
154 107 148 0
155 148 150 0
154 148 155 0
152 155 150 0
156 155 152 0
108 157 153 0
111 157 108 0
112 110 154 0
154 155 112 0
112 155 113 0
156 158 114 0
155 156 114 0
113 155 114 0
157 115 159 0
111 115 157 0
159 115 116 0
159 116 160 0
159 160 161 0
117 160 116 0
118 114 158 0
118 158 163 0
118 163 162 0
164 162 163 0
161 160 165 0
117 119 166 0
117 166 165 0
117 165 160 0
120 118 162 0
167 121 120 0
167 120 162 0
167 162 164 0
168 121 167 0
122 121 168 0
119 169 166 0
124 169 119 0
125 168 170 0
122 168 125 0
172 169 124 0
171 172 124 0
126 171 124 0
173 171 127 0
127 171 126 0
128 173 127 0
129 170 174 0
125 170 129 0
172 171 175 0
171 176 175 0
173 176 171 0
130 177 176 0
128 130 176 0
173 128 176 0
177 131 178 0
130 131 177 0
178 132 179 0
131 132 178 0
179 133 180 0
132 133 179 0
129 180 133 0
174 180 129 0
182 134 181 0
135 134 182 0
183 135 182 0
136 135 183 0
185 137 184 0
138 137 185 0
138 185 134 0
134 185 181 0
139 136 183 0
139 183 187 0
139 187 186 0
187 188 186 0
189 188 187 0
189 190 188 0
191 190 189 0
192 190 191 0
137 193 184 0
140 193 137 0
142 139 186 0
186 188 142 0
142 188 144 0
188 190 144 0
190 145 144 0
190 195 145 0
195 194 145 0
190 192 195 0
140 196 193 0
147 196 140 0
197 149 194 0
194 149 145 0
198 149 197 0
151 149 198 0
199 151 198 0
152 151 199 0
147 200 196 0
153 200 147 0
156 199 201 0
152 199 156 0
153 202 200 0
157 202 153 0
158 201 203 0
156 201 158 0
202 159 204 0
157 159 202 0
204 159 205 0
205 159 161 0
206 163 203 0
203 163 158 0
207 163 206 0
164 163 207 0
205 165 208 0
161 165 205 0
208 165 209 0
209 165 166 0
210 167 207 0
207 167 164 0
211 167 210 0
168 167 211 0
166 212 209 0
169 212 166 0
170 211 213 0
168 211 170 0
169 214 212 0
172 214 169 0
174 213 215 0
170 213 174 0
214 175 216 0
172 175 214 0
216 176 217 0
175 176 216 0
217 177 218 0
176 177 217 0
218 178 219 0
177 178 218 0
219 179 220 0
178 179 219 0
220 180 221 0
179 180 220 0
174 221 180 0
215 221 174 0
224 222 223 0
225 222 224 0
227 181 226 0
182 181 227 0
228 223 222 0
228 227 223 0
183 227 228 0
182 227 183 0
225 228 222 0
229 228 225 0
231 184 230 0
185 184 231 0
185 231 181 0
181 231 226 0
187 183 228 0
232 189 187 0
232 187 228 0
232 228 229 0
233 189 232 0
191 189 233 0
234 191 233 0
192 191 234 0
184 235 230 0
193 235 184 0
236 194 237 0
237 194 195 0
192 237 195 0
234 237 192 0
193 238 235 0
196 238 193 0
239 197 236 0
236 197 194 0
240 197 239 0
198 197 240 0
241 198 240 0
199 198 241 0
196 242 238 0
200 242 196 0
201 241 243 0
199 241 201 0
200 244 242 0
202 244 200 0
203 201 243 0
203 243 246 0
203 246 245 0
246 247 245 0
248 247 246 0
249 247 248 0
244 204 250 0
202 204 244 0
250 204 251 0
251 204 205 0
206 203 245 0
245 247 252 0
245 252 207 0
245 207 206 0
249 252 247 0
253 252 249 0
251 208 254 0
205 208 251 0
254 208 255 0
255 208 209 0
210 207 252 0
253 256 211 0
252 253 211 0
210 252 211 0
209 257 255 0
212 257 209 0
259 258 260 0
258 261 260 0
260 261 262 0
261 263 262 0
262 263 264 0
264 263 265 0
213 256 266 0
211 256 213 0
257 212 214 0
268 257 214 0
267 268 214 0
267 269 258 0
267 258 259 0
267 259 268 0
269 261 258 0
270 261 269 0
270 263 261 0
271 263 270 0
263 271 265 0
265 271 272 0
215 266 273 0
213 266 215 0
267 214 216 0
216 269 267 0
217 269 216 0
217 270 269 0
218 270 217 0
218 271 270 0
219 271 218 0
219 220 274 0
271 219 274 0
272 271 274 0
274 221 275 0
220 221 274 0
215 275 221 0
273 275 215 0
278 276 277 0
278 279 224 0
276 278 224 0
223 276 224 0
280 224 279 0
225 224 280 0
226 281 277 0
227 226 277 0
276 227 277 0
276 223 227 0
229 280 282 0
225 280 229 0
284 230 283 0
231 230 284 0
231 284 226 0
226 284 281 0
285 232 282 0
282 232 229 0
286 232 285 0
233 232 286 0
287 233 286 0
234 233 287 0
230 288 283 0
235 288 230 0
289 236 290 0
290 236 237 0
234 290 237 0
287 290 234 0
235 291 288 0
238 291 235 0
292 239 289 0
289 239 236 0
293 239 292 0
240 239 293 0
294 240 293 0
241 240 294 0
238 295 291 0
242 295 238 0
243 294 296 0
241 294 243 0
299 297 298 0
300 297 299 0
295 242 244 0
302 295 244 0
301 302 244 0
302 301 303 0
304 246 296 0
296 246 243 0
248 246 304 0
248 304 298 0
248 298 297 0
300 305 249 0
297 300 249 0
248 297 249 0
301 244 250 0
301 307 303 0
301 250 307 0
250 306 307 0
251 306 250 0
307 306 308 0
253 305 309 0
249 305 253 0
306 251 254 0
306 311 308 0
306 254 311 0
254 310 311 0
255 310 254 0
310 312 311 0
311 312 313 0
313 312 314 0
256 309 315 0
253 309 256 0
316 255 257 0
310 255 316 0
312 310 316 0
260 312 316 0
259 260 316 0
260 262 317 0
312 260 317 0
314 312 317 0
317 264 318 0
262 264 317 0
318 264 319 0
319 264 265 0
266 315 320 0
256 315 266 0
316 257 268 0
268 259 316 0
319 265 272 0
322 319 272 0
321 322 272 0
321 323 322 0
322 323 324 0
273 266 320 0
323 273 320 0
324 323 320 0
321 272 274 0
274 323 321 0
275 323 274 0
275 273 323 0
326 277 325 0
278 277 326 0
279 278 326 0
327 279 326 0
328 327 326 0
279 327 280 0
277 329 325 0
281 329 277 0
330 327 328 0
331 282 280 0
330 331 280 0
327 330 280 0
333 283 332 0
284 283 333 0
284 333 281 0
281 333 329 0
334 285 331 0
331 285 282 0
286 285 334 0
335 286 334 0
336 335 334 0
286 335 287 0
283 337 332 0
288 337 283 0
336 338 289 0
336 289 290 0
336 290 335 0
290 287 335 0
337 288 291 0
340 337 291 0
339 340 291 0
340 339 341 0
342 292 338 0
338 292 289 0
343 292 342 0
293 292 343 0
344 293 343 0
294 293 344 0
345 291 295 0
339 291 345 0
339 345 346 0
339 346 347 0
339 347 341 0
347 346 348 0
296 294 344 0
296 344 350 0
296 350 349 0
350 351 299 0
349 350 299 0
298 349 299 0
352 299 351 0
300 299 352 0
345 295 302 0
353 346 345 0
303 353 345 0
302 303 345 0
346 353 348 0
348 353 354 0
304 296 349 0
349 298 304 0
305 352 355 0
300 352 305 0
353 303 307 0
308 356 354 0
308 354 353 0
308 353 307 0
358 357 359 0
359 357 360 0
309 355 361 0
305 355 309 0
356 311 362 0
308 311 356 0
362 311 313 0
358 362 313 0
357 358 313 0
314 363 360 0
314 360 357 0
314 357 313 0
315 361 364 0
309 361 315 0
363 317 365 0
314 317 363 0
365 318 366 0
317 318 365 0
368 366 318 0
368 318 319 0
368 319 367 0
367 369 368 0
368 369 370 0
320 315 364 0
369 320 364 0
370 369 364 0
367 319 322 0
322 369 367 0
324 369 322 0
324 320 369 0
372 325 371 0
326 325 372 0
326 372 374 0
328 326 374 0
373 328 374 0
375 373 374 0
325 376 371 0
329 376 325 0
330 328 373 0
375 377 331 0
373 375 331 0
330 373 331 0
333 332 378 0
329 380 376 0
329 379 380 0
333 379 329 0
378 379 333 0
380 379 381 0
382 334 377 0
377 334 331 0
334 382 384 0
336 334 384 0
383 336 384 0
385 383 384 0
386 332 337 0
378 332 386 0
386 379 378 0
387 379 386 0
379 387 381 0
381 387 388 0
338 336 389 0
389 336 383 0
390 389 383 0
391 390 383 0
385 391 383 0
391 392 390 0
393 392 391 0
393 394 392 0
395 394 393 0
396 394 395 0
386 337 340 0
397 387 386 0
341 397 386 0
340 341 386 0
387 397 388 0
388 397 398 0
342 338 389 0
389 390 342 0
342 390 343 0
390 392 399 0
390 399 344 0
390 344 343 0
400 392 394 0
399 392 400 0
396 400 394 0
401 400 396 0
397 341 347 0
348 402 398 0
348 398 397 0
348 397 347 0
350 344 399 0
399 400 350 0
350 400 351 0
404 400 401 0
404 403 400 0
403 351 400 0
352 351 403 0
405 403 404 0
348 406 402 0
354 406 348 0
355 352 407 0
407 352 403 0
405 407 403 0
408 407 405 0
406 354 356 0
410 406 356 0
409 410 356 0
359 411 410 0
359 410 409 0
359 409 358 0
413 411 359 0
413 359 360 0
413 360 412 0
412 414 413 0
413 414 415 0
414 416 415 0
415 416 417 0
416 418 417 0
417 418 419 0
419 407 420 0
419 355 407 0
418 355 419 0
361 355 418 0
407 408 420 0
409 356 362 0
362 358 409 0
421 360 363 0
412 360 421 0
421 414 412 0
422 414 421 0
422 416 414 0
423 416 422 0
423 418 416 0
424 418 423 0
418 364 361 0
424 364 418 0
421 363 365 0
365 422 421 0
366 422 365 0
366 423 422 0
368 423 366 0
368 424 423 0
370 424 368 0
370 364 424 0
426 371 425 0
372 371 426 0
427 372 426 0
374 372 427 0
428 374 427 0
375 374 428 0
371 429 425 0
376 429 371 0
377 428 430 0
375 428 377 0
429 380 431 0
376 380 429 0
433 431 380 0
433 380 381 0
433 381 432 0
377 432 382 0
377 430 432 0
430 433 432 0
382 432 435 0
435 432 434 0
436 382 435 0
384 382 436 0
384 436 438 0
385 384 438 0
437 385 438 0
439 437 438 0
440 381 388 0
432 381 440 0
432 440 434 0
434 440 441 0
391 385 437 0
442 393 391 0
442 391 437 0
442 437 439 0
443 393 442 0
395 393 443 0
444 395 443 0
396 395 444 0
445 388 398 0
440 388 445 0
440 445 441 0
441 445 446 0
401 444 447 0
396 444 401 0
448 398 402 0
445 398 448 0
445 448 446 0
446 448 449 0
450 404 447 0
447 404 401 0
404 450 452 0
405 404 452 0
451 405 452 0
453 451 452 0
454 402 406 0
448 402 454 0
448 454 455 0
448 455 456 0
448 456 449 0
456 455 457 0
458 408 405 0
458 405 451 0
458 451 459 0
451 453 459 0
454 406 410 0
410 455 454 0
411 455 410 0
411 413 460 0
455 411 460 0
457 455 460 0
460 415 461 0
413 415 460 0
461 417 462 0
415 417 461 0
462 419 463 0
417 419 462 0
463 420 464 0
419 420 463 0
408 464 420 0
458 464 408 0
426 425 465 0
427 465 466 0
426 465 427 0
427 466 428 0
467 425 429 0
465 425 467 0
467 466 465 0
468 466 467 0
466 430 428 0
468 430 466 0
471 469 470 0
471 472 469 0
473 472 471 0
473 474 472 0
475 474 473 0
475 476 474 0
477 476 475 0
478 476 477 0
467 429 431 0
431 468 467 0
433 468 431 0
468 433 430 0
435 434 469 0
434 470 469 0
479 470 434 0
469 472 435 0
435 472 436 0
472 474 436 0
436 474 438 0
474 476 480 0
474 480 439 0
474 439 438 0
478 480 476 0
481 480 478 0
479 434 441 0
483 479 441 0
482 483 441 0
483 482 484 0
442 439 480 0
485 443 442 0
485 442 480 0
485 480 481 0
443 485 487 0
444 443 487 0
486 444 487 0
487 488 486 0
489 488 487 0
490 488 489 0
491 441 446 0
482 441 491 0
482 491 492 0
482 492 493 0
482 493 484 0
493 492 494 0
447 444 495 0
495 444 486 0
496 486 488 0
495 486 496 0
490 496 488 0
497 496 490 0
498 446 449 0
491 446 498 0
498 492 491 0
499 492 498 0
492 499 494 0
494 499 500 0
450 447 495 0
495 496 450 0
450 496 452 0
497 501 453 0
496 497 453 0
452 496 453 0
498 449 456 0
502 499 498 0
457 502 498 0
456 457 498 0
499 502 503 0
499 503 504 0
499 504 500 0
504 503 505 0
506 458 507 0
507 458 459 0
453 507 459 0
501 507 453 0
502 457 460 0
460 503 502 0
461 503 460 0
461 462 508 0
503 461 508 0
505 503 508 0
508 463 509 0
462 463 508 0
509 464 510 0
463 464 509 0
458 510 464 0
506 510 458 0
513 511 512 0
513 514 511 0
515 514 513 0
516 514 515 0
470 517 512 0
471 470 512 0
511 471 512 0
511 514 471 0
471 514 473 0
518 475 473 0
518 473 514 0
518 514 516 0
519 475 518 0
477 475 519 0
520 477 519 0
478 477 520 0
470 521 517 0
479 521 470 0
481 520 522 0
478 520 481 0
521 483 523 0
479 483 521 0
525 523 483 0
525 483 484 0
525 484 524 0
525 524 526 0
527 485 522 0
522 485 481 0
528 485 527 0
487 485 528 0
529 487 528 0
489 487 529 0
530 489 529 0
490 489 530 0
524 484 493 0
494 531 526 0
494 526 524 0
494 524 493 0
497 530 532 0
490 530 497 0
494 533 531 0
500 533 494 0
501 532 534 0
497 532 501 0
533 504 535 0
500 504 533 0
537 535 504 0
537 504 505 0
537 505 536 0
536 538 537 0
537 538 539 0
538 540 539 0
539 540 541 0
507 542 541 0
507 541 540 0
507 540 506 0
501 542 507 0
534 542 501 0
536 505 508 0
508 538 536 0
509 538 508 0
509 540 538 0
510 540 509 0
510 506 540 0
545 543 544 0
545 546 543 0
547 546 545 0
548 546 547 0
512 549 544 0
513 512 544 0
543 513 544 0
543 546 513 0
513 546 515 0
548 550 516 0
546 548 516 0
515 546 516 0
549 512 517 0
552 549 517 0
551 552 517 0
552 551 553 0
554 518 550 0
550 518 516 0
555 518 554 0
519 518 555 0
556 519 555 0
520 519 556 0
557 517 521 0
551 517 557 0
551 557 553 0
553 557 558 0
522 556 559 0
520 556 522 0
557 521 523 0
523 525 560 0
557 523 560 0
558 557 560 0
560 525 561 0
561 525 526 0
562 527 559 0
559 527 522 0
563 527 562 0
528 527 563 0
529 528 563 0
564 529 563 0
565 564 563 0
529 564 530 0
526 566 561 0
531 566 526 0
565 568 564 0
564 568 567 0
564 532 530 0
567 532 564 0
566 531 533 0
570 566 533 0
569 570 533 0
569 571 570 0
570 571 572 0
571 573 572 0
572 573 574 0
573 575 574 0
574 575 576 0
575 577 567 0
575 567 568 0
575 568 576 0
567 534 532 0
577 534 567 0
569 533 535 0
535 571 569 0
537 571 535 0
537 573 571 0
539 573 537 0
539 575 573 0
541 575 539 0
541 577 575 0
542 577 541 0
542 534 577 0
545 544 578 0
547 578 579 0
545 578 547 0
547 579 548 0
580 544 549 0
578 544 580 0
580 579 578 0
581 579 580 0
579 550 548 0
581 550 579 0
580 549 552 0
582 581 580 0
553 582 580 0
552 553 580 0
581 582 583 0
550 581 583 0
554 550 583 0
555 583 584 0
554 583 555 0
555 584 556 0
585 553 558 0
582 553 585 0
585 583 582 0
586 583 585 0
586 584 583 0
587 584 586 0
584 559 556 0
587 559 584 0
585 558 560 0
588 586 585 0
561 588 585 0
560 561 585 0
588 587 586 0
589 587 588 0
587 589 590 0
559 587 590 0
562 559 590 0
563 590 591 0
562 590 563 0
563 591 565 0
592 561 566 0
588 561 592 0
592 589 588 0
593 589 592 0
593 590 589 0
594 590 593 0
594 591 590 0
595 591 594 0
591 568 565 0
595 568 591 0
592 566 570 0
570 593 592 0
572 593 570 0
572 594 593 0
574 594 572 0
574 595 594 0
576 595 574 0
576 568 595 0
