#!ascii version of 
8090 16176
-7.000000  -5.000000  -7.500000  0
-10.000000  -5.500000  -8.000000  0
13.000000  -5.500000  -9.000000  0
12.000000  -5.500000  -9.000000  0
11.000000  -5.500000  -9.000000  0
10.000000  -5.500000  -9.000000  0
10.000000  -5.000000  -8.500000  0
9.000000  -5.500000  -9.000000  0
8.000000  -5.500000  -9.000000  0
7.000000  -5.500000  -9.000000  0
6.000000  -5.500000  -9.000000  0
-1.000000  -5.500000  -9.000000  0
-2.000000  -5.500000  -9.000000  0
-2.000000  -5.000000  -8.500000  0
-3.000000  -5.500000  -9.000000  0
-3.000000  -5.000000  -8.500000  0
-4.000000  -5.500000  -9.000000  0
-4.000000  -5.000000  -8.500000  0
-5.000000  -5.500000  -9.000000  0
-5.000000  -5.000000  -8.500000  0
-6.000000  -5.500000  -9.000000  0
-1.000000  -5.500000  -10.000000  0
-2.000000  -5.500000  -10.000000  0
-3.000000  -5.500000  -10.000000  0
6.000000  -4.500000  11.000000  0
5.000000  -4.500000  11.000000  0
4.500000  -4.000000  11.000000  0
4.000000  -4.000000  11.500000  0
3.000000  -4.500000  11.000000  0
3.500000  -4.000000  11.000000  0
2.000000  -4.500000  11.000000  0
10.500000  -4.000000  10.000000  0
10.000000  -4.000000  10.500000  0
9.000000  -4.000000  10.500000  0
8.000000  -4.000000  10.500000  0
7.000000  -4.000000  10.500000  0
6.000000  -4.000000  10.500000  0
5.000000  -4.000000  10.500000  0
3.000000  -4.000000  10.500000  0
2.000000  -4.000000  10.500000  0
1.000000  -4.500000  10.000000  0
1.500000  -4.000000  10.000000  0
0.000000  -4.500000  10.000000  0
-0.500000  -4.000000  10.000000  0
-1.000000  -4.000000  10.500000  0
-2.000000  -4.000000  10.500000  0
-3.000000  -4.000000  10.500000  0
-4.000000  -4.000000  10.500000  0
-4.500000  -4.000000  10.000000  0
14.000000  -4.500000  9.000000  0
13.000000  -4.500000  9.000000  0
12.000000  -4.500000  9.000000  0
11.500000  -4.000000  9.000000  0
11.000000  -4.000000  9.500000  0
1.000000  -4.000000  9.500000  0
0.000000  -4.000000  9.500000  0
-4.500000  -4.000000  9.000000  0
14.500000  -4.000000  8.000000  0
14.000000  -4.000000  8.500000  0
13.000000  -4.500000  8.000000  0
13.500000  -4.000000  8.000000  0
12.000000  -4.500000  8.000000  0
11.500000  -4.000000  8.000000  0
-5.000000  -4.000000  8.500000  0
-6.000000  -4.000000  8.500000  0
-7.000000  -4.500000  8.000000  0
-6.500000  -4.000000  8.000000  0
14.500000  -4.000000  7.000000  0
13.000000  -4.000000  7.500000  0
12.000000  -4.000000  7.500000  0
-7.000000  -4.000000  7.500000  0
-8.000000  -4.000000  7.500000  0
-9.000000  -4.000000  7.500000  0
-10.000000  -4.000000  7.500000  0
-10.500000  -4.000000  7.000000  0
14.000000  -4.500000  6.000000  0
14.000000  -4.000000  6.500000  0
13.500000  -4.000000  6.000000  0
-10.500000  -4.000000  6.000000  0
14.000000  -4.500000  5.000000  0
13.500000  -4.000000  5.000000  0
-10.500000  -4.000000  5.000000  0
14.000000  -4.500000  4.000000  0
13.500000  -4.000000  4.000000  0
-10.500000  -4.000000  4.000000  0
14.000000  -4.500000  3.000000  0
13.500000  -4.000000  3.000000  0
-11.000000  -4.500000  3.000000  0
-10.500000  -4.000000  3.000000  0
14.000000  -4.500000  2.000000  0
13.500000  -4.000000  2.000000  0
-11.000000  -4.500000  2.000000  0
-10.500000  -4.000000  2.000000  0
14.000000  -4.500000  1.000000  0
13.500000  -4.000000  1.000000  0
-10.500000  -4.000000  1.000000  0
15.000000  -4.500000  0.000000  0
14.000000  -4.500000  0.000000  0
13.500000  -4.000000  0.000000  0
-10.500000  -4.000000  0.000000  0
14.000000  -4.500000  -1.000000  0
13.500000  -4.000000  -1.000000  0
-8.000000  -4.500000  -1.000000  0
-7.500000  -4.000000  -1.000000  0
-8.000000  -4.000000  -0.500000  0
-8.500000  -4.000000  -1.000000  0
-11.000000  -4.500000  -1.000000  0
-11.000000  -4.000000  -0.500000  0
-11.500000  -4.000000  -1.000000  0
13.000000  -4.500000  -2.000000  0
13.000000  -4.000000  -1.500000  0
12.500000  -4.000000  -2.000000  0
-8.000000  -4.000000  -1.500000  0
-11.000000  -4.500000  -2.000000  0
-10.500000  -4.000000  -2.000000  0
-11.000000  -4.000000  -1.500000  0
-12.000000  -4.500000  -2.000000  0
16.000000  -4.500000  -3.000000  0
15.000000  -4.500000  -3.000000  0
14.500000  -4.000000  -3.000000  0
14.000000  -4.000000  -2.500000  0
13.000000  -4.000000  -2.500000  0
-11.000000  -4.000000  -2.500000  0
-12.000000  -4.500000  -3.000000  0
-11.500000  -4.000000  -3.000000  0
16.500000  -4.000000  -4.000000  0
16.000000  -4.000000  -3.500000  0
15.000000  -4.000000  -3.500000  0
-12.000000  -4.000000  -3.500000  0
-12.500000  -4.000000  -4.000000  0
16.000000  -4.500000  -5.000000  0
16.000000  -4.000000  -4.500000  0
15.500000  -4.000000  -5.000000  0
4.000000  -4.500000  -5.000000  0
4.500000  -4.000000  -5.000000  0
4.000000  -4.000000  -4.500000  0
3.000000  -4.500000  -5.000000  0
3.000000  -4.000000  -4.500000  0
2.000000  -4.500000  -5.000000  0
2.000000  -4.000000  -4.500000  0
1.000000  -4.500000  -5.000000  0
1.000000  -4.000000  -4.500000  0
0.000000  -4.500000  -5.000000  0
0.000000  -4.000000  -4.500000  0
-1.000000  -4.500000  -5.000000  0
-1.000000  -4.000000  -4.500000  0
-1.500000  -4.000000  -5.000000  0
-9.500000  -4.000000  -5.000000  0
-10.000000  -4.000000  -4.500000  0
-11.000000  -4.000000  -4.500000  0
-12.000000  -4.000000  -4.500000  0
15.000000  -4.000000  -5.500000  0
14.500000  -4.000000  -6.000000  0
8.000000  -4.500000  -6.000000  0
8.500000  -4.000000  -6.000000  0
8.000000  -4.000000  -5.500000  0
7.000000  -4.500000  -6.000000  0
7.000000  -4.000000  -5.500000  0
6.000000  -4.500000  -6.000000  0
6.500000  -4.000000  -6.000000  0
5.500000  -4.000000  -6.000000  0
5.000000  -4.000000  -5.500000  0
1.000000  -4.500000  -6.000000  0
0.000000  -4.500000  -6.000000  0
-1.000000  -4.500000  -6.000000  0
-1.500000  -4.000000  -6.000000  0
-4.000000  -4.500000  -6.000000  0
-3.500000  -4.000000  -6.000000  0
-4.000000  -4.000000  -5.500000  0
-5.000000  -4.500000  -6.000000  0
-5.000000  -4.000000  -5.500000  0
-5.500000  -4.000000  -6.000000  0
-9.500000  -4.000000  -6.000000  0
14.000000  -4.500000  -7.000000  0
14.000000  -4.000000  -6.500000  0
13.000000  -4.500000  -7.000000  0
13.000000  -4.000000  -6.500000  0
12.000000  -4.500000  -7.000000  0
12.000000  -4.000000  -6.500000  0
11.000000  -4.500000  -7.000000  0
11.000000  -4.000000  -6.500000  0
10.500000  -4.000000  -7.000000  0
8.000000  -4.500000  -7.000000  0
8.500000  -4.000000  -7.000000  0
6.000000  -4.000000  -6.500000  0
-1.500000  -4.000000  -7.000000  0
-4.000000  -4.500000  -7.000000  0
-3.500000  -4.000000  -7.000000  0
-5.000000  -4.500000  -7.000000  0
-6.000000  -4.500000  -7.000000  0
-6.000000  -4.000000  -6.500000  0
-7.000000  -4.500000  -7.000000  0
-7.000000  -4.000000  -6.500000  0
-8.000000  -4.500000  -7.000000  0
-7.500000  -4.000000  -7.000000  0
-8.500000  -4.000000  -7.000000  0
-9.000000  -4.000000  -6.500000  0
10.000000  -4.500000  -8.000000  0
10.000000  -4.000000  -7.500000  0
9.000000  -4.000000  -7.500000  0
-1.500000  -4.000000  -8.000000  0
-4.000000  -4.500000  -8.000000  0
-3.500000  -4.000000  -8.000000  0
-5.000000  -4.500000  -8.000000  0
-8.000000  -4.000000  -7.500000  0
-2.000000  -4.000000  -8.500000  0
-3.000000  -4.000000  -8.500000  0
4.000000  -3.500000  11.000000  0
10.000000  -3.500000  10.000000  0
9.500000  -3.000000  10.000000  0
9.000000  -3.000000  10.500000  0
8.000000  -3.000000  10.500000  0
7.000000  -3.000000  10.500000  0
6.000000  -3.000000  10.500000  0
5.000000  -3.000000  10.500000  0
4.000000  -3.500000  10.000000  0
4.500000  -3.000000  10.000000  0
3.000000  -3.500000  10.000000  0
2.000000  -3.500000  10.000000  0
-1.000000  -3.500000  10.000000  0
-2.000000  -3.500000  10.000000  0
-3.000000  -3.500000  10.000000  0
-4.000000  -3.500000  10.000000  0
11.500000  -3.000000  9.000000  0
11.000000  -3.000000  9.500000  0
10.000000  -3.000000  9.500000  0
4.000000  -3.000000  9.500000  0
3.000000  -3.000000  9.500000  0
2.000000  -3.000000  9.500000  0
1.000000  -3.500000  9.000000  0
1.500000  -3.000000  9.000000  0
0.000000  -3.500000  9.000000  0
-1.000000  -3.500000  9.000000  0
-2.000000  -3.500000  9.000000  0
-3.000000  -3.500000  9.000000  0
-4.000000  -3.500000  9.000000  0
14.000000  -3.500000  8.000000  0
11.500000  -3.000000  8.000000  0
1.000000  -3.000000  8.500000  0
0.000000  -3.000000  8.500000  0
-1.000000  -3.000000  8.500000  0
-2.000000  -3.000000  8.500000  0
-3.000000  -3.000000  8.500000  0
-4.000000  -3.000000  8.500000  0
-5.000000  -3.000000  8.500000  0
-6.000000  -3.000000  8.500000  0
-6.500000  -3.000000  8.000000  0
14.000000  -3.500000  7.000000  0
13.500000  -3.000000  7.000000  0
13.000000  -3.000000  7.500000  0
12.000000  -3.000000  7.500000  0
-7.000000  -3.000000  7.500000  0
-8.000000  -3.000000  7.500000  0
-9.000000  -3.000000  7.500000  0
-10.000000  -3.500000  7.000000  0
-9.500000  -3.000000  7.000000  0
13.000000  -3.500000  6.000000  0
13.000000  -3.000000  6.500000  0
12.500000  -3.000000  6.000000  0
-10.000000  -3.500000  6.000000  0
-9.500000  -3.000000  6.000000  0
13.000000  -3.500000  5.000000  0
12.500000  -3.000000  5.000000  0
-10.000000  -3.500000  5.000000  0
-9.500000  -3.000000  5.000000  0
13.000000  -3.500000  4.000000  0
12.500000  -3.000000  4.000000  0
-10.000000  -3.500000  4.000000  0
-9.500000  -3.000000  4.000000  0
13.000000  -3.500000  3.000000  0
12.500000  -3.000000  3.000000  0
-10.000000  -3.500000  3.000000  0
-9.500000  -3.000000  3.000000  0
13.000000  -3.500000  2.000000  0
12.500000  -3.000000  2.000000  0
-10.000000  -3.500000  2.000000  0
-9.500000  -3.000000  2.000000  0
13.000000  -3.500000  1.000000  0
12.000000  -3.500000  1.000000  0
12.000000  -3.000000  1.500000  0
11.500000  -3.000000  1.000000  0
-10.000000  -3.000000  1.500000  0
-10.500000  -3.000000  1.000000  0
13.000000  -3.500000  0.000000  0
12.000000  -3.500000  0.000000  0
11.000000  -3.500000  0.000000  0
11.000000  -3.000000  0.500000  0
10.500000  -3.000000  0.000000  0
-8.000000  -3.500000  0.000000  0
-7.500000  -3.000000  0.000000  0
-8.000000  -3.000000  0.500000  0
-9.000000  -3.500000  0.000000  0
-9.000000  -3.000000  0.500000  0
-9.500000  -3.000000  0.000000  0
-11.000000  -3.500000  0.000000  0
-11.000000  -3.000000  0.500000  0
-11.500000  -3.000000  0.000000  0
13.000000  -3.500000  -1.000000  0
12.000000  -3.500000  -1.000000  0
11.000000  -3.500000  -1.000000  0
10.500000  -3.000000  -1.000000  0
-7.500000  -3.000000  -1.000000  0
-9.000000  -3.500000  -1.000000  0
-9.500000  -3.000000  -1.000000  0
-11.500000  -3.000000  -1.000000  0
14.000000  -3.500000  -2.000000  0
14.500000  -3.000000  -2.000000  0
14.000000  -3.000000  -1.500000  0
13.500000  -3.000000  -2.000000  0
12.500000  -3.000000  -2.000000  0
12.000000  -3.000000  -1.500000  0
11.000000  -3.000000  -1.500000  0
-4.000000  -3.500000  -2.000000  0
-3.500000  -3.000000  -2.000000  0
-4.000000  -3.000000  -1.500000  0
-5.000000  -3.500000  -2.000000  0
-5.000000  -3.000000  -1.500000  0
-6.000000  -3.500000  -2.000000  0
-6.000000  -3.000000  -1.500000  0
-7.000000  -3.500000  -2.000000  0
-7.000000  -3.000000  -1.500000  0
-8.000000  -3.500000  -2.000000  0
-9.000000  -3.500000  -2.000000  0
-10.000000  -3.500000  -2.000000  0
-10.000000  -3.000000  -1.500000  0
-11.000000  -3.000000  -1.500000  0
15.000000  -3.500000  -3.000000  0
15.500000  -3.000000  -3.000000  0
15.000000  -3.000000  -2.500000  0
13.000000  -3.000000  -2.500000  0
3.000000  -3.500000  -3.000000  0
3.500000  -3.000000  -3.000000  0
3.000000  -3.000000  -2.500000  0
2.000000  -3.500000  -3.000000  0
2.000000  -3.000000  -2.500000  0
1.500000  -3.000000  -3.000000  0
-4.000000  -3.500000  -3.000000  0
-3.500000  -3.000000  -3.000000  0
-5.000000  -3.500000  -3.000000  0
-6.000000  -3.500000  -3.000000  0
-7.000000  -3.500000  -3.000000  0
-8.000000  -3.500000  -3.000000  0
-9.000000  -3.500000  -3.000000  0
-10.000000  -3.500000  -3.000000  0
-11.000000  -3.500000  -3.000000  0
16.000000  -3.500000  -4.000000  0
15.000000  -3.500000  -4.000000  0
15.000000  -3.000000  -3.500000  0
14.500000  -3.000000  -4.000000  0
3.000000  -3.500000  -4.000000  0
3.500000  -3.000000  -4.000000  0
2.000000  -3.500000  -4.000000  0
1.000000  -3.500000  -4.000000  0
1.000000  -3.000000  -3.500000  0
0.000000  -3.500000  -4.000000  0
0.000000  -3.000000  -3.500000  0
-0.500000  -3.000000  -4.000000  0
-4.000000  -3.000000  -3.500000  0
-5.000000  -3.500000  -4.000000  0
-4.500000  -3.000000  -4.000000  0
-6.000000  -3.500000  -4.000000  0
-7.000000  -3.500000  -4.000000  0
-8.000000  -3.500000  -4.000000  0
-9.000000  -3.500000  -4.000000  0
-10.000000  -3.500000  -4.000000  0
-11.000000  -3.500000  -4.000000  0
-12.000000  -3.500000  -4.000000  0
15.000000  -3.500000  -5.000000  0
14.500000  -3.000000  -5.000000  0
4.500000  -3.000000  -5.000000  0
4.000000  -3.000000  -4.500000  0
-1.000000  -3.000000  -4.500000  0
-1.500000  -3.000000  -5.000000  0
-5.000000  -3.000000  -4.500000  0
-6.000000  -3.500000  -5.000000  0
-5.500000  -3.000000  -5.000000  0
-7.000000  -3.500000  -5.000000  0
-8.000000  -3.500000  -5.000000  0
-9.000000  -3.500000  -5.000000  0
14.000000  -3.500000  -6.000000  0
14.000000  -3.000000  -5.500000  0
13.000000  -3.500000  -6.000000  0
13.000000  -3.000000  -5.500000  0
12.000000  -3.500000  -6.000000  0
12.000000  -3.000000  -5.500000  0
11.500000  -3.000000  -6.000000  0
8.000000  -3.500000  -6.000000  0
7.500000  -3.000000  -6.000000  0
7.000000  -3.000000  -5.500000  0
6.000000  -3.500000  -6.000000  0
6.000000  -3.000000  -5.500000  0
5.000000  -3.000000  -5.500000  0
-2.000000  -3.500000  -6.000000  0
-2.000000  -3.000000  -5.500000  0
-3.000000  -3.500000  -6.000000  0
-3.000000  -3.000000  -5.500000  0
-4.000000  -3.000000  -5.500000  0
-5.000000  -3.000000  -5.500000  0
-5.500000  -3.000000  -6.000000  0
-6.000000  -3.000000  -5.500000  0
-7.000000  -3.000000  -5.500000  0
-8.000000  -3.000000  -5.500000  0
-9.000000  -3.500000  -6.000000  0
-8.500000  -3.000000  -6.000000  0
11.000000  -3.000000  -6.500000  0
10.000000  -3.500000  -7.000000  0
10.000000  -3.000000  -6.500000  0
9.000000  -3.500000  -7.000000  0
9.000000  -3.000000  -6.500000  0
8.000000  -3.000000  -6.500000  0
-2.000000  -3.500000  -7.000000  0
-3.000000  -3.500000  -7.000000  0
-6.000000  -3.000000  -6.500000  0
-7.000000  -3.000000  -6.500000  0
-8.000000  -3.500000  -7.000000  0
-8.000000  -3.000000  -6.500000  0
-2.000000  -3.500000  -8.000000  0
-3.000000  -3.500000  -8.000000  0
9.000000  -2.500000  10.000000  0
8.500000  -2.000000  10.000000  0
8.000000  -2.000000  10.500000  0
7.000000  -2.000000  10.500000  0
6.000000  -2.000000  10.500000  0
5.000000  -2.500000  10.000000  0
5.500000  -2.000000  10.000000  0
11.000000  -2.500000  9.000000  0
10.000000  -2.500000  9.000000  0
9.000000  -2.500000  9.000000  0
8.500000  -2.000000  9.000000  0
5.000000  -2.500000  9.000000  0
5.500000  -2.000000  9.000000  0
4.000000  -2.500000  9.000000  0
3.000000  -2.500000  9.000000  0
2.000000  -2.500000  9.000000  0
11.000000  -2.500000  8.000000  0
10.000000  -2.500000  8.000000  0
9.500000  -2.000000  8.000000  0
9.000000  -2.000000  8.500000  0
5.000000  -2.500000  8.000000  0
5.500000  -2.000000  8.000000  0
4.000000  -2.500000  8.000000  0
3.000000  -2.500000  8.000000  0
2.000000  -2.500000  8.000000  0
1.000000  -2.500000  8.000000  0
0.000000  -2.500000  8.000000  0
-1.000000  -2.500000  8.000000  0
-2.000000  -2.500000  8.000000  0
-3.000000  -2.500000  8.000000  0
-3.500000  -2.000000  8.000000  0
-4.000000  -2.000000  8.500000  0
-5.000000  -2.000000  8.500000  0
-6.000000  -2.500000  8.000000  0
-5.500000  -2.000000  8.000000  0
13.000000  -2.500000  7.000000  0
12.000000  -2.500000  7.000000  0
11.000000  -2.500000  7.000000  0
10.000000  -2.500000  7.000000  0
9.500000  -2.000000  7.000000  0
5.000000  -2.000000  7.500000  0
4.000000  -2.000000  7.500000  0
3.000000  -2.000000  7.500000  0
2.000000  -2.000000  7.500000  0
1.000000  -2.000000  7.500000  0
0.000000  -2.500000  7.000000  0
0.500000  -2.000000  7.000000  0
-1.000000  -2.500000  7.000000  0
-1.500000  -2.000000  7.000000  0
-2.000000  -2.000000  7.500000  0
-3.000000  -2.000000  7.500000  0
-6.000000  -2.000000  7.500000  0
-7.000000  -2.500000  7.000000  0
-6.500000  -2.000000  7.000000  0
-8.000000  -2.500000  7.000000  0
-9.000000  -2.500000  7.000000  0
12.000000  -2.500000  6.000000  0
11.000000  -2.500000  6.000000  0
10.500000  -2.000000  6.000000  0
10.000000  -2.000000  6.500000  0
0.000000  -2.000000  6.500000  0
-1.000000  -2.000000  6.500000  0
-7.000000  -2.000000  6.500000  0
-8.000000  -2.500000  6.000000  0
-7.500000  -2.000000  6.000000  0
-9.000000  -2.500000  6.000000  0
12.000000  -2.500000  5.000000  0
11.500000  -2.000000  5.000000  0
11.000000  -2.000000  5.500000  0
-8.000000  -2.500000  5.000000  0
-7.500000  -2.000000  5.000000  0
-9.000000  -2.500000  5.000000  0
12.000000  -2.500000  4.000000  0
11.000000  -2.500000  4.000000  0
11.000000  -2.000000  4.500000  0
10.500000  -2.000000  4.000000  0
-8.000000  -2.000000  4.500000  0
-9.000000  -2.500000  4.000000  0
-8.500000  -2.000000  4.000000  0
12.000000  -2.500000  3.000000  0
11.000000  -2.500000  3.000000  0
10.500000  -2.000000  3.000000  0
-9.000000  -2.500000  3.000000  0
-8.500000  -2.000000  3.000000  0
12.000000  -2.500000  2.000000  0
11.000000  -2.500000  2.000000  0
10.500000  -2.000000  2.000000  0
-9.000000  -2.500000  2.000000  0
-8.500000  -2.000000  2.000000  0
11.500000  -2.000000  1.000000  0
11.000000  -2.000000  1.500000  0
-9.000000  -2.500000  1.000000  0
-8.500000  -2.000000  1.000000  0
-10.000000  -2.500000  1.000000  0
11.000000  -2.000000  0.500000  0
10.000000  -2.500000  0.000000  0
10.000000  -2.000000  0.500000  0
9.500000  -2.000000  0.000000  0
3.000000  -2.500000  0.000000  0
3.500000  -2.000000  0.000000  0
3.000000  -2.000000  0.500000  0
2.000000  -2.500000  0.000000  0
2.000000  -2.000000  0.500000  0
1.500000  -2.000000  0.000000  0
-7.500000  -2.000000  0.000000  0
-8.000000  -2.000000  0.500000  0
-10.000000  -2.500000  0.000000  0
-11.000000  -2.500000  0.000000  0
10.000000  -2.500000  -1.000000  0
9.000000  -2.500000  -1.000000  0
9.000000  -2.000000  -0.500000  0
8.500000  -2.000000  -1.000000  0
3.000000  -2.500000  -1.000000  0
3.500000  -2.000000  -1.000000  0
2.000000  -2.500000  -1.000000  0
1.000000  -2.500000  -1.000000  0
1.000000  -2.000000  -0.500000  0
0.500000  -2.000000  -1.000000  0
-5.000000  -2.500000  -1.000000  0
-4.500000  -2.000000  -1.000000  0
-5.000000  -2.000000  -0.500000  0
-6.000000  -2.500000  -1.000000  0
-6.000000  -2.000000  -0.500000  0
-7.000000  -2.500000  -1.000000  0
-7.000000  -2.000000  -0.500000  0
-10.000000  -2.500000  -1.000000  0
-11.000000  -2.500000  -1.000000  0
14.000000  -2.500000  -2.000000  0
12.000000  -2.500000  -2.000000  0
11.000000  -2.500000  -2.000000  0
10.500000  -2.000000  -2.000000  0
10.000000  -2.000000  -1.500000  0
9.000000  -2.500000  -2.000000  0
9.500000  -2.000000  -2.000000  0
8.000000  -2.500000  -2.000000  0
8.000000  -2.000000  -1.500000  0
7.000000  -2.500000  -2.000000  0
7.000000  -2.000000  -1.500000  0
6.000000  -2.500000  -2.000000  0
6.000000  -2.000000  -1.500000  0
5.000000  -2.500000  -2.000000  0
5.000000  -2.000000  -1.500000  0
4.000000  -2.500000  -2.000000  0
4.000000  -2.000000  -1.500000  0
3.000000  -2.500000  -2.000000  0
2.000000  -2.500000  -2.000000  0
1.000000  -2.500000  -2.000000  0
0.000000  -2.500000  -2.000000  0
0.000000  -2.000000  -1.500000  0
-1.000000  -2.500000  -2.000000  0
-1.000000  -2.000000  -1.500000  0
-2.000000  -2.500000  -2.000000  0
-2.000000  -2.000000  -1.500000  0
-3.000000  -2.500000  -2.000000  0
-3.000000  -2.000000  -1.500000  0
-4.000000  -2.000000  -1.500000  0
15.000000  -2.500000  -3.000000  0
14.000000  -2.500000  -3.000000  0
13.000000  -2.500000  -3.000000  0
12.000000  -2.500000  -3.000000  0
11.500000  -2.000000  -3.000000  0
11.000000  -2.000000  -2.500000  0
9.000000  -2.000000  -2.500000  0
8.000000  -2.500000  -3.000000  0
8.500000  -2.000000  -3.000000  0
7.000000  -2.500000  -3.000000  0
6.000000  -2.500000  -3.000000  0
5.000000  -2.500000  -3.000000  0
4.000000  -2.500000  -3.000000  0
1.000000  -2.500000  -3.000000  0
0.000000  -2.500000  -3.000000  0
-1.000000  -2.500000  -3.000000  0
-2.000000  -2.500000  -3.000000  0
-3.000000  -2.500000  -3.000000  0
14.000000  -2.500000  -4.000000  0
13.000000  -2.500000  -4.000000  0
12.500000  -2.000000  -4.000000  0
12.000000  -2.000000  -3.500000  0
8.000000  -2.000000  -3.500000  0
7.000000  -2.500000  -4.000000  0
7.500000  -2.000000  -4.000000  0
6.000000  -2.500000  -4.000000  0
5.000000  -2.500000  -4.000000  0
4.000000  -2.500000  -4.000000  0
-1.000000  -2.500000  -4.000000  0
-2.000000  -2.500000  -4.000000  0
-3.000000  -2.500000  -4.000000  0
-4.000000  -2.500000  -4.000000  0
14.000000  -2.500000  -5.000000  0
13.500000  -2.000000  -5.000000  0
13.000000  -2.000000  -4.500000  0
12.000000  -2.500000  -5.000000  0
12.500000  -2.000000  -5.000000  0
12.000000  -2.000000  -4.500000  0
11.500000  -2.000000  -5.000000  0
7.000000  -2.500000  -5.000000  0
7.500000  -2.000000  -5.000000  0
6.000000  -2.500000  -5.000000  0
5.000000  -2.500000  -5.000000  0
-2.000000  -2.500000  -5.000000  0
-3.000000  -2.500000  -5.000000  0
-4.000000  -2.500000  -5.000000  0
-5.000000  -2.500000  -5.000000  0
13.000000  -2.000000  -5.500000  0
11.000000  -2.500000  -6.000000  0
11.000000  -2.000000  -5.500000  0
10.000000  -2.500000  -6.000000  0
10.000000  -2.000000  -5.500000  0
9.500000  -2.000000  -6.000000  0
7.500000  -2.000000  -6.000000  0
-6.000000  -2.500000  -6.000000  0
-7.000000  -2.500000  -6.000000  0
-8.000000  -2.500000  -6.000000  0
9.000000  -2.000000  -6.500000  0
8.000000  -2.000000  -6.500000  0
8.000000  -1.500000  10.000000  0
7.000000  -1.500000  10.000000  0
6.000000  -1.500000  10.000000  0
8.000000  -1.500000  9.000000  0
7.000000  -1.500000  9.000000  0
6.000000  -1.500000  9.000000  0
9.000000  -1.500000  8.000000  0
8.000000  -1.500000  8.000000  0
7.000000  -1.500000  8.000000  0
6.000000  -1.500000  8.000000  0
-4.000000  -1.500000  8.000000  0
-5.000000  -1.500000  8.000000  0
9.000000  -1.500000  7.000000  0
8.000000  -1.500000  7.000000  0
7.000000  -1.500000  7.000000  0
6.000000  -1.500000  7.000000  0
5.000000  -1.500000  7.000000  0
4.000000  -1.500000  7.000000  0
3.000000  -1.500000  7.000000  0
2.000000  -1.500000  7.000000  0
1.000000  -1.500000  7.000000  0
-2.000000  -1.500000  7.000000  0
-3.000000  -1.500000  7.000000  0
-4.000000  -1.500000  7.000000  0
-5.000000  -1.500000  7.000000  0
-6.000000  -1.500000  7.000000  0
10.000000  -1.500000  6.000000  0
9.000000  -1.500000  6.000000  0
8.000000  -1.500000  6.000000  0
7.000000  -1.500000  6.000000  0
6.000000  -1.500000  6.000000  0
5.000000  -1.500000  6.000000  0
4.000000  -1.500000  6.000000  0
3.000000  -1.500000  6.000000  0
2.000000  -1.500000  6.000000  0
1.000000  -1.500000  6.000000  0
0.000000  -1.500000  6.000000  0
-1.000000  -1.500000  6.000000  0
-2.000000  -1.500000  6.000000  0
-3.000000  -1.500000  6.000000  0
-4.000000  -1.500000  6.000000  0
-5.000000  -1.500000  6.000000  0
-6.000000  -1.500000  6.000000  0
-7.000000  -1.500000  6.000000  0
11.500000  -1.000000  5.000000  0
11.000000  -1.000000  5.500000  0
10.000000  -1.000000  5.500000  0
9.000000  -1.000000  5.500000  0
8.000000  -1.000000  5.500000  0
7.000000  -1.000000  5.500000  0
6.000000  -1.000000  5.500000  0
5.000000  -1.500000  5.000000  0
5.500000  -1.000000  5.000000  0
4.000000  -1.500000  5.000000  0
3.000000  -1.500000  5.000000  0
2.000000  -1.500000  5.000000  0
1.000000  -1.500000  5.000000  0
0.000000  -1.500000  5.000000  0
-1.000000  -1.500000  5.000000  0
-2.000000  -1.500000  5.000000  0
-3.000000  -1.500000  5.000000  0
-4.000000  -1.500000  5.000000  0
-5.000000  -1.500000  5.000000  0
-6.000000  -1.500000  5.000000  0
-7.000000  -1.500000  5.000000  0
11.000000  -1.000000  4.500000  0
10.500000  -1.000000  4.000000  0
9.000000  -1.500000  4.000000  0
9.500000  -1.000000  4.000000  0
9.000000  -1.000000  4.500000  0
8.500000  -1.000000  4.000000  0
5.000000  -1.500000  4.000000  0
5.500000  -1.000000  4.000000  0
4.000000  -1.500000  4.000000  0
3.000000  -1.500000  4.000000  0
2.000000  -1.500000  4.000000  0
1.000000  -1.500000  4.000000  0
0.000000  -1.500000  4.000000  0
-1.000000  -1.500000  4.000000  0
-2.000000  -1.500000  4.000000  0
-3.000000  -1.500000  4.000000  0
-4.000000  -1.500000  4.000000  0
-5.000000  -1.500000  4.000000  0
-6.000000  -1.500000  4.000000  0
-7.000000  -1.500000  4.000000  0
-8.000000  -1.500000  4.000000  0
10.000000  -1.500000  3.000000  0
10.000000  -1.000000  3.500000  0
9.000000  -1.500000  3.000000  0
8.000000  -1.500000  3.000000  0
8.000000  -1.000000  3.500000  0
7.500000  -1.000000  3.000000  0
5.000000  -1.500000  3.000000  0
5.500000  -1.000000  3.000000  0
4.000000  -1.500000  3.000000  0
3.000000  -1.500000  3.000000  0
2.000000  -1.500000  3.000000  0
1.500000  -1.000000  3.000000  0
1.000000  -1.000000  3.500000  0
0.000000  -1.500000  3.000000  0
0.500000  -1.000000  3.000000  0
-1.000000  -1.500000  3.000000  0
-2.000000  -1.500000  3.000000  0
-3.000000  -1.500000  3.000000  0
-4.000000  -1.500000  3.000000  0
-5.000000  -1.500000  3.000000  0
-6.000000  -1.500000  3.000000  0
-7.000000  -1.500000  3.000000  0
-8.000000  -1.500000  3.000000  0
10.000000  -1.500000  2.000000  0
9.000000  -1.500000  2.000000  0
8.000000  -1.500000  2.000000  0
7.000000  -1.500000  2.000000  0
7.000000  -1.000000  2.500000  0
6.000000  -1.500000  2.000000  0
6.000000  -1.000000  2.500000  0
5.000000  -1.500000  2.000000  0
4.000000  -1.500000  2.000000  0
3.000000  -1.500000  2.000000  0
2.000000  -1.500000  2.000000  0
1.500000  -1.000000  2.000000  0
0.000000  -1.500000  2.000000  0
0.500000  -1.000000  2.000000  0
-1.000000  -1.500000  2.000000  0
-1.500000  -1.000000  2.000000  0
-2.000000  -1.000000  2.500000  0
-3.000000  -1.500000  2.000000  0
-2.500000  -1.000000  2.000000  0
-4.000000  -1.500000  2.000000  0
-5.000000  -1.500000  2.000000  0
-6.000000  -1.500000  2.000000  0
-7.000000  -1.500000  2.000000  0
-8.000000  -1.500000  2.000000  0
11.000000  -1.500000  1.000000  0
10.000000  -1.500000  1.000000  0
9.000000  -1.500000  1.000000  0
8.000000  -1.500000  1.000000  0
7.000000  -1.500000  1.000000  0
6.000000  -1.500000  1.000000  0
5.000000  -1.500000  1.000000  0
4.000000  -1.500000  1.000000  0
3.000000  -1.500000  1.000000  0
2.000000  -1.500000  1.000000  0
1.500000  -1.000000  1.000000  0
0.000000  -1.500000  1.000000  0
0.500000  -1.000000  1.000000  0
-1.000000  -1.500000  1.000000  0
-1.500000  -1.000000  1.000000  0
-3.000000  -1.500000  1.000000  0
-2.500000  -1.000000  1.000000  0
-4.000000  -1.500000  1.000000  0
-5.000000  -1.500000  1.000000  0
-6.000000  -1.500000  1.000000  0
-7.000000  -1.500000  1.000000  0
-8.000000  -1.500000  1.000000  0
9.000000  -1.500000  0.000000  0
8.000000  -1.500000  0.000000  0
7.000000  -1.500000  0.000000  0
6.000000  -1.500000  0.000000  0
5.000000  -1.500000  0.000000  0
4.000000  -1.500000  0.000000  0
1.000000  -1.500000  0.000000  0
1.000000  -1.000000  0.500000  0
0.500000  -1.000000  0.000000  0
0.000000  -1.000000  0.500000  0
-1.000000  -1.000000  0.500000  0
-3.000000  -1.000000  0.500000  0
-4.000000  -1.500000  0.000000  0
-3.500000  -1.000000  0.000000  0
-5.000000  -1.500000  0.000000  0
-6.000000  -1.500000  0.000000  0
-7.000000  -1.500000  0.000000  0
8.000000  -1.500000  -1.000000  0
7.000000  -1.500000  -1.000000  0
6.000000  -1.500000  -1.000000  0
5.000000  -1.500000  -1.000000  0
4.000000  -1.500000  -1.000000  0
0.000000  -1.500000  -1.000000  0
0.000000  -1.000000  -0.500000  0
-0.500000  -1.000000  -1.000000  0
-4.000000  -1.500000  -1.000000  0
-3.500000  -1.000000  -1.000000  0
10.000000  -1.500000  -2.000000  0
-1.000000  -1.000000  -1.500000  0
-2.000000  -1.000000  -1.500000  0
-3.000000  -1.000000  -1.500000  0
11.500000  -1.000000  -3.000000  0
11.000000  -1.000000  -2.500000  0
10.000000  -1.000000  -2.500000  0
9.000000  -1.000000  -2.500000  0
8.000000  -1.500000  -3.000000  0
8.000000  -1.000000  -2.500000  0
7.500000  -1.000000  -3.000000  0
12.000000  -1.500000  -4.000000  0
11.500000  -1.000000  -4.000000  0
7.500000  -1.000000  -4.000000  0
13.000000  -1.500000  -5.000000  0
11.500000  -1.000000  -5.000000  0
7.500000  -1.000000  -5.000000  0
11.000000  -1.000000  -5.500000  0
10.000000  -1.000000  -5.500000  0
9.000000  -1.500000  -6.000000  0
9.000000  -1.000000  -5.500000  0
8.000000  -1.500000  -6.000000  0
8.000000  -1.000000  -5.500000  0
11.000000  -0.500000  5.000000  0
10.000000  -0.500000  5.000000  0
9.000000  -0.500000  5.000000  0
8.000000  -0.500000  5.000000  0
7.000000  -0.500000  5.000000  0
6.000000  -0.500000  5.000000  0
10.000000  -0.500000  4.000000  0
8.500000  0.000000  4.000000  0
8.000000  0.000000  4.500000  0
7.000000  0.000000  4.500000  0
6.000000  0.000000  4.500000  0
5.500000  0.000000  4.000000  0
8.000000  0.000000  3.500000  0
7.500000  0.000000  3.000000  0
5.500000  0.000000  3.000000  0
1.000000  -0.500000  3.000000  0
7.000000  0.000000  2.500000  0
6.000000  0.000000  2.500000  0
1.000000  -0.500000  2.000000  0
-2.000000  -0.500000  2.000000  0
1.000000  -0.500000  1.000000  0
-2.000000  -0.500000  1.000000  0
0.000000  -0.500000  0.000000  0
-1.000000  -0.500000  0.000000  0
-2.000000  -0.500000  0.000000  0
-3.000000  -0.500000  0.000000  0
-1.000000  -0.500000  -1.000000  0
-2.000000  -0.500000  -1.000000  0
-3.000000  -0.500000  -1.000000  0
11.000000  -0.500000  -3.000000  0
10.000000  -0.500000  -3.000000  0
9.000000  -0.500000  -3.000000  0
8.000000  -0.500000  -3.000000  0
11.000000  -0.500000  -4.000000  0
10.000000  -0.500000  -4.000000  0
9.000000  -0.500000  -4.000000  0
8.000000  -0.500000  -4.000000  0
11.000000  -0.500000  -5.000000  0
10.000000  -0.500000  -5.000000  0
9.000000  -0.500000  -5.000000  0
8.000000  -0.500000  -5.000000  0
8.000000  0.500000  4.000000  0
7.000000  0.500000  4.000000  0
6.000000  0.500000  4.000000  0
7.000000  0.500000  3.000000  0
6.000000  0.500000  3.000000  0
2 0 1 0
2 3 0 0
4 3 2 0
4 5 3 0
6 5 4 0
7 5 6 0
0 9 1 0
8 9 0 0
10 0 3 0
8 0 10 0
11 3 5 0
10 3 11 0
7 11 5 0
12 11 7 0
9 8 13 0
8 10 14 0
13 8 14 0
15 13 14 0
14 10 11 0
16 14 11 0
17 16 11 0
11 12 17 0
15 14 18 0
14 16 18 0
21 19 20 0
21 22 19 0
23 22 21 0
24 22 23 0
19 26 20 0
25 26 19 0
27 19 22 0
25 19 27 0
24 27 22 0
28 27 24 0
25 30 26 0
29 30 25 0
31 25 27 0
29 25 31 0
28 31 27 0
32 31 28 0
29 34 30 0
33 34 29 0
35 29 31 0
33 29 35 0
32 35 31 0
36 35 32 0
39 37 38 0
39 40 37 0
41 40 39 0
33 42 40 0
34 33 40 0
41 34 40 0
43 33 35 0
42 33 43 0
36 43 35 0
44 43 36 0
37 46 38 0
45 46 37 0
47 37 40 0
45 37 47 0
48 40 42 0
47 40 48 0
49 42 43 0
48 42 49 0
44 49 43 0
50 49 44 0
45 52 46 0
51 52 45 0
53 45 47 0
51 45 53 0
54 47 48 0
53 47 54 0
55 48 49 0
54 48 55 0
50 55 49 0
56 55 50 0
52 51 57 0
51 53 58 0
57 51 58 0
59 57 58 0
60 53 54 0
58 53 60 0
61 54 55 0
60 54 61 0
56 61 55 0
62 61 56 0
59 58 63 0
58 60 64 0
63 58 64 0
65 63 64 0
66 60 61 0
64 60 66 0
62 66 61 0
67 66 62 0
64 69 65 0
68 69 64 0
70 64 66 0
68 64 70 0
67 70 66 0
71 70 67 0
74 72 73 0
74 75 72 0
76 75 74 0
77 75 76 0
69 68 78 0
68 79 78 0
70 79 68 0
70 71 79 0
82 80 81 0
72 83 80 0
73 72 80 0
82 73 80 0
84 72 75 0
83 72 84 0
85 84 75 0
86 85 75 0
77 86 75 0
87 85 86 0
80 89 81 0
88 89 80 0
90 80 83 0
88 80 90 0
91 83 84 0
90 83 91 0
92 84 85 0
91 84 92 0
93 92 85 0
94 93 85 0
87 94 85 0
94 95 93 0
96 95 94 0
97 95 96 0
88 99 89 0
98 99 88 0
100 88 90 0
98 88 100 0
101 90 91 0
100 90 101 0
102 91 92 0
101 91 102 0
103 92 93 0
102 92 103 0
104 93 95 0
103 93 104 0
97 104 95 0
105 104 97 0
99 98 106 0
98 100 107 0
106 98 107 0
108 106 107 0
109 100 101 0
107 100 109 0
110 101 102 0
109 101 110 0
111 102 103 0
110 102 111 0
112 103 104 0
111 103 112 0
105 112 104 0
113 112 105 0
107 115 108 0
114 115 107 0
116 107 109 0
114 107 116 0
117 109 110 0
116 109 117 0
118 110 111 0
117 110 118 0
119 111 112 0
118 111 119 0
113 119 112 0
120 119 113 0
123 121 122 0
114 124 121 0
115 114 121 0
123 115 121 0
125 114 116 0
124 114 125 0
126 116 117 0
125 116 126 0
127 117 118 0
126 117 127 0
128 118 119 0
127 118 128 0
129 128 119 0
130 129 119 0
120 130 119 0
131 129 130 0
134 132 133 0
135 132 134 0
121 137 122 0
136 137 121 0
138 121 124 0
136 121 138 0
139 124 125 0
138 124 139 0
140 125 126 0
139 125 140 0
141 126 127 0
140 126 141 0
142 127 128 0
141 127 142 0
142 128 129 0
143 142 129 0
144 143 129 0
129 131 144 0
147 145 146 0
132 148 145 0
133 132 145 0
147 133 145 0
135 148 132 0
149 148 135 0
152 150 151 0
136 153 150 0
137 136 150 0
152 137 150 0
154 136 138 0
153 136 154 0
155 138 139 0
154 138 155 0
156 139 140 0
155 139 156 0
157 140 141 0
156 140 157 0
158 141 142 0
157 141 158 0
143 158 142 0
159 158 143 0
162 160 161 0
145 163 160 0
146 145 160 0
162 146 160 0
164 145 148 0
163 145 164 0
149 164 148 0
165 164 149 0
150 167 151 0
166 167 150 0
168 150 153 0
166 150 168 0
169 153 154 0
168 153 169 0
170 154 155 0
169 154 170 0
171 155 156 0
170 155 171 0
172 156 157 0
171 156 172 0
173 157 158 0
172 157 173 0
159 173 158 0
174 173 159 0
160 176 161 0
175 176 160 0
177 160 163 0
175 160 177 0
178 163 164 0
177 163 178 0
165 178 164 0
179 178 165 0
166 181 167 0
180 181 166 0
182 166 168 0
180 166 182 0
182 168 169 0
182 169 2 0
182 2 1 0
169 170 2 0
2 170 4 0
170 171 4 0
4 171 6 0
171 172 183 0
171 183 7 0
171 7 6 0
184 172 173 0
183 172 184 0
174 184 173 0
185 184 174 0
175 187 176 0
186 187 175 0
188 175 177 0
186 175 188 0
189 177 178 0
188 177 189 0
179 189 178 0
190 189 179 0
181 180 191 0
180 182 192 0
191 180 192 0
193 191 192 0
1 9 182 0
182 9 192 0
12 7 194 0
194 7 183 0
194 183 184 0
195 194 184 0
196 195 184 0
184 185 196 0
187 186 197 0
186 198 197 0
188 198 186 0
188 199 198 0
189 199 188 0
189 190 199 0
192 201 193 0
200 201 192 0
202 200 192 0
202 192 9 0
202 9 13 0
15 202 13 0
203 16 17 0
194 204 203 0
194 203 17 0
194 17 12 0
195 204 194 0
205 204 195 0
201 200 206 0
200 202 207 0
206 200 207 0
208 206 207 0
209 207 202 0
209 202 15 0
209 15 18 0
203 210 209 0
203 209 18 0
203 18 16 0
211 203 204 0
210 203 211 0
205 211 204 0
212 211 205 0
208 207 213 0
207 209 214 0
213 207 214 0
215 213 214 0
216 209 210 0
214 209 216 0
216 210 211 0
217 216 211 0
218 217 211 0
211 212 218 0
215 214 219 0
214 220 219 0
216 220 214 0
216 217 220 0
223 221 222 0
223 224 221 0
225 224 223 0
226 224 225 0
229 227 228 0
230 227 229 0
20 231 222 0
21 20 222 0
221 21 222 0
221 224 21 0
21 224 23 0
226 232 24 0
224 226 24 0
23 224 24 0
235 233 234 0
235 236 233 0
237 236 235 0
227 238 236 0
228 227 236 0
237 228 236 0
230 238 227 0
239 238 230 0
20 240 231 0
26 240 20 0
28 232 241 0
24 232 28 0
233 243 234 0
242 243 233 0
244 233 236 0
242 233 244 0
245 236 238 0
244 236 245 0
239 245 238 0
246 245 239 0
26 247 240 0
30 247 26 0
32 241 248 0
28 241 32 0
242 250 243 0
249 250 242 0
251 242 244 0
249 242 251 0
252 244 245 0
251 244 252 0
253 252 245 0
254 253 245 0
246 254 245 0
255 253 254 0
30 256 247 0
34 256 30 0
36 248 257 0
32 248 36 0
249 259 250 0
258 259 249 0
260 249 251 0
258 249 260 0
261 251 252 0
260 251 261 0
262 252 253 0
261 252 262 0
255 262 253 0
263 262 255 0
39 38 264 0
41 264 265 0
39 264 41 0
266 256 34 0
266 34 41 0
266 41 265 0
44 257 267 0
36 257 44 0
259 258 268 0
258 260 269 0
268 258 269 0
270 268 269 0
271 260 261 0
269 260 271 0
271 261 262 0
272 271 262 0
273 272 262 0
262 263 273 0
38 46 274 0
264 38 274 0
275 264 274 0
275 276 264 0
264 276 265 0
276 266 265 0
50 267 277 0
44 267 50 0
269 279 270 0
278 279 269 0
280 269 271 0
278 269 280 0
272 280 271 0
281 280 272 0
284 282 283 0
284 285 282 0
286 285 284 0
286 287 285 0
288 287 286 0
274 46 52 0
274 52 287 0
274 287 288 0
56 277 289 0
50 277 56 0
279 278 290 0
278 291 290 0
280 291 278 0
280 281 291 0
282 293 283 0
292 293 282 0
294 282 285 0
292 282 294 0
295 285 287 0
294 285 295 0
296 295 287 0
296 287 52 0
296 52 57 0
59 296 57 0
62 289 297 0
56 289 62 0
300 298 299 0
301 298 300 0
292 303 293 0
302 303 292 0
304 292 294 0
302 292 304 0
305 294 295 0
304 294 305 0
306 295 296 0
305 295 306 0
307 306 296 0
307 296 59 0
307 59 63 0
65 307 63 0
67 297 308 0
62 297 67 0
298 310 299 0
309 310 298 0
311 309 298 0
312 311 298 0
301 312 298 0
312 313 311 0
314 313 312 0
302 315 313 0
303 302 313 0
314 303 313 0
316 302 304 0
315 302 316 0
317 304 305 0
316 304 317 0
318 305 306 0
317 305 318 0
319 306 307 0
318 306 319 0
65 69 307 0
307 69 319 0
71 308 320 0
67 308 71 0
323 321 322 0
323 324 321 0
325 324 323 0
325 326 324 0
327 326 325 0
328 326 327 0
309 330 310 0
329 330 309 0
331 309 311 0
329 309 331 0
332 311 313 0
331 311 332 0
333 313 315 0
332 313 333 0
333 315 316 0
333 316 74 0
333 74 73 0
316 317 74 0
74 317 76 0
317 318 334 0
317 334 77 0
317 77 76 0
335 318 319 0
334 318 335 0
336 335 319 0
336 319 69 0
336 69 78 0
78 79 338 0
78 338 337 0
78 337 336 0
71 338 79 0
320 338 71 0
321 340 322 0
339 340 321 0
341 321 324 0
339 321 341 0
342 324 326 0
341 324 342 0
328 342 326 0
343 342 328 0
329 345 330 0
344 345 329 0
346 329 331 0
344 329 346 0
347 331 332 0
346 331 347 0
347 332 333 0
347 333 82 0
347 82 81 0
333 73 82 0
86 77 334 0
334 335 348 0
334 348 87 0
334 87 86 0
349 335 336 0
348 335 349 0
337 349 336 0
350 349 337 0
353 351 352 0
339 354 351 0
340 339 351 0
353 340 351 0
355 339 341 0
354 339 355 0
356 341 342 0
355 341 356 0
357 356 342 0
358 357 342 0
343 358 342 0
359 357 358 0
345 344 360 0
344 346 361 0
360 344 361 0
362 360 361 0
363 346 347 0
361 346 363 0
81 89 347 0
347 89 363 0
94 87 348 0
348 349 94 0
94 349 96 0
350 364 97 0
349 350 97 0
96 349 97 0
351 366 352 0
365 366 351 0
367 351 354 0
365 351 367 0
368 354 355 0
367 354 368 0
369 355 356 0
368 355 369 0
370 356 357 0
369 356 370 0
359 370 357 0
371 370 359 0
362 361 372 0
361 373 372 0
363 373 361 0
89 99 374 0
89 374 373 0
89 373 363 0
105 364 375 0
97 364 105 0
365 377 366 0
376 377 365 0
378 365 367 0
376 365 378 0
379 367 368 0
378 367 379 0
380 368 369 0
379 368 380 0
381 369 370 0
380 369 381 0
371 381 370 0
382 381 371 0
374 106 383 0
99 106 374 0
383 106 384 0
384 106 108 0
113 375 385 0
105 375 113 0
376 387 377 0
386 387 376 0
388 376 378 0
386 376 388 0
389 378 379 0
388 378 389 0
390 379 380 0
389 379 390 0
391 380 381 0
390 380 391 0
382 391 381 0
392 391 382 0
395 393 394 0
384 108 115 0
384 115 393 0
384 393 395 0
120 385 396 0
113 385 120 0
386 398 387 0
397 398 386 0
399 386 388 0
397 386 399 0
400 388 389 0
399 388 400 0
401 389 390 0
400 389 401 0
402 390 391 0
401 390 402 0
392 402 391 0
403 402 392 0
406 404 405 0
394 404 406 0
394 393 404 0
393 122 404 0
123 122 393 0
393 115 123 0
120 396 408 0
120 408 407 0
120 407 130 0
130 407 131 0
397 410 398 0
409 410 397 0
411 397 399 0
409 397 411 0
412 399 400 0
411 399 412 0
413 400 401 0
412 400 413 0
414 401 402 0
413 401 414 0
403 414 402 0
416 414 403 0
134 133 415 0
134 415 135 0
404 418 405 0
417 418 404 0
122 137 404 0
404 137 417 0
408 419 143 0
408 143 144 0
408 144 407 0
144 131 407 0
410 409 420 0
409 411 421 0
420 409 421 0
422 420 421 0
423 411 412 0
421 411 423 0
424 412 413 0
423 412 424 0
424 413 414 0
424 414 147 0
424 147 146 0
147 414 416 0
147 416 425 0
133 147 425 0
415 133 425 0
426 149 135 0
425 426 135 0
415 425 135 0
151 427 418 0
152 151 418 0
417 152 418 0
417 137 152 0
159 419 428 0
143 419 159 0
421 430 422 0
429 430 421 0
431 421 423 0
429 421 431 0
431 423 424 0
431 424 162 0
431 162 161 0
424 146 162 0
165 426 432 0
149 426 165 0
151 433 427 0
167 433 151 0
174 428 434 0
159 428 174 0
429 436 430 0
435 436 429 0
437 429 431 0
435 429 437 0
161 176 431 0
431 176 437 0
179 432 438 0
165 432 179 0
167 439 433 0
181 439 167 0
185 434 440 0
174 434 185 0
435 442 436 0
441 442 435 0
443 435 437 0
441 435 443 0
176 187 437 0
437 187 443 0
190 438 444 0
179 438 190 0
439 191 445 0
181 191 439 0
445 191 446 0
446 191 193 0
447 195 448 0
448 195 196 0
185 448 196 0
440 448 185 0
441 450 442 0
449 450 441 0
451 441 443 0
449 441 451 0
452 451 443 0
452 443 187 0
452 187 197 0
453 452 198 0
198 452 197 0
198 199 455 0
198 455 454 0
198 454 453 0
190 455 199 0
444 455 190 0
193 456 446 0
201 456 193 0
205 447 457 0
195 447 205 0
449 459 450 0
458 459 449 0
460 449 451 0
458 449 460 0
461 451 452 0
460 451 461 0
462 452 453 0
461 452 462 0
454 462 453 0
463 462 454 0
456 206 464 0
201 206 456 0
464 206 465 0
465 206 208 0
212 457 466 0
205 457 212 0
458 468 459 0
467 468 458 0
469 458 460 0
467 458 469 0
469 460 461 0
470 469 461 0
471 470 461 0
461 472 471 0
462 472 461 0
462 463 472 0
465 213 473 0
208 213 465 0
473 213 474 0
474 213 215 0
475 217 218 0
212 466 476 0
218 212 476 0
475 218 476 0
467 478 468 0
477 478 467 0
479 467 469 0
477 467 479 0
470 479 469 0
480 479 470 0
474 219 481 0
215 219 474 0
481 219 220 0
481 220 482 0
481 482 483 0
475 484 482 0
475 482 220 0
475 220 217 0
476 484 475 0
485 484 476 0
478 477 486 0
477 487 486 0
479 487 477 0
479 480 487 0
482 489 483 0
488 489 482 0
490 482 484 0
488 482 490 0
485 490 484 0
491 490 485 0
488 493 489 0
492 493 488 0
494 488 490 0
492 488 494 0
491 494 490 0
495 494 491 0
492 497 493 0
496 497 492 0
496 492 494 0
498 496 494 0
499 498 494 0
494 495 499 0
497 496 500 0
496 498 500 0
503 501 502 0
503 504 501 0
505 504 503 0
505 506 504 0
507 506 505 0
507 508 506 0
509 508 507 0
510 508 509 0
501 512 502 0
511 512 501 0
513 501 504 0
511 501 513 0
514 504 506 0
513 504 514 0
515 506 508 0
514 506 515 0
510 515 508 0
516 515 510 0
511 518 512 0
517 518 511 0
519 511 513 0
517 511 519 0
520 513 514 0
519 513 520 0
521 514 515 0
520 514 521 0
516 521 515 0
522 521 516 0
525 523 524 0
526 523 525 0
518 517 527 0
517 519 528 0
527 517 528 0
529 527 528 0
530 519 520 0
528 519 530 0
531 520 521 0
530 520 531 0
522 531 521 0
532 531 522 0
535 533 534 0
535 536 533 0
537 536 535 0
537 538 536 0
539 538 537 0
523 540 538 0
524 523 538 0
539 524 538 0
526 540 523 0
541 540 526 0
528 543 529 0
542 543 528 0
544 528 530 0
542 528 544 0
545 530 531 0
544 530 545 0
532 545 531 0
546 545 532 0
533 548 534 0
547 548 533 0
549 533 536 0
547 533 549 0
550 536 538 0
549 536 550 0
550 538 540 0
551 550 540 0
552 551 540 0
540 541 552 0
543 542 553 0
544 553 542 0
544 554 553 0
223 554 544 0
222 554 223 0
544 545 223 0
223 545 225 0
546 555 226 0
545 546 226 0
225 545 226 0
547 557 548 0
556 557 547 0
558 547 549 0
556 547 558 0
558 549 550 0
558 550 229 0
558 229 228 0
551 559 230 0
550 551 230 0
229 550 230 0
222 560 554 0
231 560 222 0
232 555 561 0
226 555 232 0
234 562 557 0
235 234 557 0
556 235 557 0
556 558 235 0
235 558 237 0
558 228 237 0
239 559 563 0
230 559 239 0
231 564 560 0
240 564 231 0
241 561 565 0
232 561 241 0
234 566 562 0
243 566 234 0
246 563 567 0
239 563 246 0
240 568 564 0
247 568 240 0
248 565 569 0
241 565 248 0
243 570 566 0
250 570 243 0
246 567 572 0
246 572 571 0
246 571 254 0
254 571 255 0
247 573 568 0
256 573 247 0
257 569 574 0
248 569 257 0
250 575 570 0
259 575 250 0
576 571 572 0
577 263 255 0
576 577 255 0
571 576 255 0
580 578 579 0
573 256 266 0
573 266 578 0
573 578 580 0
267 574 581 0
257 574 267 0
584 582 583 0
575 259 584 0
259 582 584 0
259 268 582 0
268 585 582 0
270 585 268 0
586 272 587 0
587 272 273 0
263 587 273 0
577 587 263 0
589 274 588 0
275 274 589 0
276 275 589 0
276 589 579 0
276 579 578 0
578 266 276 0
277 581 590 0
267 581 277 0
582 592 583 0
591 592 582 0
593 582 585 0
591 582 593 0
270 279 585 0
585 279 593 0
281 586 594 0
272 586 281 0
597 595 596 0
597 598 595 0
599 598 597 0
599 600 598 0
601 600 599 0
601 602 600 0
603 602 601 0
603 604 602 0
605 604 603 0
605 606 284 0
604 605 284 0
283 604 284 0
607 284 606 0
286 284 607 0
608 286 607 0
288 286 608 0
288 608 274 0
274 608 588 0
289 590 609 0
277 590 289 0
591 611 592 0
610 611 591 0
612 591 593 0
610 591 612 0
613 612 593 0
613 593 279 0
613 279 290 0
614 613 291 0
291 613 290 0
594 291 281 0
594 614 291 0
616 614 594 0
615 614 616 0
616 617 615 0
618 617 616 0
618 619 617 0
620 619 618 0
595 621 619 0
596 595 619 0
620 596 619 0
622 595 598 0
621 595 622 0
623 598 600 0
622 598 623 0
624 600 602 0
623 600 624 0
625 602 604 0
624 602 625 0
283 293 604 0
604 293 625 0
297 609 626 0
289 609 297 0
611 610 627 0
610 628 627 0
612 628 610 0
612 629 628 0
613 629 612 0
613 614 630 0
629 613 630 0
631 629 630 0
632 614 615 0
630 614 632 0
633 615 617 0
632 615 633 0
634 617 619 0
633 617 634 0
635 619 621 0
634 619 635 0
636 621 622 0
635 621 636 0
636 622 623 0
636 623 300 0
636 300 299 0
623 624 637 0
623 637 301 0
623 301 300 0
638 624 625 0
637 624 638 0
293 303 625 0
625 303 638 0
308 626 639 0
297 626 308 0
630 641 631 0
640 641 630 0
642 630 632 0
640 630 642 0
643 632 633 0
642 632 643 0
644 633 634 0
643 633 644 0
645 634 635 0
644 634 645 0
646 635 636 0
645 635 646 0
299 310 636 0
636 310 646 0
312 301 637 0
637 638 312 0
312 638 314 0
638 303 314 0
320 639 647 0
308 639 320 0
650 648 649 0
641 648 650 0
641 640 648 0
640 322 648 0
323 322 640 0
640 642 323 0
323 642 325 0
642 643 325 0
325 643 327 0
643 644 651 0
643 651 328 0
643 328 327 0
652 644 645 0
651 644 652 0
653 645 646 0
652 645 653 0
310 330 646 0
646 330 653 0
654 337 338 0
647 338 320 0
647 654 338 0
656 654 647 0
655 654 656 0
656 657 655 0
658 657 656 0
659 657 658 0
648 661 649 0
660 661 648 0
322 340 648 0
648 340 660 0
343 328 662 0
662 328 651 0
663 651 652 0
662 651 663 0
664 652 653 0
663 652 664 0
330 345 653 0
653 345 664 0
350 337 665 0
665 337 654 0
666 654 655 0
665 654 666 0
666 655 657 0
667 666 657 0
668 667 657 0
657 659 668 0
352 669 661 0
353 352 661 0
660 353 661 0
660 340 353 0
358 343 662 0
662 663 670 0
662 670 359 0
662 359 358 0
671 663 664 0
670 663 671 0
672 671 664 0
672 664 345 0
672 345 360 0
362 672 360 0
364 350 673 0
673 350 665 0
674 665 666 0
673 665 674 0
667 674 666 0
675 674 667 0
352 676 669 0
366 676 352 0
371 359 677 0
677 359 670 0
677 670 671 0
678 677 671 0
679 678 671 0
671 680 679 0
672 680 671 0
372 681 680 0
362 372 680 0
672 362 680 0
681 372 373 0
681 373 682 0
681 682 683 0
374 682 373 0
375 364 684 0
684 364 673 0
685 673 674 0
684 673 685 0
675 685 674 0
686 685 675 0
366 687 676 0
377 687 366 0
382 371 688 0
688 371 677 0
678 688 677 0
689 688 678 0
692 690 691 0
682 693 690 0
683 682 690 0
692 683 690 0
694 693 682 0
694 682 374 0
694 374 383 0
384 694 383 0
385 375 695 0
695 375 684 0
696 684 685 0
695 684 696 0
686 696 685 0
697 696 686 0
377 698 687 0
387 698 377 0
392 382 699 0
699 382 688 0
700 699 688 0
701 700 688 0
689 701 688 0
701 702 700 0
703 702 701 0
690 704 702 0
691 690 702 0
703 691 702 0
705 690 693 0
704 690 705 0
705 693 694 0
705 694 395 0
705 395 394 0
694 384 395 0
396 385 706 0
706 385 695 0
707 695 696 0
706 695 707 0
697 707 696 0
708 707 697 0
387 709 698 0
398 709 387 0
403 392 710 0
710 392 699 0
711 699 700 0
710 699 711 0
712 700 702 0
711 700 712 0
713 702 704 0
712 702 713 0
713 704 705 0
713 705 406 0
713 406 405 0
705 394 406 0
408 396 714 0
714 396 706 0
714 706 707 0
715 714 707 0
716 715 707 0
707 708 716 0
398 717 709 0
410 717 398 0
416 403 718 0
718 403 710 0
719 710 711 0
718 710 719 0
720 711 712 0
719 711 720 0
721 712 713 0
720 712 721 0
405 418 713 0
713 418 721 0
722 419 408 0
722 408 714 0
722 714 723 0
714 715 723 0
725 717 410 0
724 725 410 0
420 724 410 0
422 724 420 0
425 416 718 0
718 719 726 0
718 726 426 0
718 426 425 0
727 719 720 0
726 719 727 0
728 720 721 0
727 720 728 0
418 427 721 0
721 427 728 0
428 722 729 0
419 722 428 0
724 731 725 0
730 731 724 0
422 430 724 0
724 430 730 0
432 426 732 0
732 426 726 0
733 726 727 0
732 726 733 0
734 727 728 0
733 727 734 0
427 433 728 0
728 433 734 0
434 729 735 0
428 729 434 0
731 730 736 0
430 436 737 0
430 737 736 0
430 736 730 0
438 432 738 0
738 432 732 0
739 732 733 0
738 732 739 0
