#!ascii version of 
23244 46560
5524 5511 6006 0
6006 5511 5985 0
6007 5985 5986 0
6006 5985 6007 0
6009 6007 5988 0
6007 5986 5988 0
5526 6008 5987 0
5514 5526 5987 0
5990 5987 6008 0
5990 6008 6010 0
5990 6010 6011 0
6011 5992 5990 0
6012 5528 6013 0
6013 5528 5529 0
6015 6013 5529 0
6015 5529 5530 0
6015 5530 6014 0
6014 6016 5993 0
6014 5993 5994 0
6014 5994 6015 0
6016 5996 5993 0
6017 5996 6016 0
6017 5998 5996 0
6018 5998 6017 0
5998 6018 6000 0
6000 6018 6019 0
6020 5531 6004 0
6004 5531 5521 0
6021 5531 6020 0
5532 5531 6021 0
6022 5532 6021 0
5533 5532 6022 0
6023 5533 6022 0
5534 5533 6023 0
5522 6024 6005 0
5535 6024 5522 0
5537 5524 6025 0
6025 5524 6006 0
6025 6006 6007 0
6025 6007 5539 0
6025 5539 5538 0
6026 5539 6027 0
6026 6008 5539 0
6008 5526 5539 0
6027 5539 6009 0
6009 5539 6007 0
6008 6026 6010 0
6010 6026 6028 0
5528 6012 6030 0
5528 6030 6029 0
5528 6029 5540 0
6029 6031 6014 0
5540 6029 6014 0
5530 5540 6014 0
6031 6016 6014 0
6032 6016 6031 0
6017 6016 6032 0
6017 6032 6033 0
6017 6033 6034 0
6034 6035 6017 0
6017 6035 6018 0
6035 6019 6018 0
6036 5541 6023 0
6023 5541 5534 0
6037 5541 6036 0
5542 5541 6037 0
6038 5542 6037 0
5543 5542 6038 0
6039 5543 6038 0
5544 5543 6039 0
5535 6040 6024 0
5545 6040 5535 0
5547 5537 6041 0
6041 5537 6025 0
5538 5548 6025 0
6025 5548 6041 0
6042 6026 6027 0
6042 6028 6026 0
6044 6043 6045 0
6043 6046 6029 0
6043 6029 6030 0
6043 6030 6045 0
6046 6031 6029 0
6047 6031 6046 0
6047 6032 6031 0
6048 6032 6047 0
6032 6048 6033 0
6033 6048 6049 0
6050 5551 6039 0
6039 5551 5544 0
5551 6050 6052 0
5552 5551 6052 0
6051 5552 6052 0
6053 6051 6052 0
6055 6040 5545 0
6054 6055 5545 0
5553 6054 5545 0
6056 6054 5554 0
5554 6054 5553 0
6057 6056 5555 0
5555 6056 5554 0
6058 6041 6059 0
6058 6057 6041 0
6057 5547 6041 0
5555 5547 6057 0
5556 6060 6059 0
5548 5556 6059 0
6041 5548 6059 0
6060 5556 6061 0
6061 5556 5558 0
6062 5559 5560 0
6044 6063 6043 0
6063 5561 6043 0
6063 6062 5561 0
6062 5560 5561 0
5561 6046 6043 0
5562 6046 5561 0
5562 6047 6046 0
5563 6047 5562 0
5563 6048 6047 0
5564 6048 5563 0
6049 6064 6065 0
6049 5565 6064 0
6048 5565 6049 0
5564 5565 6048 0
5567 6064 5565 0
6066 5568 5569 0
6067 6066 5570 0
5570 6066 5569 0
6068 6067 5571 0
5571 6067 5570 0
6069 6068 5572 0
5572 6068 5571 0
5574 6069 5572 0
5575 5552 6051 0
6053 6070 5577 0
6051 6053 5577 0
5575 6051 5577 0
6054 6072 6055 0
6071 6072 6054 0
6073 6054 6056 0
6071 6054 6073 0
6074 6056 6057 0
6073 6056 6074 0
6058 6074 6057 0
6075 6074 6058 0
6061 5581 6076 0
5558 5581 6061 0
6077 6076 5581 0
6062 6077 5581 0
5559 6062 5581 0
6062 6063 6077 0
6065 6064 6078 0
5583 6079 6078 0
5567 5583 6078 0
6064 5567 6078 0
6080 6079 5583 0
6066 6080 5583 0
5568 6066 5583 0
6066 6081 6080 0
6067 6081 6066 0
6067 6083 6081 0
6068 6083 6067 0
5584 6082 5585 0
6083 6068 6085 0
6068 6069 6085 0
5585 6082 6084 0
5586 5585 6084 0
6086 6085 6069 0
6086 6069 5574 0
6084 6086 5574 0
5586 6084 5574 0
6087 5587 6070 0
6070 5587 5577 0
6088 5587 6087 0
5588 5587 6088 0
6089 5588 6088 0
5589 5588 6089 0
6090 5589 6089 0
5590 5589 6090 0
6091 5590 6090 0
5591 5590 6091 0
6092 5591 6091 0
5592 5591 6092 0
6093 5592 6092 0
5593 5592 6093 0
6094 5593 6093 0
5594 5593 6094 0
6072 6071 6095 0
6071 6096 6095 0
6073 6096 6071 0
6073 6097 6096 0
6074 6097 6073 0
6074 6075 6097 0
6082 5584 5596 0
6098 6084 6082 0
5597 6098 6082 0
5596 5597 6082 0
6084 6098 6099 0
6084 6099 6100 0
6084 6100 6086 0
6099 6101 6100 0
6100 6101 6102 0
6101 6103 6102 0
6102 6103 6104 0
6103 6105 6104 0
6104 6105 6106 0
6105 6107 6106 0
6106 6107 6108 0
6108 6107 6109 0
5599 6094 6110 0
5594 6094 5599 0
5602 5601 6111 0
5603 6111 6112 0
5602 6111 5603 0
5604 6112 6113 0
5603 6112 5604 0
5605 6113 6114 0
5604 6113 5605 0
5606 6114 6115 0
5605 6114 5606 0
6115 6116 6098 0
5606 6115 6098 0
5597 5606 6098 0
6099 6098 6116 0
6099 6116 6117 0
6099 6117 6118 0
6118 6119 6099 0
6099 6119 6101 0
6119 6120 6101 0
6101 6120 6103 0
6120 6121 6103 0
6103 6121 6105 0
6121 6122 6105 0
6105 6122 6107 0
6122 6109 6107 0
6123 5607 6110 0
6110 5607 5599 0
6124 5607 6123 0
5608 5607 6124 0
6125 5608 6124 0
5609 5608 6125 0
6126 5609 6125 0
5610 5609 6126 0
6127 5610 6126 0
5611 5610 6127 0
6129 5613 6128 0
5614 5613 6129 0
6130 5614 6129 0
5615 5614 6130 0
6131 5601 5616 0
6111 5601 6131 0
6131 6112 6111 0
6132 6112 6131 0
6132 6113 6112 0
6133 6113 6132 0
6133 6114 6113 0
6134 6114 6133 0
6115 6114 6134 0
6115 6134 6135 0
6115 6135 6136 0
6136 6137 6115 0
6115 6137 6116 0
6137 6117 6116 0
6138 5617 6127 0
6127 5617 5611 0
5618 5617 6138 0
6139 5618 6138 0
6140 6139 6138 0
5618 6139 5619 0
6143 6141 6142 0
6128 5613 5621 0
6128 5621 6141 0
6128 6141 6143 0
6144 5623 6130 0
6130 5623 5615 0
6145 5623 6144 0
5625 5623 6145 0
6146 5625 6145 0
5626 5625 6146 0
6131 5616 5627 0
5627 6132 6131 0
5628 6132 5627 0
6147 6133 6132 0
5629 6147 6132 0
5628 5629 6132 0
6147 6134 6133 0
6148 6134 6147 0
6134 6148 6135 0
6135 6148 6149 0
6150 6139 6140 0
6150 6151 5630 0
6150 5630 5619 0
6150 5619 6139 0
6152 5630 6151 0
5631 5630 6152 0
6153 5631 6152 0
5632 5631 6153 0
5632 6153 6155 0
5633 5632 6155 0
6154 5633 6155 0
6155 6156 6154 0
6157 6156 6155 0
6158 6156 6157 0
6141 6160 6142 0
6159 6160 6141 0
5621 5634 6141 0
6141 5634 6159 0
6161 5635 6146 0
6146 5635 5626 0
6162 5635 6161 0
5636 5635 6162 0
6163 5636 6162 0
5637 5636 6163 0
6147 5629 5638 0
5638 6148 6147 0
5639 6148 5638 0
5640 6164 6149 0
5640 6149 6148 0
5640 6148 5639 0
5641 5633 6154 0
6154 6156 5641 0
5641 6156 5642 0
6166 6156 6158 0
6166 6165 6156 0
6165 5642 6156 0
5643 5642 6165 0
6167 6165 6166 0
6159 6169 6160 0
6168 6169 6159 0
5634 5644 6159 0
6159 5644 6168 0
5645 6163 6170 0
5637 6163 5645 0
6164 5646 6171 0
5640 5646 6164 0
6171 5647 6172 0
5646 5647 6171 0
6172 5648 6173 0
5647 5648 6172 0
6173 5649 6174 0
5648 5649 6173 0
6174 5649 5650 0
6174 5650 6175 0
6174 6175 6176 0
6177 6175 5651 0
5651 6175 5650 0
6178 6177 5652 0
5652 6177 5651 0
6179 6178 5653 0
5653 6178 5652 0
6180 6179 5654 0
5654 6179 5653 0
5656 6180 5654 0
6181 5660 5661 0
5661 5662 6183 0
5661 6183 6182 0
5661 6182 6181 0
6184 6183 5662 0
6165 6184 5662 0
5643 6165 5662 0
6165 6167 6184 0
6168 6186 6169 0
6185 6186 6168 0
5644 5663 6168 0
6168 5663 6185 0
6187 5664 6170 0
6170 5664 5645 0
6188 5664 6187 0
5666 5664 6188 0
6189 5666 6188 0
5667 5666 6189 0
6175 6191 6176 0
6190 6191 6175 0
6192 6175 6177 0
6190 6175 6192 0
6193 6177 6178 0
6192 6177 6193 0
6194 6178 6179 0
6193 6178 6194 0
6195 6179 6180 0
6194 6179 6195 0
6196 6195 6180 0
6196 6180 5656 0
6196 5656 5668 0
5668 5669 6198 0
5668 6198 6197 0
5668 6197 6196 0
6198 5670 6199 0
5669 5670 6198 0
6199 5671 6200 0
5670 5671 6199 0
6200 5672 6201 0
5671 5672 6200 0
6201 5673 6202 0
5672 5673 6201 0
6202 5673 6203 0
6203 5673 5675 0
5678 5660 6181 0
6204 5679 5678 0
6204 5678 6181 0
6204 6181 6182 0
6205 5679 6204 0
5680 5679 6205 0
6185 6207 6186 0
6206 6207 6185 0
5663 5681 6185 0
6185 5681 6206 0
5682 5667 6189 0
5682 6189 6209 0
5682 6209 6208 0
6210 6208 6209 0
6191 6190 6211 0
6190 6212 6211 0
6192 6212 6190 0
6192 6213 6212 0
6193 6213 6192 0
6193 6214 6213 0
6194 6214 6193 0
6194 6215 6214 0
6195 6215 6194 0
6195 6216 6215 0
6196 6216 6195 0
6196 6197 6216 0
6203 5683 6217 0
5675 5683 6203 0
6217 5684 6218 0
5683 5684 6217 0
6218 5684 5685 0
6218 5685 6219 0
6218 6219 6220 0
6221 6219 5686 0
5686 6219 5685 0
5687 6221 5686 0
5688 5680 6205 0
5688 6205 6223 0
5688 6223 6222 0
6224 6222 6223 0
6206 6226 6207 0
6225 6226 6206 0
5681 5689 6206 0
6206 5689 6225 0
5690 5682 6227 0
6227 5682 6208 0
6210 6227 6208 0
6228 6227 6210 0
6220 6219 6229 0
6219 6230 6229 0
6221 6230 6219 0
5704 6231 6230 0
5687 5704 6230 0
6221 5687 6230 0
6231 5704 6232 0
6232 5704 5705 0
5706 5688 6233 0
6233 5688 6222 0
6224 6233 6222 0
6234 6233 6224 0
6225 6236 6226 0
6235 6236 6225 0
5689 5707 6225 0
6225 5707 6235 0
5708 5690 6227 0
6228 6237 5709 0
6227 6228 5709 0
5708 6227 5709 0
5711 5710 6238 0
5712 6238 6239 0
5711 6238 5712 0
5713 6239 6240 0
5712 6239 5713 0
5714 6240 6241 0
5713 6240 5714 0
5715 6241 6242 0
5714 6241 5715 0
5716 6242 6243 0
5715 6242 5716 0
5717 6243 6244 0
5716 6243 5717 0
5718 6244 6245 0
5717 6244 5718 0
5719 6245 6246 0
5718 6245 5719 0
5720 6246 6247 0
5719 6246 5720 0
5721 6247 6248 0
5720 6247 5721 0
5722 6248 6249 0
5721 6248 5722 0
5723 6249 6250 0
5722 6249 5723 0
5724 6250 6251 0
5723 6250 5724 0
5725 6251 6252 0
5724 6251 5725 0
5726 6252 6253 0
5725 6252 5726 0
6255 5727 5726 0
6254 6255 5726 0
6253 6254 5726 0
6256 5727 6255 0
5728 5727 6256 0
5729 5728 6256 0
6257 5729 6256 0
6258 6257 6256 0
5705 6260 6232 0
5705 6259 6260 0
5729 6259 5705 0
6257 6259 5729 0
6260 6259 6261 0
5730 5706 6262 0
6262 5706 6233 0
6234 6262 6233 0
6263 6262 6234 0
6235 6265 6236 0
6264 6265 6235 0
5707 5731 6235 0
6235 5731 6264 0
5732 5709 6237 0
5732 6237 6267 0
5732 6267 6266 0
6268 6266 6267 0
6269 5710 5733 0
6238 5710 6269 0
6269 6239 6238 0
6270 6239 6269 0
6270 6240 6239 0
6271 6240 6270 0
6241 6240 6271 0
6241 6271 6272 0
6241 6272 6273 0
6273 6274 6241 0
6241 6274 6242 0
6274 6275 6242 0
6242 6275 6243 0
6275 6276 6243 0
6243 6276 6244 0
6276 6277 6244 0
6244 6277 6245 0
6277 6278 6245 0
6245 6278 6246 0
6278 6279 6246 0
6246 6279 6247 0
6279 6280 6247 0
6247 6280 6248 0
6280 6281 6248 0
6248 6281 6249 0
6281 6282 6249 0
6249 6282 6250 0
6282 6283 6250 0
6250 6283 6251 0
6283 6284 6251 0
6251 6284 6252 0
6284 6285 6252 0
6252 6285 6253 0
6285 6254 6253 0
6286 6257 6258 0
6286 6287 6257 0
6257 6287 6259 0
6287 6261 6259 0
5734 5730 6288 0
6288 5730 6262 0
6263 6288 6262 0
6289 6288 6263 0
6265 6264 6290 0
5731 5735 6291 0
5731 6291 6290 0
5731 6290 6264 0
5736 5732 6266 0
6268 6292 5737 0
6266 6268 5737 0
5736 6266 5737 0
6269 5733 5739 0
5739 6270 6269 0
5741 6270 5739 0
5741 6271 6270 0
5743 6271 5741 0
5744 6293 6272 0
5744 6272 6271 0
5744 6271 5743 0
6294 5746 5734 0
6294 5734 6288 0
6294 6288 6295 0
6288 6289 6295 0
5735 6296 6291 0
5747 6296 5735 0
6297 5748 6292 0
6292 5748 5737 0
6298 5748 6297 0
5749 5748 6298 0
6293 5751 6299 0
5744 5751 6293 0
6299 5753 6300 0
5751 5753 6299 0
6300 5753 6301 0
6301 5753 5754 0
5756 6294 6302 0
5746 6294 5756 0
5747 6303 6296 0
5757 6303 5747 0
6304 5758 6298 0
6298 5758 5749 0
6305 5758 6304 0
5759 5758 6305 0
5754 6306 6301 0
5762 6306 5754 0
5764 6302 6307 0
5756 6302 5764 0
5757 6308 6303 0
5765 6308 5757 0
6309 5766 6305 0
6305 5766 5759 0
6310 5766 6309 0
5767 5766 6310 0
6306 5768 6311 0
5762 5768 6306 0
6313 6311 5768 0
6313 5768 5769 0
6313 5769 6312 0
6312 6314 6313 0
6313 6314 6315 0
6315 6314 6316 0
6317 5770 6318 0
6318 5770 5771 0
5764 6318 5771 0
6307 6318 5764 0
5765 6319 6308 0
5772 6319 5765 0
6320 5773 6310 0
6310 5773 5767 0
6321 5773 6320 0
5774 5773 6321 0
6322 5774 6321 0
5775 5774 6322 0
6323 5775 6322 0
5776 5775 6323 0
6324 5776 6323 0
5777 5776 6324 0
6325 5777 6324 0
5778 5777 6325 0
6312 5769 5779 0
5779 6314 6312 0
5781 6314 5779 0
5781 5783 6326 0
6314 5781 6326 0
6316 6314 6326 0
6326 5783 6327 0
6327 5783 5784 0
6328 5785 5786 0
5770 6317 6329 0
5786 5770 6329 0
6328 5786 6329 0
5772 6330 6319 0
5787 6330 5772 0
6331 5788 6325 0
6325 5788 5778 0
6332 5788 6331 0
5789 5788 6332 0
5790 5789 6332 0
6333 5790 6332 0
6334 6333 6332 0
5791 6333 6335 0
5790 6333 5791 0
5791 6335 5793 0
6327 5795 6336 0
5784 5795 6327 0
6336 5795 6337 0
6337 5795 5796 0
6338 5797 5798 0
6339 6328 6340 0
6339 6338 6328 0
6338 5785 6328 0
5798 5785 6338 0
6328 6329 6340 0
6342 5799 6341 0
5800 5799 6342 0
5800 6342 5787 0
5787 6342 6330 0
6343 6333 6334 0
6343 6344 6333 0
6333 6344 6335 0
6344 6345 5801 0
6344 5801 5793 0
6344 5793 6335 0
6346 5801 6345 0
5802 5801 6346 0
6347 5802 6346 0
5803 5802 6347 0
6348 5803 6347 0
5804 5803 6348 0
6349 5804 6348 0
5805 5804 6349 0
5805 6349 5796 0
5796 6349 6337 0
6350 5806 5807 0
6351 6338 6352 0
6351 6350 6338 0
6350 5797 6338 0
5807 5797 6350 0
6338 6339 6352 0
5799 6353 6341 0
5809 6353 5799 0
6354 5810 5811 0
5812 6354 5811 0
6355 5813 6356 0
6356 5813 5814 0
6357 6356 5814 0
6350 6357 5814 0
5806 6350 5814 0
6350 6351 6357 0
6359 6353 5809 0
6358 6359 5809 0
5815 6358 5809 0
5816 6358 5815 0
5817 5810 6360 0
6360 5810 6354 0
6361 6360 6354 0
6361 6354 5812 0
6361 5812 5818 0
5818 5819 6363 0
5818 6363 6362 0
5818 6362 6361 0
5813 6363 5819 0
6355 6363 5813 0
6359 6358 6364 0
5820 6365 6364 0
5816 5820 6364 0
6358 5816 6364 0
6365 5820 6366 0
6366 5820 5821 0
5823 5817 6367 0
6367 5817 6360 0
6368 6360 6361 0
6367 6360 6368 0
6362 6368 6361 0
6369 6368 6362 0
6366 5825 6370 0
5821 5825 6366 0
6372 6370 5825 0
6372 5825 5827 0
6372 5827 6371 0
6372 6371 6373 0
5830 5823 6367 0
6367 6368 5830 0
5830 6368 5832 0
6369 6374 5833 0
6368 6369 5833 0
5832 6368 5833 0
6371 5827 5835 0
5836 6375 6373 0
5836 6373 6371 0
5836 6371 5835 0
5839 6374 6376 0
5833 6374 5839 0
6375 5840 6377 0
5836 5840 6375 0
6377 5840 6378 0
6378 5840 5841 0
5844 6376 6379 0
5839 6376 5844 0
5841 6380 6378 0
5845 6380 5841 0
6381 5846 6382 0
6382 5846 5847 0
6382 5848 6383 0
5847 5848 6382 0
5844 6383 5848 0
6379 6383 5844 0
5845 6384 6380 0
5850 6384 5845 0
5851 6381 6385 0
5846 6381 5851 0
6384 5852 6386 0
5850 5852 6384 0
6386 5853 6387 0
5852 5853 6386 0
6387 5853 6388 0
6388 5853 5854 0
5857 6385 6389 0
5851 6385 5857 0
6388 5858 6390 0
5854 5858 6388 0
6390 5858 5859 0
6390 5859 6391 0
6390 6391 6392 0
5860 6391 5859 0
6393 5861 5862 0
6394 6393 5863 0
5863 6393 5862 0
6395 6394 5864 0
5864 6394 5863 0
6396 6395 5865 0
5865 6395 5864 0
5857 6389 6397 0
5865 5857 6397 0
6396 5865 6397 0
6392 6391 6398 0
5860 5867 6399 0
5860 6399 6398 0
5860 6398 6391 0
5871 5861 6400 0
6400 5861 6393 0
6400 6393 6394 0
6401 6400 6394 0
6402 6401 6394 0
6394 6403 6402 0
6395 6403 6394 0
6395 6404 6403 0
6396 6404 6395 0
6396 6397 6404 0
6399 5872 6405 0
5867 5872 6399 0
6405 5873 6406 0
5872 5873 6405 0
6406 5873 6407 0
6407 5873 5875 0
6408 5877 5878 0
6409 6408 5879 0
5879 6408 5878 0
6410 6409 5880 0
5880 6409 5879 0
6411 6400 6412 0
6411 6410 6400 0
6410 5871 6400 0
5880 5871 6410 0
6400 6401 6412 0
6407 5881 6413 0
5875 5881 6407 0
6413 5882 6414 0
5881 5882 6413 0
6414 5882 5883 0
6414 5883 6415 0
6414 6415 6416 0
6417 6415 5884 0
5884 6415 5883 0
6418 6417 5885 0
5885 6417 5884 0
5887 6418 5885 0
6419 5893 5894 0
6420 6419 5895 0
5895 6419 5894 0
6421 6408 6422 0
6421 6420 6408 0
6420 5877 6408 0
5895 5877 6420 0
6408 6423 6422 0
6409 6423 6408 0
6409 6424 6423 0
6410 6424 6409 0
6410 6411 6424 0
6416 6415 6425 0
6415 6426 6425 0
6417 6426 6415 0
6417 6427 6426 0
6418 6427 6417 0
5896 6428 6427 0
5887 5896 6427 0
6418 5887 6427 0
6428 5897 6429 0
5896 5897 6428 0
6429 5897 5898 0
6429 5898 6430 0
6429 6430 6431 0
6432 6430 5899 0
5899 6430 5898 0
6433 6432 5900 0
5900 6432 5899 0
6434 6433 5901 0
5901 6433 5900 0
6435 6434 5902 0
5902 6434 5901 0
6436 6435 5903 0
5903 6435 5902 0
5904 6436 5903 0
6437 5906 5907 0
6438 6437 5908 0
5908 6437 5907 0
6439 6438 5909 0
5909 6438 5908 0
6440 6439 5910 0
5910 6439 5909 0
5910 5911 6442 0
5910 6442 6441 0
5910 6441 6440 0
6442 5912 6443 0
5911 5912 6442 0
6444 6443 5912 0
6419 6444 5912 0
5893 6419 5912 0
6419 6445 6444 0
6420 6445 6419 0
6420 6421 6445 0
6431 6430 6446 0
6430 6447 6446 0
6432 6447 6430 0
6432 6448 6447 0
6433 6448 6432 0
6433 6449 6448 0
6434 6449 6433 0
6434 6435 6450 0
6449 6434 6450 0
6451 6449 6450 0
6452 6435 6436 0
6450 6435 6452 0
6453 6452 6436 0
6453 6436 5904 0
6453 5904 5913 0
6437 6454 6453 0
6437 6453 5913 0
6437 5913 5906 0
6455 6437 6438 0
6454 6437 6455 0
6456 6438 6439 0
6455 6438 6456 0
6456 6439 6440 0
6457 6456 6440 0
6458 6457 6440 0
6440 6441 6458 0
6451 6450 6459 0
6450 6460 6459 0
6452 6460 6450 0
6452 6461 6460 0
6453 6461 6452 0
6453 6462 6461 0
6454 6462 6453 0
6454 6463 6462 0
6455 6463 6454 0
6455 6464 6463 0
6456 6464 6455 0
6456 6457 6464 0
6466 5915 6465 0
5916 5915 6466 0
6467 5916 6466 0
5918 5916 6467 0
5918 6467 6469 0
5919 5918 6469 0
6468 5919 6469 0
6469 6470 6468 0
6471 6470 6469 0
6471 6472 5922 0
6470 6471 5922 0
5921 6470 5922 0
6473 5922 6472 0
5923 5922 6473 0
6465 5924 6474 0
5915 5924 6465 0
6474 5924 6475 0
6475 5924 5926 0
5928 5919 6468 0
6468 6470 5928 0
5928 6470 5930 0
6470 5921 5930 0
5932 6473 6476 0
5923 6473 5932 0
5926 6477 6475 0
5934 6477 5926 0
6478 5936 5937 0
5939 6478 5937 0
5940 5932 6476 0
5940 6476 6480 0
5940 6480 6479 0
6481 6479 6480 0
5934 6482 6477 0
5941 6482 5934 0
5942 5936 6478 0
6478 5939 5942 0
5943 5940 6479 0
6483 5944 5943 0
6483 5943 6479 0
6483 6479 6481 0
6484 5944 6483 0
5946 5944 6484 0
6485 5946 6484 0
5947 5946 6485 0
5941 6486 6482 0
5948 6486 5941 0
6487 5950 6485 0
6485 5950 5947 0
5950 6487 6489 0
5951 5950 6489 0
6488 5951 6489 0
6490 6488 6489 0
5948 6491 6486 0
5952 6491 5948 0
5954 5951 6488 0
6490 6492 5955 0
6488 6490 5955 0
5954 6488 5955 0
5952 6493 6491 0
5956 6493 5952 0
6494 5957 6492 0
6492 5957 5955 0
6495 5957 6494 0
5958 5957 6495 0
6496 5958 6495 0
5959 5958 6496 0
5956 6497 6493 0
5960 6497 5956 0
6498 5962 6496 0
6496 5962 5959 0
6499 5962 6498 0
5964 5962 6499 0
6500 5964 6499 0
5965 5964 6500 0
5960 6501 6497 0
5966 6501 5960 0
5968 6500 6502 0
5965 6500 5968 0
5966 6503 6501 0
5969 6503 5966 0
6504 5972 6502 0
6502 5972 5968 0
6505 5972 6504 0
5974 5972 6505 0
6506 5974 6505 0
5975 5974 6506 0
5969 6507 6503 0
5976 6507 5969 0
6508 5978 6506 0
6506 5978 5975 0
6509 5978 6508 0
5980 5978 6509 0
6510 5980 6509 0
5982 5980 6510 0
6511 5982 6510 0
5983 5982 6511 0
5976 6512 6507 0
5984 6512 5976 0
6513 5988 6514 0
6514 5988 5989 0
6514 5989 5991 0
6514 5991 6515 0
6514 6515 6516 0
5992 6515 5991 0
6517 5994 5995 0
6518 6517 5997 0
5997 6517 5995 0
5997 5999 6520 0
5997 6520 6519 0
5997 6519 6518 0
6520 5999 6521 0
6521 5999 6000 0
6522 6001 6511 0
6511 6001 5983 0
6523 6001 6522 0
6002 6001 6523 0
6524 6002 6523 0
6003 6002 6524 0
6525 6003 6524 0
6004 6003 6525 0
5984 6526 6512 0
6005 6526 5984 0
6009 6513 6527 0
5988 6513 6009 0
6516 6515 6529 0
6010 6528 6011 0
6531 5992 6530 0
6531 6529 5992 0
6529 6515 5992 0
6530 5992 6528 0
6528 5992 6011 0
6013 6532 6533 0
6013 6533 6531 0
6012 6013 6531 0
6530 6012 6531 0
6534 6532 6015 0
6015 6532 6013 0
6517 6535 6534 0
6517 6534 6015 0
6517 6015 5994 0
6535 6517 6518 0
6536 6535 6518 0
6537 6536 6518 0
6518 6519 6537 0
6000 6538 6521 0
6019 6538 6000 0
6539 6020 6525 0
6525 6020 6004 0
6540 6020 6539 0
6021 6020 6540 0
6541 6021 6540 0
6022 6021 6541 0
6542 6022 6541 0
6023 6022 6542 0
6005 6543 6526 0
6024 6543 6005 0
6027 6527 6544 0
6009 6527 6027 0
6545 6010 6028 0
6528 6010 6545 0
6545 6530 6528 0
6546 6530 6545 0
6547 6548 6532 0
6548 6533 6532 0
6546 6030 6012 0
6530 6546 6012 0
6549 6532 6534 0
6547 6532 6549 0
6550 6534 6535 0
6549 6534 6550 0
6551 6034 6536 0
6034 6535 6536 0
6034 6033 6535 0
6033 6550 6535 0
6552 6034 6551 0
6035 6034 6552 0
6035 6552 6019 0
6019 6552 6538 0
6553 6036 6542 0
6542 6036 6023 0
6554 6036 6553 0
6037 6036 6554 0
6555 6037 6554 0
6038 6037 6555 0
6556 6038 6555 0
6039 6038 6556 0
6024 6557 6543 0
6040 6557 6024 0
6027 6544 6559 0
6027 6559 6558 0
6027 6558 6042 0
6558 6560 6545 0
6042 6558 6545 0
6028 6042 6545 0
6546 6545 6560 0
6045 6546 6560 0
6044 6045 6560 0
6562 6547 6561 0
6548 6547 6562 0
6045 6030 6546 0
6563 6547 6549 0
6561 6547 6563 0
6564 6549 6550 0
6563 6549 6564 0
6033 6049 6550 0
6550 6049 6564 0
6565 6050 6556 0
6556 6050 6039 0
6052 6050 6565 0
6566 6052 6565 0
6567 6566 6565 0
6052 6566 6053 0
6040 6568 6557 0
6055 6568 6040 0
6569 6058 6059 0
6059 6060 6571 0
6059 6571 6570 0
6059 6570 6569 0
6060 6559 6571 0
6060 6558 6559 0
6061 6558 6060 0
6572 6558 6061 0
6572 6560 6558 0
6573 6560 6572 0
6560 6063 6044 0
6573 6063 6560 0
6562 6561 6574 0
6561 6575 6574 0
6563 6575 6561 0
6563 6576 6575 0
6564 6576 6563 0
6049 6065 6577 0
6049 6577 6576 0
6049 6576 6564 0
6578 6566 6567 0
6579 6070 6053 0
6578 6579 6053 0
6566 6578 6053 0
6055 6580 6568 0
6072 6580 6055 0
6581 6075 6058 0
6581 6058 6569 0
6581 6569 6582 0
6569 6570 6582 0
6572 6061 6076 0
6076 6573 6572 0
6077 6573 6076 0
6077 6063 6573 0
6577 6078 6583 0
6065 6078 6577 0
6583 6079 6584 0
6078 6079 6583 0
6584 6080 6585 0
6079 6080 6584 0
6585 6081 6586 0
6080 6081 6585 0
6586 6083 6587 0
6081 6083 6586 0
6587 6085 6588 0
6083 6085 6587 0
6588 6085 6589 0
6589 6085 6086 0
6591 6590 6592 0
6592 6590 6593 0
6594 6087 6579 0
6579 6087 6070 0
6595 6087 6594 0
6088 6087 6595 0
6596 6088 6595 0
6089 6088 6596 0
6597 6089 6596 0
6090 6089 6597 0
6598 6090 6597 0
6091 6090 6598 0
6599 6091 6598 0
6092 6091 6599 0
6600 6092 6599 0
6093 6092 6600 0
6601 6093 6600 0
6094 6093 6601 0
6580 6095 6602 0
6072 6095 6580 0
6602 6096 6603 0
6095 6096 6602 0
6603 6097 6604 0
6096 6097 6603 0
6075 6604 6097 0
6581 6604 6075 0
6589 6100 6605 0
6086 6100 6589 0
6605 6100 6102 0
6591 6605 6102 0
6590 6591 6102 0
6102 6104 6606 0
6590 6102 6606 0
6593 6590 6606 0
6606 6106 6607 0
6104 6106 6606 0
6607 6108 6608 0
6106 6108 6607 0
6608 6108 6609 0
6609 6108 6109 0
6110 6601 6610 0
6094 6601 6110 0
6118 6117 6611 0
6119 6611 6612 0
6118 6611 6119 0
6120 6612 6613 0
6119 6612 6120 0
6121 6613 6614 0
6120 6613 6121 0
6616 6122 6121 0
6615 6616 6121 0
6614 6615 6121 0
6122 6616 6109 0
6109 6616 6609 0
6617 6123 6610 0
6610 6123 6110 0
6618 6123 6617 0
6124 6123 6618 0
6619 6124 6618 0
6125 6124 6619 0
6620 6125 6619 0
6126 6125 6620 0
6621 6126 6620 0
6127 6126 6621 0
6624 6622 6623 0
6624 6625 6129 0
6622 6624 6129 0
6128 6622 6129 0
6626 6129 6625 0
6130 6129 6626 0
6628 6135 6627 0
6136 6135 6628 0
6629 6136 6628 0
6137 6136 6629 0
6137 6629 6630 0
6137 6630 6611 0
6137 6611 6117 0
6630 6631 6611 0
6611 6631 6612 0
6631 6632 6612 0
6612 6632 6613 0
6632 6633 6613 0
6613 6633 6614 0
6633 6615 6614 0
6634 6138 6621 0
6621 6138 6127 0
6635 6138 6634 0
6140 6138 6635 0
6142 6636 6623 0
6143 6142 6623 0
6622 6143 6623 0
6622 6128 6143 0
6637 6144 6626 0
6626 6144 6130 0
6638 6144 6637 0
6145 6144 6638 0
6639 6145 6638 0
6146 6145 6639 0
6135 6640 6627 0
6149 6640 6135 0
6641 6150 6635 0
6635 6150 6140 0
6642 6150 6641 0
6151 6150 6642 0
6643 6151 6642 0
6152 6151 6643 0
6644 6152 6643 0
6153 6152 6644 0
6645 6153 6644 0
6155 6153 6645 0
6646 6155 6645 0
6157 6155 6646 0
6647 6157 6646 0
6158 6157 6647 0
6142 6648 6636 0
6160 6648 6142 0
6649 6161 6639 0
6639 6161 6146 0
6650 6161 6649 0
6162 6161 6650 0
6162 6650 6652 0
6163 6162 6652 0
6651 6163 6652 0
6653 6651 6652 0
6640 6149 6164 0
6655 6640 6164 0
6654 6655 6164 0
6654 6656 6655 0
6655 6656 6657 0
6656 6658 6657 0
6657 6658 6659 0
6658 6660 6659 0
6659 6660 6661 0
6661 6660 6662 0
6663 6166 6647 0
6647 6166 6158 0
6664 6166 6663 0
6167 6166 6664 0
6160 6665 6648 0
6169 6665 6160 0
6170 6163 6666 0
6666 6163 6651 0
6667 6666 6651 0
6668 6667 6651 0
6653 6668 6651 0
6669 6667 6668 0
6654 6164 6171 0
6171 6656 6654 0
6172 6656 6171 0
6172 6658 6656 0
6173 6658 6172 0
6173 6660 6658 0
6174 6660 6173 0
6176 6670 6662 0
6176 6662 6660 0
6176 6660 6174 0
6671 6182 6183 0
6672 6671 6184 0
6184 6671 6183 0
6167 6664 6673 0
6184 6167 6673 0
6672 6184 6673 0
6169 6674 6665 0
6186 6674 6169 0
6187 6170 6666 0
6666 6667 6187 0
6187 6667 6188 0
6669 6675 6189 0
6667 6669 6189 0
6188 6667 6189 0
6176 6676 6670 0
6191 6676 6176 0
6677 6197 6198 0
6678 6677 6199 0
6199 6677 6198 0
6679 6678 6200 0
6200 6678 6199 0
6200 6201 6681 0
6200 6681 6680 0
6200 6680 6679 0
6681 6202 6682 0
6201 6202 6681 0
6682 6202 6683 0
6683 6202 6203 0
6204 6182 6671 0
6671 6672 6684 0
6671 6684 6205 0
6671 6205 6204 0
6673 6684 6672 0
6685 6684 6673 0
6186 6686 6674 0
6207 6686 6186 0
6687 6209 6675 0
6675 6209 6189 0
6688 6209 6687 0
6210 6209 6688 0
6676 6211 6689 0
6191 6211 6676 0
6689 6212 6690 0
6211 6212 6689 0
6690 6213 6691 0
6212 6213 6690 0
6691 6214 6692 0
6213 6214 6691 0
6692 6215 6693 0
6214 6215 6692 0
6693 6216 6694 0
6215 6216 6693 0
6695 6694 6216 0
6677 6695 6216 0
6197 6677 6216 0
6677 6696 6695 0
6678 6696 6677 0
6678 6697 6696 0
6679 6697 6678 0
6679 6680 6697 0
6683 6217 6698 0
6203 6217 6683 0
6698 6218 6699 0
6217 6218 6698 0
6699 6218 6700 0
6700 6218 6220 0
6223 6205 6684 0
6685 6701 6224 0
6684 6685 6224 0
6223 6684 6224 0
6207 6702 6686 0
6226 6702 6207 0
6228 6688 6703 0
6210 6688 6228 0
6700 6229 6704 0
6220 6229 6700 0
6704 6230 6705 0
6229 6230 6704 0
6705 6231 6706 0
6230 6231 6705 0
6706 6231 6707 0
6707 6231 6232 0
6234 6701 6708 0
6224 6701 6234 0
6226 6709 6702 0
6236 6709 6226 0
6237 6228 6703 0
6237 6703 6711 0
6237 6711 6710 0
6712 6710 6711 0
6255 6254 6713 0
6256 6713 6714 0
6255 6713 6256 0
6256 6714 6258 0
6707 6260 6715 0
6232 6260 6707 0
6715 6260 6716 0
6716 6260 6261 0
6263 6708 6717 0
6234 6708 6263 0
6236 6718 6709 0
6265 6718 6236 0
6267 6237 6710 0
6712 6719 6268 0
6710 6712 6268 0
6267 6710 6268 0
6273 6272 6720 0
6274 6720 6721 0
6273 6720 6274 0
6275 6721 6722 0
6274 6721 6275 0
6276 6722 6723 0
6275 6722 6276 0
6277 6723 6724 0
6276 6723 6277 0
6726 6278 6277 0
6725 6726 6277 0
6724 6725 6277 0
6727 6278 6726 0
6279 6278 6727 0
6728 6279 6727 0
6280 6279 6728 0
6729 6280 6728 0
6281 6280 6729 0
6730 6281 6729 0
6282 6281 6730 0
6731 6282 6730 0
6283 6282 6731 0
6732 6283 6731 0
6284 6283 6732 0
6733 6284 6732 0
6285 6284 6733 0
6285 6733 6734 0
6285 6734 6713 0
6285 6713 6254 0
6734 6735 6713 0
6713 6735 6714 0
6735 6736 6286 0
6735 6286 6258 0
6735 6258 6714 0
6287 6286 6736 0
6737 6287 6736 0
6738 6737 6736 0
6261 6740 6716 0
6261 6739 6740 0
6287 6739 6261 0
6737 6739 6287 0
6739 6741 6740 0
6740 6741 6742 0
6742 6741 6743 0
6289 6717 6744 0
6263 6717 6289 0
6746 6718 6265 0
6745 6746 6265 0
6290 6745 6265 0
6291 6745 6290 0
6292 6719 6747 0
6268 6719 6292 0
6748 6272 6293 0
6720 6272 6748 0
6748 6721 6720 0
6749 6721 6748 0
6722 6721 6749 0
6722 6749 6750 0
6722 6750 6751 0
6751 6752 6722 0
6722 6752 6723 0
6752 6753 6723 0
6723 6753 6724 0
6753 6725 6724 0
6754 6737 6738 0
6754 6755 6737 0
6737 6755 6739 0
6755 6756 6739 0
6739 6756 6741 0
6756 6743 6741 0
6757 6294 6295 0
6289 6744 6758 0
6295 6289 6758 0
6757 6295 6758 0
6745 6760 6746 0
6759 6760 6745 0
6291 6296 6745 0
6745 6296 6759 0
6761 6297 6747 0
6747 6297 6292 0
6762 6297 6761 0
6298 6297 6762 0
6748 6293 6299 0
6299 6749 6748 0
6300 6749 6299 0
6749 6764 6750 0
6749 6300 6764 0
6300 6763 6764 0
6301 6763 6300 0
6764 6763 6765 0
6302 6294 6766 0
6766 6294 6757 0
6758 6766 6757 0
6767 6766 6758 0
6759 6769 6760 0
6768 6769 6759 0
6296 6303 6759 0
6759 6303 6768 0
6770 6304 6762 0
6762 6304 6298 0
6771 6304 6770 0
6305 6304 6771 0
6772 6301 6306 0
6763 6301 6772 0
6763 6772 6765 0
6765 6772 6773 0
6774 6307 6302 0
6774 6302 6766 0
6774 6766 6775 0
6766 6767 6775 0
6768 6777 6769 0
6776 6777 6768 0
6303 6308 6768 0
6768 6308 6776 0
6778 6309 6771 0
6771 6309 6305 0
6309 6778 6780 0
6310 6309 6780 0
6779 6310 6780 0
6781 6779 6780 0
6772 6306 6311 0
6311 6313 6782 0
6772 6311 6782 0
6773 6772 6782 0
6782 6315 6783 0
6313 6315 6782 0
6783 6315 6784 0
6784 6315 6316 0
6785 6317 6318 0
6307 6774 6786 0
6318 6307 6786 0
6785 6318 6786 0
6776 6788 6777 0
6787 6788 6776 0
6308 6319 6776 0
6776 6319 6787 0
6320 6310 6779 0
6789 6321 6320 0
6789 6320 6779 0
6789 6779 6781 0
6790 6321 6789 0
6322 6321 6790 0
6791 6322 6790 0
6323 6322 6791 0
6792 6323 6791 0
6324 6323 6792 0
6793 6324 6792 0
6325 6324 6793 0
6784 6326 6794 0
6316 6326 6784 0
6794 6326 6795 0
6795 6326 6327 0
6796 6329 6317 0
6796 6317 6785 0
6796 6785 6797 0
6785 6786 6797 0
6787 6799 6788 0
6798 6799 6787 0
6319 6330 6787 0
6787 6330 6798 0
6800 6331 6793 0
6793 6331 6325 0
6801 6331 6800 0
6332 6331 6801 0
6332 6801 6803 0
6334 6332 6803 0
6802 6334 6803 0
6804 6802 6803 0
6795 6336 6805 0
6327 6336 6795 0
6805 6336 6806 0
6806 6336 6337 0
6807 6339 6340 0
6329 6796 6808 0
6340 6329 6808 0
6807 6340 6808 0
6341 6809 6799 0
6342 6341 6799 0
6798 6342 6799 0
6798 6330 6342 0
6343 6334 6802 0
6810 6344 6343 0
6810 6343 6802 0
6810 6802 6804 0
6811 6344 6810 0
6345 6344 6811 0
6812 6345 6811 0
6346 6345 6812 0
6813 6346 6812 0
6347 6346 6813 0
6814 6347 6813 0
6348 6347 6814 0
6815 6348 6814 0
6349 6348 6815 0
6349 6815 6337 0
6337 6815 6806 0
6816 6351 6352 0
6817 6807 6818 0
6817 6816 6807 0
6816 6339 6807 0
6352 6339 6816 0
6807 6808 6818 0
6341 6819 6809 0
6353 6819 6341 0
6820 6355 6356 0
6356 6357 6822 0
6356 6822 6821 0
6356 6821 6820 0
6823 6822 6357 0
6816 6823 6357 0
6351 6816 6357 0
6816 6817 6823 0
6353 6824 6819 0
6359 6824 6353 0
6825 6362 6363 0
6826 6820 6827 0
6826 6825 6820 0
6825 6355 6820 0
6363 6355 6825 0
6820 6821 6827 0
6824 6364 6828 0
6359 6364 6824 0
6828 6365 6829 0
6364 6365 6828 0
6829 6365 6830 0
6830 6365 6366 0
6369 6362 6831 0
6831 6362 6825 0
6826 6831 6825 0
6832 6831 6826 0
6830 6370 6833 0
6366 6370 6830 0
6833 6372 6834 0
6370 6372 6833 0
6834 6372 6835 0
6835 6372 6373 0
6374 6369 6836 0
6836 6369 6831 0
6832 6836 6831 0
6837 6836 6832 0
6373 6838 6835 0
6375 6838 6373 0
6376 6374 6839 0
6839 6374 6836 0
6837 6839 6836 0
6840 6839 6837 0
6838 6377 6841 0
6375 6377 6838 0
6841 6377 6842 0
6842 6377 6378 0
6843 6379 6376 0
6843 6376 6839 0
6843 6839 6844 0
6839 6840 6844 0
6378 6845 6842 0
6380 6845 6378 0
6846 6381 6847 0
6847 6381 6382 0
6847 6383 6848 0
6382 6383 6847 0
6379 6848 6383 0
6843 6848 6379 0
6845 6380 6384 0
6850 6845 6384 0
6849 6850 6384 0
6850 6849 6851 0
6385 6846 6852 0
6381 6846 6385 0
6849 6384 6386 0
6386 6387 6853 0
6849 6386 6853 0
6851 6849 6853 0
6853 6387 6854 0
6854 6387 6388 0
6389 6852 6855 0
6385 6852 6389 0
6854 6390 6856 0
6388 6390 6854 0
6856 6390 6857 0
6857 6390 6392 0
6397 6855 6858 0
6389 6855 6397 0
6857 6398 6859 0
6392 6398 6857 0
6859 6398 6860 0
6860 6398 6399 0
6861 6401 6402 0
6402 6403 6863 0
6402 6863 6862 0
6402 6862 6861 0
6863 6404 6864 0
6403 6404 6863 0
6397 6864 6404 0
6858 6864 6397 0
6860 6405 6865 0
6399 6405 6860 0
6865 6406 6866 0
6405 6406 6865 0
6866 6406 6867 0
6867 6406 6407 0
6868 6411 6869 0
6869 6411 6412 0
6870 6869 6412 0
6861 6870 6412 0
6401 6861 6412 0
6861 6862 6870 0
6867 6413 6871 0
6407 6413 6867 0
6871 6414 6872 0
6413 6414 6871 0
6872 6414 6873 0
6873 6414 6416 0
6874 6421 6422 0
6422 6423 6876 0
6422 6876 6875 0
6422 6875 6874 0
6876 6424 6877 0
6423 6424 6876 0
6411 6877 6424 0
6868 6877 6411 0
6873 6425 6878 0
6416 6425 6873 0
6878 6425 6426 0
6878 6426 6879 0
6878 6879 6880 0
6881 6879 6427 0
6427 6879 6426 0
6882 6881 6428 0
6428 6881 6427 0
6883 6882 6429 0
6429 6882 6428 0
6431 6883 6429 0
6884 6441 6442 0
6885 6884 6443 0
6443 6884 6442 0
6886 6885 6444 0
6444 6885 6443 0
6444 6445 6888 0
6444 6888 6887 0
6444 6887 6886 0
6889 6888 6445 0
6874 6889 6445 0
6421 6874 6445 0
6874 6875 6889 0
6880 6879 6890 0
6879 6891 6890 0
6881 6891 6879 0
6881 6892 6891 0
6882 6892 6881 0
6882 6893 6892 0
6883 6893 6882 0
6446 6894 6893 0
6431 6446 6893 0
6883 6431 6893 0
6894 6446 6447 0
6894 6447 6895 0
6894 6895 6896 0
6897 6895 6448 0
6448 6895 6447 0
6898 6897 6449 0
6449 6897 6448 0
6451 6898 6449 0
6899 6457 6458 0
6884 6900 6899 0
6884 6899 6458 0
6884 6458 6441 0
6901 6884 6885 0
6900 6884 6901 0
6901 6885 6886 0
6902 6901 6886 0
6903 6902 6886 0
6886 6887 6903 0
6896 6895 6904 0
6895 6905 6904 0
6897 6905 6895 0
6897 6906 6905 0
6898 6906 6897 0
6459 6907 6906 0
6451 6459 6906 0
6898 6451 6906 0
6907 6460 6908 0
6459 6460 6907 0
6908 6461 6909 0
6460 6461 6908 0
6909 6462 6910 0
6461 6462 6909 0
6910 6463 6911 0
6462 6463 6910 0
6911 6464 6912 0
6463 6464 6911 0
6913 6912 6464 0
6899 6913 6464 0
6457 6899 6464 0
6899 6914 6913 0
6900 6914 6899 0
6900 6915 6914 0
6901 6915 6900 0
6901 6902 6915 0
6918 6916 6917 0
6918 6919 6916 0
6920 6919 6918 0
6920 6921 6919 0
6922 6921 6920 0
6923 6921 6922 0
6465 6924 6917 0
6466 6465 6917 0
6916 6466 6917 0
6916 6919 6466 0
6466 6919 6467 0
6919 6921 6467 0
6467 6921 6469 0
6925 6471 6469 0
6925 6469 6921 0
6925 6921 6923 0
6926 6471 6925 0
6472 6471 6926 0
6472 6926 6928 0
6473 6472 6928 0
6927 6473 6928 0
6929 6927 6928 0
6931 6924 6465 0
6930 6931 6465 0
6474 6930 6465 0
6475 6930 6474 0
6476 6473 6932 0
6932 6473 6927 0
6929 6932 6927 0
6933 6932 6929 0
6931 6930 6934 0
6475 6477 6935 0
6475 6935 6934 0
6475 6934 6930 0
6480 6476 6932 0
6937 6932 6933 0
6937 6936 6932 0
6936 6480 6932 0
6481 6480 6936 0
6938 6936 6937 0
6477 6939 6935 0
6482 6939 6477 0
6483 6481 6936 0
6483 6940 6484 0
6483 6941 6940 0
6936 6941 6483 0
6938 6941 6936 0
6484 6940 6485 0
6482 6942 6939 0
6486 6942 6482 0
6943 6940 6941 0
6943 6944 6487 0
6943 6487 6485 0
6943 6485 6940 0
6945 6487 6944 0
6489 6487 6945 0
6489 6945 6947 0
6490 6489 6947 0
6946 6490 6947 0
6948 6946 6947 0
6486 6949 6942 0
6491 6949 6486 0
6492 6490 6950 0
6950 6490 6946 0
6951 6950 6946 0
6952 6951 6946 0
6948 6952 6946 0
6953 6951 6952 0
6491 6954 6949 0
6493 6954 6491 0
6494 6492 6950 0
6950 6951 6494 0
6494 6951 6495 0
6953 6955 6496 0
6951 6953 6496 0
6495 6951 6496 0
6493 6956 6954 0
6497 6956 6493 0
6957 6498 6955 0
6955 6498 6496 0
6958 6498 6957 0
6499 6498 6958 0
6959 6499 6958 0
6500 6499 6959 0
6497 6960 6956 0
6501 6960 6497 0
6502 6500 6959 0
6502 6959 6962 0
6502 6962 6961 0
6962 6963 6961 0
6964 6963 6962 0
6965 6963 6964 0
6501 6966 6960 0
6503 6966 6501 0
6504 6502 6961 0
6961 6963 6504 0
6504 6963 6505 0
6968 6963 6965 0
6968 6967 6963 0
6967 6505 6963 0
6506 6505 6967 0
6968 6969 6967 0
6970 6969 6968 0
6971 6969 6970 0
6503 6972 6966 0
6507 6972 6503 0
6508 6506 6967 0
6967 6969 6508 0
6508 6969 6509 0
6973 6510 6509 0
6973 6509 6969 0
6973 6969 6971 0
6510 6973 6975 0
6511 6510 6975 0
6974 6511 6975 0
6975 6976 6974 0
6977 6976 6975 0
6978 6976 6977 0
6507 6979 6972 0
6512 6979 6507 0
6980 6513 6514 0
6516 6980 6514 0
6981 6519 6520 0
6521 6981 6520 0
6522 6511 6974 0
6974 6976 6522 0
6522 6976 6523 0
6982 6524 6523 0
6982 6523 6976 0
6982 6976 6978 0
6983 6524 6982 0
6525 6524 6983 0
6512 6984 6979 0
6526 6984 6512 0
6527 6513 6985 0
6985 6513 6980 0
6986 6985 6980 0
6986 6980 6516 0
6986 6516 6529 0
6987 6986 6531 0
6531 6986 6529 0
6533 6987 6531 0
6988 6536 6537 0
6981 6989 6988 0
6981 6988 6537 0
6981 6537 6519 0
6521 6992 6981 0
6521 6538 6992 0
6538 6990 6992 0
6981 6992 6989 0
6989 6992 6991 0
6990 6993 6992 0
6992 6993 6994 0
6994 6993 6995 0
6996 6539 6983 0
6983 6539 6525 0
6997 6539 6996 0
6540 6539 6997 0
6998 6540 6997 0
6541 6540 6998 0
6541 6998 7000 0
6542 6541 7000 0
6999 6542 7000 0
7001 6999 7000 0
6526 7002 6984 0
6543 7002 6526 0
6544 6527 7003 0
7003 6527 6985 0
7004 6985 6986 0
7003 6985 7004 0
7005 6986 6987 0
7004 6986 7005 0
6533 6548 6987 0
6987 6548 7005 0
6551 6536 6988 0
6988 6989 6551 0
6551 6989 6552 0
7006 6552 7007 0
7006 6990 6552 0
6990 6538 6552 0
7007 6552 6991 0
6991 6552 6989 0
7006 6993 6990 0
7008 6993 7006 0
6993 7008 7009 0
6993 7009 7010 0
6993 7010 6995 0
7010 7009 7011 0
6553 6542 6999 0
7012 6554 6553 0
7012 6553 6999 0
7012 6999 7001 0
6555 6554 7012 0
7013 6555 7012 0
7014 7013 7012 0
6555 7013 6556 0
6543 7015 7002 0
6557 7015 6543 0
7016 6559 6544 0
7016 6544 7003 0
7016 7003 7017 0
7003 7018 7017 0
7004 7018 7003 0
7004 7005 7019 0
7018 7004 7019 0
7020 7018 7019 0
6548 6562 7005 0
7005 6562 7019 0
7021 7006 7007 0
7022 7008 7006 0
7022 7006 7021 0
7022 7021 7023 0
7022 7009 7008 0
7024 7009 7022 0
7009 7024 7011 0
7011 7024 7025 0
7026 7013 7014 0
7026 7027 6565 0
7026 6565 6556 0
7026 6556 7013 0
7028 6565 7027 0
6567 6565 7028 0
6557 7029 7015 0
6568 7029 6557 0
7030 6570 6571 0
6559 7016 7031 0
6571 6559 7031 0
7030 6571 7031 0
7020 7019 7032 0
6574 7033 7032 0
6562 6574 7032 0
7019 6562 7032 0
7033 6575 7034 0
6574 6575 7033 0
7034 6576 7035 0
6575 6576 7034 0
7037 7035 6576 0
7037 6576 6577 0
7037 6577 7036 0
7036 7038 7037 0
7037 7038 7039 0
7038 7040 7039 0
7039 7040 7041 0
7040 7042 7022 0
7040 7022 7023 0
7040 7023 7041 0
7042 7024 7022 0
7043 7024 7042 0
7024 7043 7025 0
7025 7043 7044 0
7045 6578 7028 0
7028 6578 6567 0
7046 6578 7045 0
6579 6578 7046 0
6568 7047 7029 0
6580 7047 6568 0
7049 7048 7050 0
7048 7051 7050 0
7050 7051 7052 0
6582 7053 7054 0
6582 7054 7052 0
6581 6582 7052 0
7051 6581 7052 0
7030 7055 7053 0
7030 7053 6582 0
7030 6582 6570 0
7031 7055 7030 0
7056 7055 7031 0
7036 6577 6583 0
6583 7038 7036 0
6584 7038 6583 0
6584 7040 7038 0
6585 7040 6584 0
6585 7042 7040 0
6586 7042 6585 0
6586 7043 7042 0
6587 7043 6586 0
7044 7057 7058 0
7044 6588 7057 0
7043 6588 7044 0
6587 6588 7043 0
7061 7060 7057 0
7061 7057 6588 0
7059 7061 6588 0
6589 7059 6588 0
6592 7062 7063 0
6592 7063 7061 0
6591 6592 7061 0
7059 6591 7061 0
6593 7062 6592 0
7064 6594 7046 0
7046 6594 6579 0
6595 6594 7064 0
7065 6595 7064 0
7066 7065 7064 0
6596 7065 7067 0
6595 7065 6596 0
7069 6597 6596 0
7068 7069 6596 0
7067 7068 6596 0
7070 6597 7069 0
6598 6597 7070 0
7071 6598 7070 0
6599 6598 7071 0
6600 6599 7071 0
7072 6600 7071 0
7073 7072 7071 0
6600 7072 6601 0
7047 6602 7074 0
6580 6602 7047 0
7074 6602 6603 0
7049 7074 6603 0
7048 7049 6603 0
6603 7051 7048 0
6604 7051 6603 0
6604 6581 7051 0
7075 7054 7053 0
7053 7076 7075 0
7055 7076 7053 0
7055 7056 7076 0
7058 7057 7077 0
7077 7057 7060 0
6605 7059 6589 0
6605 6591 7059 0
7078 7063 7062 0
6606 7079 7078 0
6593 6606 7078 0
7062 6593 7078 0
7079 6607 7080 0
6606 6607 7079 0
7080 6607 6608 0
7080 6608 7081 0
7080 7081 7082 0
6609 7081 6608 0
7083 7065 7066 0
7083 7084 7065 0
7065 7084 7067 0
7084 7068 7067 0
7085 7072 7073 0
7086 6610 6601 0
7085 7086 6601 0
7072 7085 6601 0
6615 7087 7082 0
6616 6615 7082 0
7081 6616 7082 0
7081 6609 6616 0
7088 6617 7086 0
7086 6617 6610 0
7089 6617 7088 0
6618 6617 7089 0
7090 6618 7089 0
6619 6618 7090 0
6620 6619 7090 0
7091 6620 7090 0
7092 7091 7090 0
6620 7091 6621 0
7094 6623 7093 0
6624 6623 7094 0
7095 6624 7094 0
6625 6624 7095 0
7096 6625 7095 0
6626 6625 7096 0
6628 6627 7097 0
6629 7097 7098 0
6628 7097 6629 0
6630 7098 7099 0
6629 7098 6630 0
7101 6631 6630 0
7100 7101 6630 0
7099 7100 6630 0
7102 6631 7101 0
6632 6631 7102 0
7103 6632 7102 0
6633 6632 7103 0
6633 7103 6615 0
6615 7103 7087 0
7104 7091 7092 0
7104 6621 7091 0
7104 7106 6621 0
7106 6634 6621 0
7105 6634 7106 0
6634 7105 6635 0
6623 7107 7093 0
6636 7107 6623 0
6626 7096 7109 0
6626 7109 7108 0
6626 7108 6637 0
6638 7108 7110 0
6637 7108 6638 0
6638 7110 6639 0
7111 6627 6640 0
7097 6627 7111 0
7098 7097 7111 0
7098 7111 7112 0
7098 7112 7113 0
7113 7114 7098 0
7098 7114 7099 0
7114 7100 7099 0
7115 7105 7106 0
7115 7116 6641 0
7115 6641 6635 0
7115 6635 7105 0
7117 6641 7116 0
6642 6641 7117 0
7118 6642 7117 0
6643 6642 7118 0
7119 6643 7118 0
6644 6643 7119 0
7120 6644 7119 0
6645 6644 7120 0
6646 6645 7120 0
7121 6646 7120 0
7122 7121 7120 0
6646 7121 6647 0
6636 7123 7107 0
6648 7123 6636 0
7124 7108 7109 0
7124 7125 7108 0
7108 7125 7110 0
7125 7126 6649 0
7125 6649 6639 0
7125 6639 7110 0
7127 6649 7126 0
6650 6649 7127 0
6652 6650 7127 0
7128 6652 7127 0
7129 7128 7127 0
6652 7128 6653 0
7111 6640 6655 0
6655 6657 7130 0
7111 6655 7130 0
7112 7111 7130 0
7130 6659 7131 0
6657 6659 7130 0
7131 6661 7132 0
6659 6661 7131 0
7132 6661 7133 0
7133 6661 6662 0
7134 7121 7122 0
7134 7135 6663 0
7134 6663 6647 0
7134 6647 7121 0
6663 7135 7137 0
6664 6663 7137 0
7136 6664 7137 0
7137 7138 7136 0
7139 7138 7137 0
7140 7138 7139 0
6648 7141 7123 0
6665 7141 6648 0
7142 7128 7129 0
7142 7143 6668 0
7142 6668 6653 0
7142 6653 7128 0
7144 6668 7143 0
6669 6668 7144 0
6662 7145 7133 0
6670 7145 6662 0
6673 6664 7146 0
7146 6664 7136 0
7146 7136 7138 0
7147 7146 7138 0
7148 7147 7138 0
7138 7140 7148 0
6665 7149 7141 0
6674 7149 6665 0
6675 7144 7150 0
6669 7144 6675 0
6670 7151 7145 0
6676 7151 6670 0
7152 6680 6681 0
7153 7152 6682 0
6682 7152 6681 0
6683 7153 6682 0
6685 6673 7154 0
7154 6673 7146 0
7147 7154 7146 0
7155 7154 7147 0
6674 7156 7149 0
6686 7156 6674 0
7157 6687 7150 0
7150 6687 6675 0
7158 6687 7157 0
6688 6687 7158 0
7151 6689 7159 0
6676 6689 7151 0
7159 6690 7160 0
6689 6690 7159 0
7160 6691 7161 0
6690 6691 7160 0
7161 6692 7162 0
6691 6692 7161 0
7162 6693 7163 0
6692 6693 7162 0
7163 6694 7164 0
6693 6694 7163 0
7164 6695 7165 0
6694 6695 7164 0
7165 6695 6696 0
7165 6696 7166 0
7165 7166 7167 0
7168 7166 6697 0
6697 7166 6696 0
7152 7169 7168 0
7152 7168 6697 0
7152 6697 6680 0
7170 7152 7153 0
7169 7152 7170 0
7171 7170 7153 0
7171 7153 6683 0
7171 6683 6698 0
7172 7171 6699 0
6699 7171 6698 0
6700 7172 6699 0
6701 6685 7173 0
7173 6685 7154 0
7155 7173 7154 0
7174 7173 7155 0
6686 7175 7156 0
6702 7175 6686 0
6703 7158 7176 0
6688 7158 6703 0
7167 7166 7177 0
7166 7178 7177 0
7168 7178 7166 0
7168 7179 7178 0
7169 7179 7168 0
7169 7180 7179 0
7170 7180 7169 0
7170 7181 7180 0
7171 7181 7170 0
7171 7182 7181 0
7172 7182 7171 0
6704 7183 7182 0
6700 6704 7182 0
7172 6700 7182 0
7183 6705 7184 0
6704 6705 7183 0
7184 6706 7185 0
6705 6706 7184 0
7185 6706 7186 0
7186 6706 6707 0
7187 6708 6701 0
7187 6701 7173 0
7187 7173 7188 0
7173 7174 7188 0
6702 7189 7175 0
6709 7189 6702 0
7190 6711 7176 0
7176 6711 6703 0
7191 6711 7190 0
6712 6711 7191 0
7186 6715 7192 0
6707 6715 7186 0
7192 6715 7193 0
7193 6715 6716 0
6717 7187 7194 0
6708 7187 6717 0
6709 7195 7189 0
6718 7195 6709 0
6719 7191 7196 0
6712 7191 6719 0
6726 6725 7197 0
6727 7197 7198 0
6726 7197 6727 0
7200 6728 6727 0
7199 7200 6727 0
7198 7199 6727 0
7201 6728 7200 0
6729 6728 7201 0
7202 6729 7201 0
6730 6729 7202 0
7203 6730 7202 0
6731 6730 7203 0
7204 6731 7203 0
6732 6731 7204 0
7205 6732 7204 0
6733 6732 7205 0
6734 6733 7205 0
7206 6734 7205 0
7207 7206 7205 0
6735 7206 7208 0
6734 7206 6735 0
6736 7208 7209 0
6735 7208 6736 0
6736 7209 6738 0
7193 6740 7210 0
6716 6740 7193 0
7210 6740 6742 0
7210 6742 7211 0
7210 7211 7212 0
6743 7211 6742 0
6744 7194 7213 0
6717 7194 6744 0
6718 7214 7195 0
6746 7214 6718 0
6747 7196 7215 0
6719 7196 6747 0
6751 6750 7216 0
7218 6752 6751 0
7217 7218 6751 0
7216 7217 6751 0
7219 6752 7218 0
6753 6752 7219 0
6753 7219 7220 0
6753 7220 7197 0
6753 7197 6725 0
7220 7221 7197 0
7197 7221 7198 0
7221 7199 7198 0
7222 7206 7207 0
7222 7223 7206 0
7206 7223 7208 0
7223 7224 7208 0
7208 7224 7209 0
7224 7225 6754 0
7224 6754 6738 0
7224 6738 7209 0
7226 6754 7225 0
6755 6754 7226 0
7212 7211 7229 0
7227 6756 7228 0
6756 7226 7228 0
6755 7226 6756 0
7230 7229 7211 0
7230 7211 6743 0
7227 7230 6743 0
6756 7227 6743 0
6758 7213 7231 0
6744 7213 6758 0
6746 7232 7214 0
6760 7232 6746 0
7233 6761 7215 0
7215 6761 6747 0
7234 6761 7233 0
6762 6761 7234 0
7216 6750 6764 0
6765 7235 7217 0
6765 7217 7216 0
6765 7216 6764 0
7236 7227 7228 0
7236 7230 7227 0
6767 7231 7237 0
6758 7231 6767 0
6760 7238 7232 0
6769 7238 6760 0
7239 6770 7234 0
7234 6770 6762 0
7240 6770 7239 0
6771 6770 7240 0
6765 7241 7235 0
6773 7241 6765 0
7242 6774 6775 0
6767 7237 7243 0
6775 6767 7243 0
7242 6775 7243 0
6769 7244 7238 0
6777 7244 6769 0
7245 6778 7240 0
7240 6778 6771 0
7246 6778 7245 0
6780 6778 7246 0
7247 6780 7246 0
6781 6780 7247 0
7241 6782 7248 0
6773 6782 7241 0
7248 6783 7249 0
6782 6783 7248 0
7249 6783 7250 0
7250 6783 6784 0
7251 6786 6774 0
7251 6774 7242 0
7251 7242 7252 0
7242 7243 7252 0
6777 7253 7244 0
6788 7253 6777 0
7254 6789 7247 0
7247 6789 6781 0
7255 6789 7254 0
6790 6789 7255 0
7256 6790 7255 0
6791 6790 7256 0
7257 6791 7256 0
6792 6791 7257 0
7258 6792 7257 0
6793 6792 7258 0
7250 6794 7259 0
6784 6794 7250 0
7259 6794 7260 0
7260 6794 6795 0
7261 6796 7262 0
7262 6796 6797 0
6786 7262 6797 0
7251 7262 6786 0
6788 7263 7253 0
6799 7263 6788 0
7264 6800 7258 0
7258 6800 6793 0
7265 6800 7264 0
6801 6800 7265 0
7266 6801 7265 0
6803 6801 7266 0
7267 6803 7266 0
6804 6803 7267 0
7260 6805 7268 0
6795 6805 7260 0
7268 6805 7269 0
7269 6805 6806 0
6808 7261 7270 0
6796 7261 6808 0
6799 7271 7263 0
6809 7271 6799 0
7272 6810 7267 0
7267 6810 6804 0
7273 6810 7272 0
6811 6810 7273 0
7274 6811 7273 0
6812 6811 7274 0
7275 6812 7274 0
6813 6812 7275 0
7276 6813 7275 0
6814 6813 7276 0
7277 6814 7276 0
6815 6814 7277 0
6815 7277 6806 0
6806 7277 7269 0
7278 6817 6818 0
6808 7270 7279 0
6818 6808 7279 0
7278 6818 7279 0
6809 7280 7271 0
6819 7280 6809 0
7281 6821 6822 0
6822 6823 7283 0
6822 7283 7282 0
6822 7282 7281 0
7284 7283 6823 0
7278 7284 6823 0
6817 7278 6823 0
7278 7279 7284 0
6819 7285 7280 0
6824 7285 6819 0
7286 6826 6827 0
7287 7281 7288 0
7287 7286 7281 0
7286 6821 7281 0
6827 6821 7286 0
7281 7282 7288 0
7290 7285 6824 0
7289 7290 6824 0
6828 7289 6824 0
7291 7289 6829 0
6829 7289 6828 0
6830 7291 6829 0
7292 6832 6826 0
7292 6826 7286 0
7292 7286 7293 0
7286 7287 7293 0
7290 7289 7294 0
7289 7295 7294 0
7291 7295 7289 0
6833 7296 7295 0
6830 6833 7295 0
7291 6830 7295 0
7296 6834 7297 0
6833 6834 7296 0
7297 6834 7298 0
7298 6834 6835 0
6837 7292 7299 0
6832 7292 6837 0
6835 7300 7298 0
6838 7300 6835 0
6840 7299 7301 0
6837 7299 6840 0
7300 6841 7302 0
6838 6841 7300 0
7302 6841 7303 0
7303 6841 6842 0
7304 6843 6844 0
6840 7301 7305 0
6844 6840 7305 0
7304 6844 7305 0
7303 6842 6845 0
7307 7303 6845 0
7306 7307 6845 0
7307 7306 7308 0
7309 6846 6847 0
7310 7309 6848 0
6848 7309 6847 0
7311 7304 7312 0
7311 7310 7304 0
7310 6843 7304 0
6848 6843 7310 0
7304 7305 7312 0
7306 6845 6850 0
6851 7313 7308 0
6851 7308 7306 0
6851 7306 6850 0
6852 6846 7314 0
7314 6846 7309 0
7315 7309 7310 0
7314 7309 7315 0
7311 7315 7310 0
7316 7315 7311 0
7313 6853 7317 0
6851 6853 7313 0
7319 7317 6853 0
7319 6853 6854 0
7319 6854 7318 0
7318 7320 7319 0
7319 7320 7321 0
7321 7320 7322 0
7323 6855 6852 0
7323 6852 7314 0
7323 7314 7324 0
7314 7325 7324 0
7315 7325 7314 0
7315 7316 7325 0
7318 6854 6856 0
7326 7320 7318 0
6857 7326 7318 0
6856 6857 7318 0
7320 7326 7322 0
7322 7326 7327 0
7329 7328 7330 0
6858 6855 7323 0
7328 6858 7323 0
7330 7328 7323 0
7326 6857 6859 0
6860 7331 7327 0
6860 7327 7326 0
6860 7326 6859 0
7332 6862 6863 0
7329 7333 7328 0
7333 6864 7328 0
7333 7332 6864 0
7332 6863 6864 0
6864 6858 7328 0
7331 6865 7334 0
6860 6865 7331 0
7334 6866 7335 0
6865 6866 7334 0
7335 6866 7336 0
7336 6866 6867 0
7337 6868 6869 0
6869 6870 7339 0
6869 7339 7338 0
6869 7338 7337 0
7340 7339 6870 0
7332 7340 6870 0
6862 7332 6870 0
7332 7333 7340 0
7336 6871 7341 0
6867 6871 7336 0
7341 6872 7342 0
6871 6872 7341 0
7342 6872 7343 0
7343 6872 6873 0
7344 6875 6876 0
6876 6877 7346 0
6876 7346 7345 0
6876 7345 7344 0
7347 7346 6877 0
7337 7347 6877 0
6868 7337 6877 0
7337 7338 7347 0
7343 6878 7348 0
6873 6878 7343 0
7348 6878 7349 0
7349 6878 6880 0
7350 6887 6888 0
6888 6889 7352 0
6888 7352 7351 0
6888 7351 7350 0
7353 7352 6889 0
7344 7353 6889 0
6875 7344 6889 0
7344 7345 7353 0
7349 6890 7354 0
6880 6890 7349 0
7354 6891 7355 0
6890 6891 7354 0
7355 6892 7356 0
6891 6892 7355 0
7356 6893 7357 0
6892 6893 7356 0
7357 6894 7358 0
6893 6894 7357 0
7358 6894 7359 0
7359 6894 6896 0
7360 6902 7361 0
7361 6902 6903 0
7362 7361 6903 0
7350 7362 6903 0
6887 7350 6903 0
7350 7351 7362 0
7359 6904 7363 0
6896 6904 7359 0
7363 6905 7364 0
6904 6905 7363 0
7364 6906 7365 0
6905 6906 7364 0
7365 6907 7366 0
6906 6907 7365 0
7366 6908 7367 0
6907 6908 7366 0
7367 6908 6909 0
7367 6909 7368 0
7367 7368 7369 0
7370 7368 6910 0
6910 7368 6909 0
7371 7370 6911 0
6911 7370 6910 0
6911 6912 7373 0
6911 7373 7372 0
6911 7372 7371 0
7373 6913 7374 0
6912 6913 7373 0
7374 6914 7375 0
6913 6914 7374 0
7375 6915 7376 0
6914 6915 7375 0
6902 7376 6915 0
7360 7376 6902 0
7369 7368 7377 0
7368 7378 7377 0
7370 7378 7368 0
7370 7379 7378 0
7371 7379 7370 0
7371 7372 7379 0
7382 7380 7381 0
7382 7383 7380 0
7384 7383 7382 0
7384 7385 7383 0
7386 7385 7384 0
7386 7387 7385 0
7388 7387 7386 0
7389 7387 7388 0
6917 7390 7381 0
6918 6917 7381 0
7380 6918 7381 0
7380 7383 6918 0
6918 7383 6920 0
7383 7385 6920 0
6920 7385 6922 0
7385 7387 7391 0
7385 7391 6923 0
7385 6923 6922 0
7389 7391 7387 0
7392 7391 7389 0
6917 7393 7390 0
6924 7393 6917 0
6925 6923 7391 0
7394 6926 6925 0
7394 6925 7391 0
7394 7391 7392 0
7395 6926 7394 0
6928 6926 7395 0
7396 6928 7395 0
6929 6928 7396 0
6924 7397 7393 0
6931 7397 6924 0
6933 6929 7396 0
6933 7396 7399 0
6933 7399 7398 0
7400 7398 7399 0
7397 6934 7401 0
6931 6934 7397 0
7401 6934 7402 0
