#!ascii version of 
22214 44464
18237 18238 18215 0
18215 18238 18216 0
18238 18217 18216 0
18221 18239 17729 0
18221 17729 17730 0
18221 17730 18220 0
17730 18223 18220 0
17732 18223 17730 0
17732 17720 18223 0
18226 18225 18240 0
18225 18241 18240 0
18227 18241 18225 0
18227 18228 18241 0
18230 17722 17733 0
17733 18231 18230 0
17734 18231 17733 0
17734 17724 18231 0
18243 17735 18242 0
17736 17735 18243 0
17736 18243 17725 0
17725 18243 18233 0
17738 18239 18244 0
17729 18239 17738 0
17740 17739 18245 0
17741 18245 18246 0
17740 18245 17741 0
18248 17742 17741 0
18247 18248 17741 0
18246 18247 17741 0
18249 17742 18248 0
17743 17742 18249 0
18250 17743 18249 0
17744 17743 18250 0
18251 17744 18250 0
17745 17744 18251 0
17745 18251 17735 0
17735 18251 18242 0
18253 18252 18254 0
17748 18255 18254 0
17748 18254 18252 0
17748 18252 17747 0
18255 17749 18256 0
17748 17749 18255 0
18256 17750 18257 0
17749 17750 18256 0
17738 18257 17750 0
18244 18257 17738 0
18259 17751 18258 0
17752 17751 18259 0
18260 17752 18259 0
17753 17752 18260 0
18261 17753 18260 0
17754 17753 18261 0
17754 18261 18262 0
17754 18262 18245 0
17754 18245 17739 0
18262 18263 18245 0
18245 18263 18246 0
18263 18247 18246 0
18253 18264 17756 0
18253 17756 17757 0
18253 17757 18252 0
17757 17747 18252 0
17761 17760 18265 0
17762 18265 18266 0
17761 18265 17762 0
17763 18266 18267 0
17762 18266 17763 0
18269 17764 17763 0
18268 18269 17763 0
18267 18268 17763 0
18270 17764 18269 0
17766 17764 18270 0
17766 18270 17751 0
17751 18270 18258 0
18271 17769 18272 0
18272 17769 17770 0
17756 18272 17770 0
18264 18272 17756 0
18275 18273 18274 0
18276 18273 18275 0
18276 17771 18273 0
18265 17771 18276 0
17760 17771 18265 0
18276 18277 18265 0
18265 18277 18266 0
18277 18278 18266 0
18266 18278 18267 0
18278 18268 18267 0
18279 17772 17773 0
18280 18279 17774 0
17774 18279 17773 0
17774 17775 18282 0
17774 18282 18281 0
17774 18281 18280 0
17769 18282 17775 0
18271 18282 17769 0
17779 17778 18283 0
18284 18274 18283 0
18274 17779 18283 0
18274 18273 17779 0
18273 17780 17779 0
18273 17771 17780 0
18285 17782 18286 0
18286 17782 17783 0
18287 18286 17783 0
18279 18287 17783 0
17772 18279 17783 0
18279 18288 18287 0
18280 18288 18279 0
18280 18281 18288 0
18289 17778 17785 0
18283 17778 18289 0
18283 18289 18284 0
18284 18289 18290 0
18291 17786 17787 0
18292 18291 17788 0
17788 18291 17787 0
18293 18292 17789 0
17789 18292 17788 0
17789 17790 18295 0
17789 18295 18294 0
17789 18294 18293 0
17782 18295 17790 0
18285 18295 17782 0
18296 17785 17793 0
18289 17785 18296 0
18289 18296 18290 0
18290 18296 18297 0
18298 17795 17786 0
18298 17786 18291 0
18298 18291 18299 0
18291 18300 18299 0
18292 18300 18291 0
18292 18301 18300 0
18293 18301 18292 0
18293 18294 18301 0
18302 17793 17804 0
18296 17793 18302 0
18296 18302 18303 0
18296 18303 18304 0
18296 18304 18297 0
18304 18303 18305 0
17795 18298 18307 0
17795 18307 18306 0
17795 18306 17805 0
17806 18306 18308 0
17805 18306 17806 0
17806 18308 17807 0
18309 17804 17814 0
18302 17804 18309 0
18309 18303 18302 0
18310 18303 18309 0
18303 18310 18305 0
18305 18310 18311 0
18312 18306 18307 0
18312 18313 18306 0
18306 18313 18308 0
17815 17807 18314 0
17807 18315 18314 0
17807 18308 18315 0
18308 18313 18315 0
18316 18314 18315 0
18317 17814 17820 0
18309 17814 18317 0
18310 18309 18317 0
18310 18317 18318 0
18310 18318 18319 0
18319 18311 18310 0
17822 17815 18320 0
18320 17815 18314 0
18316 18320 18314 0
18321 18320 18316 0
17824 17823 18322 0
17825 18322 18323 0
17824 18322 17825 0
17826 18323 18324 0
17825 18323 17826 0
17826 18324 17828 0
18325 17820 17832 0
18317 17820 18325 0
18317 18325 18318 0
18318 18325 18326 0
17834 17822 18327 0
18327 17822 18320 0
18321 18327 18320 0
18328 18327 18321 0
18329 17823 17835 0
18322 17823 18329 0
18329 18323 18322 0
18330 18323 18329 0
18330 18324 18323 0
18331 18324 18330 0
18324 17837 17828 0
18331 17837 18324 0
18332 17832 17841 0
18325 17832 18332 0
18325 18332 18326 0
18326 18332 18333 0
18334 17844 17845 0
18327 18335 18334 0
18327 18334 17845 0
18327 17845 17834 0
18328 18335 18327 0
18336 18335 18328 0
18329 17835 17849 0
17849 18330 18329 0
17851 18330 17849 0
17851 18331 18330 0
17853 18331 17851 0
17853 17837 18331 0
18332 17841 17856 0
17856 17857 18337 0
18332 17856 18337 0
18333 18332 18337 0
18337 17857 18338 0
18338 17857 17858 0
18339 17860 17861 0
18340 18339 17862 0
17862 18339 17861 0
18334 18341 18340 0
18334 18340 17862 0
18334 17862 17844 0
18342 18334 18335 0
18341 18334 18342 0
18336 18342 18335 0
18343 18342 18336 0
17864 17863 18344 0
17865 18344 18345 0
17864 18344 17865 0
17866 18345 18346 0
17865 18345 17866 0
17866 18346 17868 0
18338 17858 17874 0
18348 18338 17874 0
18347 18348 17874 0
18348 18347 18349 0
17876 17860 18339 0
18339 18340 18350 0
18339 18350 17877 0
18339 17877 17876 0
18351 18340 18341 0
18350 18340 18351 0
18352 18341 18342 0
18351 18341 18352 0
18353 18352 18342 0
18354 18353 18342 0
18343 18354 18342 0
18354 18355 18353 0
18356 18355 18354 0
18357 18355 18356 0
18360 18358 18359 0
18360 18361 18358 0
18362 18361 18360 0
17879 17878 18363 0
18362 18364 18361 0
17880 18363 18365 0
17879 18363 17880 0
18365 18366 18344 0
17880 18365 18344 0
17863 17880 18344 0
18366 18345 18344 0
18367 18345 18366 0
18367 18346 18345 0
18368 18346 18367 0
18346 17882 17868 0
18368 17882 18346 0
18347 17874 17886 0
18349 18369 18370 0
18349 17887 18369 0
18347 17887 18349 0
17886 17887 18347 0
18371 18369 17889 0
17889 18369 17887 0
18372 18371 17891 0
17891 18371 17889 0
17892 18372 17891 0
17893 17877 18350 0
18350 18351 17893 0
17893 18351 17895 0
18351 18352 18373 0
18351 18373 17896 0
18351 17896 17895 0
18374 18352 18353 0
18373 18352 18374 0
18374 18353 18355 0
18374 18355 17899 0
18374 17899 17898 0
18375 17901 17899 0
18375 17899 18355 0
18375 18355 18357 0
18376 17901 18375 0
17903 17901 18376 0
17903 18376 18378 0
17904 17903 18378 0
18377 17904 18378 0
18378 18379 18377 0
18380 18379 18378 0
18380 18381 18379 0
18382 18381 18380 0
18382 18383 17907 0
18381 18382 17907 0
17906 18381 17907 0
18384 17907 18383 0
17909 17907 18384 0
18385 17909 18384 0
17911 17909 18385 0
18386 17911 18385 0
17912 17911 18386 0
18387 17912 18386 0
17913 17912 18387 0
18388 17913 18387 0
17914 17913 18388 0
17914 18388 18390 0
17915 17914 18390 0
18389 17915 18390 0
18358 18391 18389 0
18359 18358 18389 0
18390 18359 18389 0
18392 18358 18361 0
18391 18358 18392 0
18394 18392 18364 0
18392 18361 18364 0
17916 18393 18363 0
17878 17916 18363 0
18393 18365 18363 0
18395 18365 18393 0
18395 18366 18365 0
18396 18366 18395 0
18396 18367 18366 0
18397 18367 18396 0
18368 18367 18397 0
17919 18368 18397 0
17918 17919 18397 0
17919 17882 18368 0
18370 18369 18398 0
18369 18399 18398 0
18371 18399 18369 0
18371 18400 18399 0
18372 18400 18371 0
17892 17924 18401 0
17892 18401 18400 0
17892 18400 18372 0
18403 18402 18404 0
18404 18402 18405 0
17926 17896 18373 0
18373 18374 17926 0
17926 18374 17928 0
18374 17898 17928 0
17933 17904 18377 0
18377 18379 17933 0
17933 18379 17935 0
18379 18381 17935 0
17935 18381 17937 0
18381 17906 17937 0
17941 17915 18389 0
18389 18391 17941 0
17941 18391 17942 0
18391 18392 17942 0
17942 18392 17943 0
17943 18392 18394 0
17943 18394 18406 0
17916 17943 18406 0
18393 17916 18406 0
18406 18407 18393 0
18393 18407 18395 0
18408 18396 18395 0
18408 18395 18407 0
18408 18407 18409 0
18408 18397 18396 0
18410 18397 18408 0
18397 17945 17918 0
18410 17945 18397 0
17924 18411 18401 0
17947 18411 17924 0
18403 18413 18402 0
18402 18413 18412 0
18402 18412 18414 0
18402 18414 18415 0
18402 18415 18405 0
18415 18414 18416 0
18409 18418 18408 0
18408 18418 18417 0
18417 18410 18408 0
18419 18410 18417 0
18410 17950 17945 0
18419 17950 18410 0
17953 17952 18420 0
18421 18411 17947 0
18421 17947 17953 0
18421 17953 18420 0
18422 18412 18413 0
18422 18423 18412 0
18412 18423 18414 0
18423 18416 18414 0
18418 18425 18417 0
18417 18425 18424 0
18424 18419 18417 0
18426 18419 18424 0
18419 17954 17950 0
18426 17954 18419 0
18427 17952 17956 0
18420 17952 18427 0
18420 18427 18428 0
18420 18428 18429 0
18420 18429 18421 0
18429 18428 18430 0
18425 18432 18424 0
18424 18432 18431 0
18431 18426 18424 0
18433 18426 18431 0
18426 17957 17954 0
18433 17957 18426 0
18427 17956 17959 0
18434 18428 18427 0
17960 18434 18427 0
17959 17960 18427 0
18428 18434 18435 0
18428 18435 18436 0
18428 18436 18430 0
18436 18435 18437 0
18438 18431 18432 0
18439 18433 18431 0
18439 18431 18438 0
18439 18438 18440 0
18433 17961 17957 0
18439 17961 18433 0
18434 17960 17964 0
18441 18435 18434 0
17965 18441 18434 0
17964 17965 18434 0
18435 18441 18442 0
18435 18442 18443 0
18435 18443 18437 0
18443 18442 18444 0
18446 18445 18447 0
18445 18448 18447 0
18447 18448 18449 0
18449 18448 18450 0
18451 18439 18440 0
18452 17966 17961 0
18451 18452 17961 0
18439 18451 17961 0
18441 17965 17969 0
18453 18442 18441 0
17970 18453 18441 0
17969 17970 18441 0
18442 18453 18454 0
18442 18454 18455 0
18442 18455 18444 0
18455 18454 18456 0
18446 18458 18445 0
18445 18458 18457 0
18457 18448 18445 0
18459 18448 18457 0
18448 18459 18450 0
18450 18459 18460 0
17971 18452 18461 0
17966 18452 17971 0
18453 17970 17974 0
18462 18454 18453 0
17975 18462 18453 0
17974 17975 18453 0
18454 18462 18463 0
18454 18463 18464 0
18454 18464 18456 0
18464 18463 18465 0
18466 18457 18458 0
18466 18467 18457 0
18457 18467 18459 0
18467 18460 18459 0
17977 18461 18468 0
17971 18461 17977 0
18462 17975 17980 0
18469 18463 18462 0
17981 18469 18462 0
17980 17981 18462 0
18463 18469 18470 0
18463 18470 18471 0
18463 18471 18465 0
18471 18470 18472 0
17983 18468 18473 0
17977 18468 17983 0
18469 17981 17986 0
17986 18470 18469 0
17988 18470 17986 0
18470 18475 18472 0
18470 17988 18475 0
17988 18474 18475 0
17989 18474 17988 0
18474 18476 18475 0
18475 18476 18477 0
18476 18478 18477 0
18477 18478 18479 0
18479 18478 18480 0
17983 18473 18482 0
17983 18482 18481 0
17983 18481 17990 0
17990 18481 17991 0
18474 17989 17993 0
18483 18476 18474 0
17994 18483 18474 0
17993 17994 18474 0
18483 18478 18476 0
18484 18478 18483 0
18478 18484 18485 0
18478 18485 18486 0
18478 18486 18480 0
18485 18487 18486 0
18486 18487 18488 0
18487 18489 18488 0
18488 18489 18490 0
18489 18491 18490 0
18490 18491 18492 0
18491 18493 18492 0
18492 18493 18494 0
18493 18495 18494 0
18494 18495 18496 0
18495 18497 18496 0
18496 18497 18498 0
18497 18499 18498 0
18498 18499 18500 0
18499 18501 18500 0
18500 18501 18502 0
18502 18501 18503 0
18482 18505 18481 0
18481 18505 18504 0
18481 17995 17991 0
18504 17995 18481 0
18483 17994 17997 0
17997 18484 18483 0
17999 18484 17997 0
17999 18485 18484 0
18001 18485 17999 0
18001 18487 18485 0
18003 18487 18001 0
18506 18489 18487 0
18004 18506 18487 0
18003 18004 18487 0
18506 18491 18489 0
18507 18491 18506 0
18507 18493 18491 0
18508 18493 18507 0
18508 18495 18493 0
18509 18495 18508 0
18509 18497 18495 0
18510 18497 18509 0
18510 18499 18497 0
18511 18499 18510 0
18511 18501 18499 0
18512 18501 18511 0
18501 18512 18513 0
18501 18513 18514 0
18501 18514 18503 0
18514 18513 18515 0
18505 18517 18504 0
18504 18517 18516 0
18504 18005 17995 0
18516 18005 18504 0
18506 18004 18007 0
18007 18507 18506 0
18009 18507 18007 0
18009 18508 18507 0
18011 18508 18009 0
18011 18509 18508 0
18013 18509 18011 0
18013 18510 18509 0
18015 18510 18013 0
18015 18511 18510 0
18016 18511 18015 0
18016 18512 18511 0
18017 18512 18016 0
18017 18513 18512 0
18019 18513 18017 0
18019 18021 18518 0
18513 18019 18518 0
18515 18513 18518 0
18518 18023 18519 0
18021 18023 18518 0
18519 18025 18520 0
18023 18025 18519 0
18520 18027 18521 0
18025 18027 18520 0
18523 18521 18027 0
18523 18027 18028 0
18523 18028 18522 0
18523 18522 18524 0
18517 18526 18516 0
18516 18526 18525 0
18516 18029 18005 0
18525 18029 18516 0
18522 18028 18030 0
18030 18031 18527 0
18522 18030 18527 0
18524 18522 18527 0
18527 18032 18528 0
18031 18032 18527 0
18528 18032 18529 0
18529 18032 18033 0
18526 18531 18525 0
18525 18531 18530 0
18525 18034 18029 0
18530 18034 18525 0
18529 18036 18532 0
18033 18036 18529 0
18532 18036 18533 0
18533 18036 18037 0
18535 18534 18536 0
18040 18537 18536 0
18040 18536 18534 0
18040 18534 18039 0
18537 18040 18042 0
18531 18537 18042 0
18530 18531 18042 0
18042 18034 18530 0
18037 18538 18533 0
18043 18538 18037 0
18540 18539 18541 0
18539 18542 18541 0
18541 18542 18543 0
18542 18544 18543 0
18543 18544 18545 0
18544 18546 18534 0
18544 18534 18535 0
18544 18535 18545 0
18534 18045 18039 0
18546 18045 18534 0
18538 18047 18547 0
18043 18047 18538 0
18047 18540 18547 0
18047 18539 18540 0
18048 18539 18047 0
18548 18539 18048 0
18542 18539 18548 0
18050 18542 18548 0
18049 18050 18548 0
18050 18544 18542 0
18052 18544 18050 0
18052 18546 18544 0
18054 18546 18052 0
18054 18045 18546 0
18548 18048 18055 0
18055 18049 18548 0
18070 18069 18549 0
18071 18549 18550 0
18070 18549 18071 0
18071 18550 18073 0
18077 18076 18551 0
18077 18551 18078 0
18553 18080 18552 0
18081 18080 18553 0
18081 18553 18554 0
18081 18554 18549 0
18081 18549 18069 0
18555 18550 18549 0
18555 18549 18554 0
18555 18554 18556 0
18550 18083 18073 0
18555 18083 18550 0
18086 18085 18557 0
18557 18558 18551 0
18086 18557 18551 0
18076 18086 18551 0
18551 18087 18078 0
18558 18087 18551 0
18089 18088 18559 0
18561 18090 18089 0
18560 18561 18089 0
18559 18560 18089 0
18090 18561 18080 0
18080 18561 18552 0
18556 18563 18555 0
18555 18563 18562 0
18555 18092 18083 0
18562 18092 18555 0
18564 18085 18094 0
18557 18085 18564 0
18564 18558 18557 0
18565 18558 18564 0
18558 18095 18087 0
18565 18095 18558 0
18088 18098 18566 0
18559 18088 18566 0
18567 18559 18566 0
18567 18560 18559 0
18563 18569 18562 0
18562 18569 18568 0
18562 18568 18570 0
18092 18562 18570 0
18099 18092 18570 0
18100 18570 18571 0
18099 18570 18100 0
18571 18572 18564 0
18100 18571 18564 0
18094 18100 18564 0
18572 18565 18564 0
18573 18565 18572 0
18565 18101 18095 0
18573 18101 18565 0
18575 18103 18574 0
18104 18103 18575 0
18576 18104 18575 0
18105 18104 18576 0
18105 18576 18098 0
18098 18576 18566 0
18577 18568 18569 0
18577 18578 18568 0
18568 18578 18570 0
18578 18579 18570 0
18570 18579 18571 0
18579 18580 18571 0
18571 18580 18572 0
18580 18581 18572 0
18572 18581 18573 0
18582 18106 18101 0
18581 18582 18101 0
18573 18581 18101 0
18584 18108 18583 0
18109 18108 18584 0
18109 18584 18103 0
18103 18584 18574 0
18114 18582 18585 0
18106 18582 18114 0
18587 18116 18586 0
18117 18116 18587 0
18117 18587 18108 0
18108 18587 18583 0
18588 18121 18589 0
18589 18121 18122 0
18589 18122 18590 0
18590 18122 18123 0
18125 18585 18591 0
18114 18585 18125 0
18127 18126 18592 0
18594 18128 18127 0
18593 18594 18127 0
18592 18593 18127 0
18128 18594 18116 0
18116 18594 18586 0
18595 18129 18130 0
18130 18131 18597 0
18130 18597 18596 0
18130 18596 18595 0
18597 18121 18588 0
18131 18121 18597 0
18598 18133 18132 0
18599 18590 18123 0
18599 18123 18133 0
18599 18133 18598 0
18125 18591 18601 0
18125 18601 18600 0
18125 18600 18136 0
18136 18600 18137 0
18126 18139 18602 0
18592 18126 18602 0
18603 18592 18602 0
18603 18593 18592 0
18604 18140 18129 0
18604 18129 18595 0
18604 18595 18605 0
18595 18596 18605 0
18132 18141 18606 0
18598 18132 18606 0
18607 18598 18606 0
18607 18599 18598 0
18608 18142 18143 0
18145 18608 18143 0
18609 18600 18601 0
18610 18146 18137 0
18609 18610 18137 0
18600 18609 18137 0
18148 18147 18611 0
18613 18149 18148 0
18612 18613 18148 0
18611 18612 18148 0
18149 18613 18139 0
18139 18613 18602 0
18614 18151 18615 0
18615 18151 18152 0
18615 18154 18616 0
18152 18154 18615 0
18140 18616 18154 0
18604 18616 18140 0
18141 18617 18606 0
18155 18617 18141 0
18618 18157 18158 0
18608 18619 18618 0
18608 18618 18158 0
18608 18158 18142 0
18145 18160 18608 0
18608 18160 18619 0
18161 18610 18620 0
18146 18610 18161 0
18163 18162 18621 0
18611 18622 18623 0
18611 18147 18622 0
18147 18621 18622 0
18163 18621 18147 0
18623 18612 18611 0
18164 18614 18624 0
18151 18614 18164 0
18617 18165 18625 0
18155 18165 18617 0
18625 18165 18627 0
18165 18626 18627 0
18165 18157 18626 0
18157 18618 18626 0
18626 18618 18619 0
18626 18619 18168 0
18626 18168 18167 0
18619 18160 18168 0
18629 18628 18630 0
18628 18631 18630 0
18630 18631 18632 0
18631 18633 18632 0
18632 18633 18634 0
18634 18633 18635 0
18170 18620 18636 0
18161 18620 18170 0
18638 18172 18637 0
18173 18172 18638 0
18173 18638 18639 0
18173 18639 18621 0
18173 18621 18162 0
18639 18622 18621 0
18174 18624 18640 0
18164 18624 18174 0
18643 18641 18642 0
18626 18644 18641 0
18627 18626 18641 0
18643 18627 18641 0
18167 18176 18626 0
18626 18176 18644 0
18629 18645 18178 0
18629 18178 18179 0
18629 18179 18628 0
18179 18631 18628 0
18180 18631 18179 0
18180 18633 18631 0
18181 18633 18180 0
18181 18182 18646 0
18633 18181 18646 0
18635 18633 18646 0
18646 18182 18647 0
18647 18182 18183 0
18184 18636 18648 0
18170 18636 18184 0
18650 18186 18649 0
18187 18186 18650 0
18651 18187 18650 0
18188 18187 18651 0
18188 18651 18172 0
18172 18651 18637 0
18652 18189 18653 0
18653 18189 18190 0
18653 18191 18654 0
18190 18191 18653 0
18174 18654 18191 0
18640 18654 18174 0
18641 18656 18642 0
18655 18656 18641 0
18657 18641 18644 0
18655 18641 18657 0
18176 18660 18644 0
18176 18193 18660 0
18193 18658 18660 0
18644 18660 18657 0
18657 18660 18659 0
18195 18661 18660 0
18195 18660 18658 0
18195 18658 18194 0
18178 18661 18195 0
18645 18661 18178 0
18647 18183 18196 0
18663 18647 18196 0
18662 18663 18196 0
18662 18664 18663 0
18663 18664 18665 0
18197 18184 18648 0
18664 18197 18648 0
18665 18664 18648 0
18668 18666 18667 0
18668 18669 18199 0
18666 18668 18199 0
18198 18666 18199 0
18670 18199 18669 0
18200 18199 18670 0
18200 18670 18186 0
18186 18670 18649 0
18671 18201 18672 0
18672 18201 18202 0
18189 18672 18202 0
18652 18672 18189 0
18204 18673 18656 0
18205 18204 18656 0
18655 18205 18656 0
18655 18657 18205 0
18205 18657 18207 0
18674 18207 18675 0
18674 18658 18207 0
18658 18193 18207 0
18675 18207 18659 0
18659 18207 18657 0
18658 18209 18194 0
18674 18209 18658 0
18662 18196 18211 0
18676 18664 18662 0
18212 18676 18662 0
18211 18212 18662 0
18664 18213 18197 0
18676 18213 18664 0
18678 18217 18677 0
18218 18217 18678 0
18219 18218 18678 0
18219 18678 18667 0
18219 18667 18666 0
18666 18198 18219 0
18679 18221 18680 0
18680 18221 18222 0
18680 18224 18681 0
18222 18224 18680 0
18201 18681 18224 0
18671 18681 18201 0
18204 18682 18673 0
18226 18682 18204 0
18675 18683 18228 0
18675 18228 18229 0
18675 18229 18674 0
18229 18209 18674 0
18676 18212 18232 0
18232 18213 18676 0
18234 18233 18684 0
18686 18235 18234 0
18685 18686 18234 0
18684 18685 18234 0
18687 18235 18686 0
18236 18235 18687 0
18688 18236 18687 0
18237 18236 18688 0
18689 18237 18688 0
18238 18237 18689 0
18238 18689 18217 0
18217 18689 18677 0
18239 18679 18690 0
18221 18679 18239 0
18682 18240 18691 0
18226 18240 18682 0
18691 18241 18692 0
18240 18241 18691 0
18228 18692 18241 0
18683 18692 18228 0
18694 18242 18693 0
18243 18242 18694 0
18243 18694 18695 0
18243 18695 18684 0
18243 18684 18233 0
18695 18685 18684 0
18244 18690 18696 0
18239 18690 18244 0
18698 18247 18697 0
18248 18247 18698 0
18699 18248 18698 0
18249 18248 18699 0
18700 18249 18699 0
18250 18249 18700 0
18701 18250 18700 0
18251 18250 18701 0
18251 18701 18242 0
18242 18701 18693 0
18702 18253 18703 0
18703 18253 18254 0
18703 18255 18704 0
18254 18255 18703 0
18704 18256 18705 0
18255 18256 18704 0
18705 18257 18706 0
18256 18257 18705 0
18244 18706 18257 0
18696 18706 18244 0
18709 18707 18708 0
18709 18710 18259 0
18707 18709 18259 0
18258 18707 18259 0
18711 18259 18710 0
18260 18259 18711 0
18712 18260 18711 0
18261 18260 18712 0
18713 18261 18712 0
18262 18261 18713 0
18714 18262 18713 0
18263 18262 18714 0
18263 18714 18247 0
18247 18714 18697 0
18264 18702 18715 0
18253 18702 18264 0
18269 18268 18716 0
18717 18708 18716 0
18708 18269 18716 0
18708 18707 18269 0
18707 18270 18269 0
18707 18258 18270 0
18718 18271 18719 0
18719 18271 18272 0
18264 18719 18272 0
18715 18719 18264 0
18275 18274 18720 0
18722 18276 18275 0
18721 18722 18275 0
18720 18721 18275 0
18723 18276 18722 0
18277 18276 18723 0
18278 18277 18723 0
18724 18278 18723 0
18725 18724 18723 0
18716 18726 18727 0
18716 18268 18726 0
18268 18724 18726 0
18278 18724 18268 0
18727 18717 18716 0
18728 18281 18729 0
18729 18281 18282 0
18271 18729 18282 0
18718 18729 18271 0
18730 18274 18284 0
18720 18274 18730 0
18720 18730 18721 0
18721 18730 18731 0
18732 18724 18725 0
18732 18726 18724 0
18733 18285 18286 0
18734 18733 18287 0
18287 18733 18286 0
18287 18288 18736 0
18287 18736 18735 0
18287 18735 18734 0
18281 18736 18288 0
18728 18736 18281 0
18737 18284 18290 0
18730 18284 18737 0
18730 18737 18731 0
18731 18737 18738 0
18739 18294 18295 0
18740 18733 18741 0
18740 18739 18733 0
18739 18285 18733 0
18295 18285 18739 0
18733 18742 18741 0
18734 18742 18733 0
18734 18735 18742 0
18743 18290 18297 0
18737 18290 18743 0
18737 18743 18738 0
18738 18743 18744 0
18745 18298 18299 0
18746 18745 18300 0
18300 18745 18299 0
18747 18746 18301 0
18301 18746 18300 0
18748 18739 18749 0
18748 18747 18739 0
18747 18294 18739 0
18301 18294 18747 0
18739 18740 18749 0
18743 18297 18304 0
18305 18750 18744 0
18305 18744 18743 0
18305 18743 18304 0
18751 18307 18298 0
18751 18298 18745 0
18751 18745 18752 0
18745 18753 18752 0
18746 18753 18745 0
18746 18754 18753 0
18747 18754 18746 0
18747 18748 18754 0
18305 18755 18750 0
18311 18755 18305 0
18756 18312 18751 0
18751 18312 18307 0
18757 18312 18756 0
18313 18312 18757 0
18758 18313 18757 0
18315 18313 18758 0
18759 18315 18758 0
18316 18315 18759 0
18319 18318 18760 0
18761 18755 18311 0
18761 18311 18319 0
18761 18319 18760 0
18321 18759 18762 0
18316 18759 18321 0
18763 18318 18326 0
18760 18318 18763 0
18760 18763 18761 0
18761 18763 18764 0
18328 18762 18765 0
18321 18762 18328 0
18766 18326 18333 0
18763 18326 18766 0
18763 18766 18764 0
18764 18766 18767 0
18336 18765 18768 0
18328 18765 18336 0
18766 18333 18337 0
18766 18770 18767 0
18766 18337 18770 0
18337 18769 18770 0
18338 18769 18337 0
18770 18769 18771 0
18343 18336 18768 0
18343 18768 18773 0
18343 18773 18772 0
18774 18772 18773 0
18769 18338 18348 0
18769 18776 18771 0
18769 18348 18776 0
18348 18775 18776 0
18349 18775 18348 0
18776 18775 18777 0
18354 18343 18772 0
18778 18356 18354 0
18778 18354 18772 0
18778 18772 18774 0
18356 18778 18780 0
18357 18356 18780 0
18779 18357 18780 0
18780 18781 18779 0
18782 18781 18780 0
18783 18781 18782 0
18785 18359 18784 0
18360 18359 18785 0
18786 18360 18785 0
18362 18360 18786 0
18787 18362 18786 0
18364 18362 18787 0
18788 18349 18370 0
18775 18349 18788 0
18775 18788 18789 0
18775 18789 18790 0
18775 18790 18777 0
18790 18789 18791 0
18793 18792 18794 0
18794 18792 18795 0
18375 18357 18779 0
18779 18781 18375 0
18375 18781 18376 0
18796 18378 18376 0
18796 18376 18781 0
18796 18781 18783 0
18797 18378 18796 0
18380 18378 18797 0
18798 18380 18797 0
18382 18380 18798 0
18799 18382 18798 0
18383 18382 18799 0
18800 18383 18799 0
18384 18383 18800 0
18801 18384 18800 0
18385 18384 18801 0
18802 18385 18801 0
18386 18385 18802 0
18803 18386 18802 0
18387 18386 18803 0
18804 18387 18803 0
18388 18387 18804 0
18390 18388 18804 0
18805 18390 18804 0
18806 18805 18804 0
18807 18784 18359 0
18807 18359 18390 0
18807 18390 18805 0
18394 18787 18808 0
18364 18787 18394 0
18788 18370 18398 0
18398 18789 18788 0
18399 18789 18398 0
18399 18400 18809 0
18789 18399 18809 0
18791 18789 18809 0
18811 18809 18400 0
18811 18400 18401 0
18811 18401 18810 0
18404 18812 18811 0
18404 18811 18810 0
18404 18810 18403 0
18812 18404 18813 0
18813 18404 18405 0
18814 18792 18793 0
18814 18795 18792 0
18815 18805 18806 0
18815 18807 18805 0
18816 18406 18808 0
18808 18406 18394 0
18817 18406 18816 0
18407 18406 18817 0
18818 18407 18817 0
18409 18407 18818 0
18819 18401 18411 0
18810 18401 18819 0
18810 18413 18403 0
18819 18413 18810 0
18813 18415 18820 0
18405 18415 18813 0
18820 18415 18821 0
18821 18415 18416 0
18418 18818 18822 0
18409 18818 18418 0
18823 18411 18421 0
18819 18411 18823 0
18819 18823 18824 0
18413 18819 18824 0
18422 18413 18824 0
18423 18824 18825 0
18422 18824 18423 0
18826 18821 18416 0
18826 18416 18423 0
18826 18423 18825 0
18425 18822 18827 0
18418 18822 18425 0
18823 18421 18429 0
18828 18824 18823 0
18430 18828 18823 0
18429 18430 18823 0
18828 18825 18824 0
18829 18825 18828 0
18825 18829 18826 0
18826 18829 18830 0
18432 18827 18831 0
18425 18827 18432 0
18828 18430 18436 0
18832 18829 18828 0
18437 18832 18828 0
18436 18437 18828 0
18829 18832 18833 0
18829 18833 18834 0
18829 18834 18830 0
18834 18833 18835 0
18432 18831 18837 0
18432 18837 18836 0
18432 18836 18438 0
18438 18836 18440 0
18832 18437 18443 0
18838 18833 18832 0
18444 18838 18832 0
18443 18444 18832 0
18833 18838 18839 0
18833 18839 18840 0
18833 18840 18835 0
18839 18841 18840 0
18840 18841 18842 0
18842 18841 18843 0
18844 18446 18447 0
18447 18449 18846 0
18447 18846 18845 0
18447 18845 18844 0
18848 18846 18449 0
18848 18449 18450 0
18848 18450 18847 0
18847 18849 18848 0
18848 18849 18850 0
18850 18849 18851 0
18837 18853 18836 0
18836 18853 18852 0
18836 18852 18854 0
18440 18836 18854 0
18451 18440 18854 0
18451 18854 18452 0
18838 18444 18455 0
18855 18839 18838 0
18456 18855 18838 0
18455 18456 18838 0
18855 18841 18839 0
18856 18841 18855 0
18841 18856 18857 0
18841 18857 18858 0
18841 18858 18843 0
18844 18858 18446 0
18844 18859 18858 0
18859 18860 18858 0
18446 18858 18458 0
18458 18858 18857 0
18845 18859 18844 0
18861 18859 18845 0
18862 18450 18460 0
18847 18450 18862 0
18862 18849 18847 0
18863 18849 18862 0
18849 18863 18851 0
18851 18863 18864 0
18865 18852 18853 0
18866 18854 18852 0
18866 18852 18865 0
18866 18865 18867 0
18854 18461 18452 0
18866 18461 18854 0
18855 18456 18464 0
18868 18856 18855 0
18465 18868 18855 0
18464 18465 18855 0
18868 18857 18856 0
18869 18857 18868 0
18871 18860 18859 0
18458 18857 18466 0
18857 18870 18466 0
18869 18870 18857 0
18467 18870 18872 0
18466 18870 18467 0
18861 18871 18859 0
18872 18873 18862 0
18467 18872 18862 0
18460 18467 18862 0
18873 18863 18862 0
18874 18863 18873 0
18863 18874 18864 0
18864 18874 18875 0
18867 18877 18866 0
18866 18877 18876 0
18866 18468 18461 0
18876 18468 18866 0
18868 18465 18471 0
18878 18869 18868 0
18472 18878 18868 0
18471 18472 18868 0
18878 18870 18869 0
18879 18870 18878 0
18879 18872 18870 0
18880 18872 18879 0
18880 18873 18872 0
18881 18873 18880 0
18881 18874 18873 0
18882 18874 18881 0
18874 18882 18883 0
18874 18883 18884 0
18874 18884 18875 0
18883 18885 18884 0
18884 18885 18886 0
18885 18887 18886 0
18886 18887 18888 0
18887 18889 18888 0
18888 18889 18890 0
18889 18891 18890 0
18890 18891 18892 0
18892 18891 18893 0
18877 18895 18876 0
18876 18895 18894 0
18876 18473 18468 0
18894 18473 18876 0
18878 18472 18475 0
18475 18879 18878 0
18477 18879 18475 0
18477 18880 18879 0
18479 18880 18477 0
18896 18881 18880 0
18480 18896 18880 0
18479 18480 18880 0
18896 18882 18881 0
18897 18882 18896 0
18897 18883 18882 0
18898 18883 18897 0
18898 18885 18883 0
18899 18885 18898 0
18899 18887 18885 0
18900 18887 18899 0
18900 18889 18887 0
18901 18889 18900 0
18901 18891 18889 0
18902 18891 18901 0
18891 18902 18903 0
18891 18903 18904 0
18891 18904 18893 0
18903 18905 18904 0
18904 18905 18906 0
18906 18905 18907 0
18895 18909 18894 0
18894 18909 18908 0
18894 18482 18473 0
18908 18482 18894 0
18896 18480 18486 0
18486 18897 18896 0
18488 18897 18486 0
18488 18898 18897 0
18490 18898 18488 0
18490 18899 18898 0
18492 18899 18490 0
18492 18900 18899 0
18494 18900 18492 0
18494 18901 18900 0
18496 18901 18494 0
18496 18902 18901 0
18498 18902 18496 0
18498 18903 18902 0
18500 18903 18498 0
18500 18905 18903 0
18502 18905 18500 0
18905 18911 18907 0
18905 18502 18911 0
18502 18910 18911 0
18503 18910 18502 0
18910 18912 18911 0
18911 18912 18913 0
18912 18914 18913 0
18913 18914 18915 0
18915 18914 18916 0
18909 18918 18908 0
18908 18918 18917 0
18908 18505 18482 0
18917 18505 18908 0
18910 18503 18514 0
18919 18912 18910 0
18515 18919 18910 0
18514 18515 18910 0
18919 18914 18912 0
18920 18914 18919 0
18914 18920 18921 0
18914 18921 18922 0
18914 18922 18916 0
18921 18923 18922 0
18922 18923 18924 0
18924 18923 18925 0
18918 18927 18917 0
18917 18927 18926 0
18917 18517 18505 0
18926 18517 18917 0
18919 18515 18518 0
18518 18920 18919 0
18519 18920 18518 0
18519 18921 18920 0
18520 18921 18519 0
18520 18923 18921 0
18521 18923 18520 0
18521 18523 18928 0
18923 18521 18928 0
18925 18923 18928 0
18930 18928 18523 0
18930 18523 18524 0
18930 18524 18929 0
18929 18931 18930 0
18930 18931 18932 0
18932 18931 18933 0
18935 18934 18936 0
18934 18937 18926 0
18934 18926 18927 0
18934 18927 18936 0
18926 18526 18517 0
18937 18526 18926 0
18929 18524 18527 0
18527 18931 18929 0
18528 18931 18527 0
18529 18938 18933 0
18529 18933 18931 0
18529 18931 18528 0
18935 18940 18934 0
18934 18940 18939 0
18939 18937 18934 0
18941 18937 18939 0
18937 18531 18526 0
18941 18531 18937 0
18938 18532 18942 0
18529 18532 18938 0
18942 18532 18943 0
18943 18532 18533 0
18945 18944 18946 0
18946 18944 18947 0
18940 18948 18535 0
18940 18535 18536 0
18940 18536 18939 0
18536 18941 18939 0
18537 18941 18536 0
18537 18531 18941 0
18533 18949 18943 0
18538 18949 18533 0
18945 18950 18540 0
18945 18540 18541 0
18945 18541 18944 0
18541 18543 18951 0
18944 18541 18951 0
18947 18944 18951 0
18951 18545 18952 0
18543 18545 18951 0
18535 18952 18545 0
18948 18952 18535 0
18949 18547 18953 0
18538 18547 18949 0
18540 18953 18547 0
18950 18953 18540 0
18553 18552 18954 0
18554 18954 18955 0
18553 18954 18554 0
18554 18955 18556 0
18561 18560 18956 0
18956 18957 18954 0
18561 18956 18954 0
18552 18561 18954 0
18957 18955 18954 0
18958 18955 18957 0
18955 18563 18556 0
18958 18563 18955 0
18960 18566 18959 0
18567 18566 18960 0
18567 18960 18961 0
18567 18961 18956 0
18567 18956 18560 0
18961 18962 18956 0
18956 18962 18957 0
18963 18958 18957 0
18963 18957 18962 0
18963 18962 18964 0
18958 18569 18563 0
18963 18569 18958 0
18966 18574 18965 0
18575 18574 18966 0
18967 18575 18966 0
18576 18575 18967 0
18576 18967 18566 0
18566 18967 18959 0
18968 18963 18964 0
18968 18569 18963 0
18968 18970 18569 0
18970 18577 18569 0
18969 18577 18970 0
18578 18969 18971 0
18577 18969 18578 0
18579 18971 18972 0
18578 18971 18579 0
18580 18972 18973 0
18579 18972 18580 0
18581 18973 18974 0
18580 18973 18581 0
18581 18974 18582 0
18976 18583 18975 0
18584 18583 18976 0
18584 18976 18574 0
18574 18976 18965 0
18970 18978 18969 0
18969 18978 18977 0
18977 18971 18969 0
18979 18971 18977 0
18979 18972 18971 0
18980 18972 18979 0
18980 18973 18972 0
18981 18973 18980 0
18981 18974 18973 0
18982 18974 18981 0
18974 18585 18582 0
18982 18585 18974 0
18984 18586 18983 0
18587 18586 18984 0
18587 18984 18583 0
18583 18984 18975 0
18985 18588 18589 0
18590 18985 18589 0
18978 18987 18977 0
18977 18987 18986 0
18986 18979 18977 0
18988 18979 18986 0
18988 18980 18979 0
18989 18980 18988 0
18989 18981 18980 0
18990 18981 18989 0
18990 18982 18981 0
18991 18982 18990 0
18982 18591 18585 0
18991 18591 18982 0
18594 18593 18992 0
18993 18983 18586 0
18993 18586 18594 0
18993 18594 18992 0
18994 18596 18995 0
18995 18596 18597 0
18995 18597 18997 0
18597 18996 18997 0
18597 18588 18996 0
18588 18985 18996 0
18590 18599 18985 0
18985 18599 18996 0
18998 18986 18987 0
18998 18999 18986 0
18986 18999 18988 0
18999 19000 18988 0
18988 19000 18989 0
19001 18990 18989 0
19001 18989 19000 0
19001 19000 19002 0
19001 18991 18990 0
19003 18991 19001 0
18991 18601 18591 0
19003 18601 18991 0
19005 18602 19004 0
18603 18602 19005 0
18603 19005 19006 0
18603 19006 18992 0
18603 18992 18593 0
19006 18993 18992 0
19007 18604 19008 0
19008 18604 18605 0
18596 19008 18605 0
18994 19008 18596 0
18606 19009 18997 0
18607 18606 18997 0
18996 18607 18997 0
18996 18599 18607 0
19010 19001 19002 0
19010 19011 19001 0
19001 19011 19003 0
19011 19012 18609 0
19011 18609 18601 0
19011 18601 19003 0
19013 18609 19012 0
18610 18609 19013 0
19015 18612 19014 0
18613 18612 19015 0
18613 19015 18602 0
18602 19015 19004 0
19016 18614 19017 0
19017 18614 18615 0
19017 18616 19018 0
18615 18616 19017 0
18604 19018 18616 0
19007 19018 18604 0
18606 19019 19009 0
18617 19019 18606 0
19021 19020 19022 0
19020 19023 19022 0
19022 19023 19024 0
19023 19025 19024 0
19024 19025 19026 0
19026 19025 19027 0
18620 19013 19028 0
18610 19013 18620 0
19030 18622 19029 0
18623 18622 19030 0
18623 19030 18612 0
18612 19030 19014 0
18624 19016 19031 0
18614 19016 18624 0
19033 19019 18617 0
19032 19033 18617 0
18625 19032 18617 0
18627 19032 18625 0
19035 19034 19036 0
19034 19037 19036 0
19036 19037 19038 0
19037 19021 19038 0
19037 18629 19021 0
18629 19020 19021 0
18630 19020 18629 0
18630 19023 19020 0
18632 19023 18630 0
18632 19025 19023 0
18634 19025 18632 0
18635 19039 19027 0
18635 19027 19025 0
18635 19025 18634 0
18636 19028 19040 0
18620 19028 18636 0
19042 18637 19041 0
18638 18637 19042 0
19043 18638 19042 0
18639 18638 19043 0
18639 19043 18622 0
18622 19043 19029 0
18640 19031 19044 0
18624 19031 18640 0
18642 19045 19033 0
18643 18642 19033 0
19032 18643 19033 0
19032 18627 18643 0
19035 19047 19034 0
19034 19047 19046 0
19046 19037 19034 0
19048 19037 19046 0
19037 18645 18629 0
19048 18645 19037 0
19039 18646 19049 0
18635 18646 19039 0
19051 19049 18646 0
19051 18646 18647 0
19051 18647 19050 0
19050 19052 19051 0
19051 19052 19053 0
18648 18636 19040 0
19052 18648 19040 0
19053 19052 19040 0
18650 18649 19054 0
19056 18651 18650 0
19055 19056 18650 0
19054 19055 18650 0
18651 19056 18637 0
18637 19056 19041 0
19057 18652 19058 0
19058 18652 18653 0
19058 18654 19059 0
18653 18654 19058 0
18640 19059 18654 0
19044 19059 18640 0
18642 19060 19045 0
18656 19060 18642 0
19062 19061 19063 0
19061 19047 19063 0
19061 18659 19047 0
18659 19046 19047 0
18660 19046 18659 0
18660 19048 19046 0
18661 19048 18660 0
18661 18645 19048 0
19050 18647 18663 0
18663 19052 19050 0
18665 19052 18663 0
18665 18648 19052 0
18668 18667 19064 0
18669 19064 19065 0
18668 19064 18669 0
18670 19065 19066 0
18669 19065 18670 0
19054 19067 19068 0
19054 18649 19067 0
18649 19066 19067 0
18670 19066 18649 0
19068 19055 19054 0
19069 18671 18672 0
18652 19057 19070 0
18672 18652 19070 0
19069 18672 19070 0
19073 19071 19072 0
19071 19073 19075 0
19076 19060 19074 0
19060 18673 19074 0
18656 18673 19060 0
19074 19077 19061 0
19074 19061 19062 0
19074 19062 19076 0
19061 18675 18659 0
19077 18675 19061 0
18678 18677 19078 0
19078 19079 19064 0
18678 19078 19064 0
18667 18678 19064 0
19065 19064 19079 0
19065 19079 19080 0
19065 19080 19081 0
19081 19082 19065 0
19065 19082 19066 0
19082 19067 19066 0
19083 18679 18680 0
18680 18681 19085 0
18680 19085 19084 0
18680 19084 19083 0
19086 19085 18681 0
19069 19086 18681 0
18671 19069 18681 0
19069 19070 19086 0
19089 19087 19088 0
19071 19090 19087 0
19072 19071 19087 0
19089 19072 19087 0
19092 19090 19075 0
19090 19071 19075 0
18682 19091 19074 0
18673 18682 19074 0
19091 19077 19074 0
19093 19077 19091 0
19077 18683 18675 0
19093 18683 19077 0
18686 18685 19094 0
18687 19094 19095 0
18686 19094 18687 0
18688 19095 19096 0
18687 19095 18688 0
19098 18689 18688 0
19097 19098 18688 0
19096 19097 18688 0
18689 19098 19099 0
18689 19099 19078 0
18689 19078 18677 0
19099 19100 19078 0
19078 19100 19079 0
19100 19080 19079 0
19101 18690 18679 0
19101 18679 19083 0
19101 19083 19102 0
19083 19084 19102 0
19087 19104 19088 0
19103 19104 19087 0
19105 19087 19090 0
19103 19087 19105 0
19105 19092 19106 0
19090 19092 19105 0
18691 19091 18682 0
18691 19093 19091 0
18692 19093 18691 0
18692 18683 19093 0
18694 18693 19107 0
18695 19107 19108 0
18694 19107 18695 0
19094 19109 19110 0
19094 18685 19109 0
18685 19108 19109 0
18695 19108 18685 0
19110 19111 19094 0
19094 19111 19095 0
19111 19112 19095 0
19095 19112 19096 0
19112 19097 19096 0
18696 19101 19113 0
18690 19101 18696 0
19104 19103 19114 0
19103 19115 19114 0
19105 19115 19103 0
19105 19106 19115 0
18698 18697 19116 0
18699 19116 19117 0
18698 19116 18699 0
19119 18700 18699 0
19118 19119 18699 0
19117 19118 18699 0
19120 18700 19119 0
18701 18700 19120 0
18701 19120 19121 0
18701 19121 19107 0
18701 19107 18693 0
19121 19122 19107 0
19107 19122 19108 0
19122 19109 19108 0
19123 18702 19124 0
19124 18702 18703 0
19124 18704 19125 0
18703 18704 19124 0
19125 18705 19126 0
18704 18705 19125 0
19126 18706 19127 0
18705 18706 19126 0
18696 19127 18706 0
19113 19127 18696 0
19130 19128 19129 0
19131 19128 19130 0
19133 18708 19132 0
18709 18708 19133 0
18710 18709 19133 0
19134 18710 19133 0
19135 19134 19133 0
19137 18711 18710 0
19136 19137 18710 0
19134 19136 18710 0
19138 18711 19137 0
18712 18711 19138 0
19139 18712 19138 0
18713 18712 19139 0
19140 18713 19139 0
18714 18713 19140 0
18714 19140 19141 0
18714 19141 19116 0
18714 19116 18697 0
19141 19142 19116 0
19116 19142 19117 0
19142 19118 19117 0
18715 19123 19143 0
18702 19123 18715 0
19128 19145 19129 0
19144 19145 19128 0
19131 19144 19128 0
19146 19144 19131 0
18708 19147 19132 0
18717 19147 18708 0
19148 19134 19135 0
19148 19136 19134 0
19149 18718 19150 0
19150 18718 18719 0
18715 19150 18719 0
19143 19150 18715 0
19145 19144 19151 0
19144 19146 19151 0
18722 18721 19152 0
18723 19152 19153 0
18722 19152 18723 0
18723 19153 18725 0
18727 18726 19154 0
19155 19147 18717 0
19155 18717 18727 0
19155 18727 19154 0
19156 18728 19157 0
19157 18728 18729 0
18718 19157 18729 0
19149 19157 18718 0
19158 18721 18731 0
19152 18721 19158 0
19153 19152 19158 0
19153 19158 19159 0
19153 19159 19160 0
19160 19161 18732 0
19160 18732 18725 0
19160 18725 19153 0
18732 19161 19162 0
18732 19162 19154 0
18732 19154 18726 0
19162 19155 19154 0
19163 18735 19164 0
19164 18735 18736 0
18728 19164 18736 0
19156 19164 18728 0
19165 18731 18738 0
19158 18731 19165 0
19158 19165 19159 0
19159 19165 19166 0
19167 18740 19168 0
19168 18740 18741 0
19168 18742 19169 0
18741 18742 19168 0
18735 19169 18742 0
19163 19169 18735 0
19170 18738 18744 0
19165 18738 19170 0
19165 19170 19166 0
19166 19170 19171 0
19172 18748 19173 0
19173 18748 18749 0
18740 19173 18749 0
19167 19173 18740 0
19174 18744 18750 0
19170 18744 19174 0
19170 19174 19171 0
19171 19174 19175 0
19176 18751 18752 0
19177 19176 18753 0
18753 19176 18752 0
18753 18754 19179 0
18753 19179 19178 0
18753 19178 19177 0
18748 19179 18754 0
19172 19179 18748 0
19180 18750 18755 0
19174 18750 19180 0
19174 19180 19175 0
19175 19180 19181 0
18756 18751 19176 0
19176 19183 18756 0
19176 19177 19183 0
19177 19184 19183 0
18756 19183 18757 0
18757 19183 19182 0
18758 19182 19185 0
18757 19182 18758 0
19178 19184 19177 0
18758 19185 18759 0
19186 18755 18761 0
19180 18755 19186 0
19180 19186 19181 0
19181 19186 19187 0
19189 19188 19190 0
19190 19188 19191 0
19192 19182 19183 0
19192 19193 19182 0
19182 19193 19185 0
19194 18762 18759 0
19193 19194 18759 0
19185 19193 18759 0
19195 18761 18764 0
19186 18761 19195 0
19186 19195 19187 0
19187 19195 19196 0
19189 19198 19188 0
19188 19198 19197 0
19188 19197 19199 0
19188 19199 19200 0
19188 19200 19191 0
19200 19199 19201 0
18765 19194 19202 0
18762 19194 18765 0
19203 18764 18767 0
19195 18764 19203 0
19195 19203 19204 0
19195 19204 19205 0
19195 19205 19196 0
19205 19204 19206 0
19208 19207 19209 0
19207 19210 19209 0
19209 19210 19211 0
19210 19212 19197 0
19210 19197 19198 0
19210 19198 19211 0
19199 19197 19212 0
19199 19212 19213 0
19199 19213 19214 0
19214 19201 19199 0
18768 18765 19202 0
18768 19202 19216 0
18768 19216 19215 0
19216 19217 19215 0
19218 19217 19216 0
19219 19217 19218 0
19203 18767 18770 0
19220 19204 19203 0
18771 19220 19203 0
18770 18771 19203 0
19204 19220 19206 0
19206 19220 19221 0
19222 19207 19208 0
19222 19223 19207 0
19207 19223 19210 0
19223 19224 19210 0
19210 19224 19212 0
19224 19213 19212 0
18773 18768 19215 0
19215 19217 19225 0
19215 19225 18774 0
19215 18774 18773 0
19219 19225 19217 0
19226 19225 19219 0
19220 18771 18776 0
19220 19228 19221 0
19220 18776 19228 0
18776 19227 19228 0
18777 19227 18776 0
19228 19227 19229 0
19231 19230 19232 0
19230 19233 19232 0
19232 19233 19234 0
19234 19233 19235 0
18778 18774 19225 0
19236 18780 18778 0
19236 18778 19225 0
19236 19225 19226 0
19237 18780 19236 0
18782 18780 19237 0
18782 19237 19239 0
18783 18782 19239 0
19238 18783 19239 0
19239 19240 19238 0
19241 19240 19239 0
19241 19242 19240 0
19243 19242 19241 0
19244 19242 19243 0
18785 18784 19245 0
18786 19245 19246 0
18785 19245 18786 0
18786 19246 18787 0
19227 18777 18790 0
19227 19248 19229 0
19227 18790 19248 0
18790 19247 19248 0
18791 19247 18790 0
19248 19247 19249 0
19251 19250 19252 0
19250 19253 19252 0
19252 19253 19254 0
19253 19255 19230 0
19253 19230 19231 0
19253 19231 19254 0
19233 19230 19255 0
18794 19233 19255 0
18793 18794 19255 0
18795 19256 19235 0
18795 19235 19233 0
18795 19233 18794 0
18796 18783 19238 0
19238 19240 18796 0
18796 19240 18797 0
19240 19242 18797 0
18797 19242 18798 0
19257 18799 18798 0
19257 18798 19242 0
19257 19242 19244 0
19258 18799 19257 0
18800 18799 19258 0
19259 18800 19258 0
18801 18800 19259 0
19260 18801 19259 0
18802 18801 19260 0
19261 18802 19260 0
18803 18802 19261 0
18804 18803 19261 0
19262 18804 19261 0
19263 19262 19261 0
18804 19262 18806 0
19264 18784 18807 0
19245 18784 19264 0
19264 19246 19245 0
19265 19246 19264 0
19246 18808 18787 0
19265 18808 19246 0
19247 18791 18809 0
18809 18811 19266 0
19247 18809 19266 0
19249 19247 19266 0
19266 18811 18812 0
19251 19266 18812 0
19250 19251 18812 0
19267 19253 19250 0
18813 19267 19250 0
18812 18813 19250 0
19267 19255 19253 0
19268 19255 19267 0
19268 18793 19255 0
19268 18814 18793 0
19269 18814 19268 0
19270 18814 19269 0
18814 19270 18795 0
18795 19270 19256 0
19271 19262 19263 0
19271 19272 18815 0
19271 18815 18806 0
19271 18806 19262 0
18815 19272 19273 0
18815 19273 19264 0
18815 19264 18807 0
19273 19274 19264 0
19264 19274 19265 0
19274 18808 19265 0
19274 19276 18808 0
19276 18816 18808 0
19275 18816 19276 0
18817 19275 19277 0
18816 19275 18817 0
18817 19277 18818 0
19267 18813 18820 0
19268 19267 19279 0
19267 19278 19279 0
19267 18820 19278 0
18820 18821 19278 0
19279 19269 19268 0
19281 19280 19282 0
19280 19283 19282 0
19282 19283 19284 0
19284 19283 19285 0
19276 19287 19275 0
19275 19287 19286 0
19286 19277 19275 0
19288 19277 19286 0
19277 18822 18818 0
19288 18822 19277 0
19278 18821 18826 0
19290 19278 18826 0
19289 19290 18826 0
19289 19291 19290 0
19290 19291 19292 0
19280 19281 19292 0
19280 19292 19291 0
19294 19280 19291 0
19293 19294 19291 0
19294 19295 19280 0
19280 19295 19283 0
19295 19285 19283 0
19287 19297 19286 0
19286 19297 19296 0
19296 19288 19286 0
19298 19288 19296 0
19288 18827 18822 0
19298 18827 19288 0
19299 18826 18830 0
19289 18826 19299 0
19299 19291 19289 0
19300 19291 19299 0
19291 19300 19301 0
19291 19301 19302 0
19291 19302 19293 0
19301 19303 19302 0
19302 19303 19304 0
19304 19303 19305 0
19306 19296 19297 0
19306 19307 19296 0
19296 19307 19298 0
19308 18831 18827 0
19307 19308 18827 0
19298 19307 18827 0
19299 18830 18834 0
19309 19300 19299 0
18835 19309 19299 0
18834 18835 19299 0
19309 19301 19300 0
19310 19301 19309 0
19310 19303 19301 0
19311 19303 19310 0
19303 19311 19312 0
19303 19312 19313 0
19303 19313 19305 0
19313 19312 19314 0
18837 19308 19315 0
18831 19308 18837 0
19309 18835 18840 0
18840 19310 19309 0
18842 19310 18840 0
19316 19311 19310 0
18843 19316 19310 0
18842 18843 19310 0
19316 19312 19311 0
19317 19312 19316 0
19312 19317 19314 0
19317 19318 19314 0
19317 18845 19318 0
18845 18846 19318 0
19318 18848 19319 0
18846 18848 19318 0
19319 18850 19320 0
18848 18850 19319 0
19320 18850 19321 0
19321 18850 18851 0
18853 19315 19322 0
18837 19315 18853 0
19316 18843 18858 0
19323 19317 19316 0
18860 19323 19316 0
18858 18860 19316 0
19317 18861 18845 0
19323 18861 19317 0
19321 18851 18864 0
19325 19321 18864 0
19324 19325 18864 0
19324 19326 19325 0
19325 19326 19327 0
19326 19328 19327 0
19327 19328 19329 0
19328 19330 19329 0
19329 19330 19331 0
19330 19332 19331 0
19331 19332 19333 0
19332 19334 19333 0
19333 19334 19335 0
19335 19334 19336 0
19337 18865 19322 0
19322 18865 18853 0
19338 18865 19337 0
18867 18865 19338 0
19323 18860 18871 0
18871 18861 19323 0
19339 18864 18875 0
19324 18864 19339 0
19339 19326 19324 0
19340 19326 19339 0
19340 19328 19326 0
19341 19328 19340 0
19341 19330 19328 0
19342 19330 19341 0
19342 19332 19330 0
19343 19332 19342 0
19343 19334 19332 0
19344 19334 19343 0
19334 19344 19336 0
19336 19344 19345 0
18877 19338 19346 0
18867 19338 18877 0
19339 18875 18884 0
18884 19340 19339 0
18886 19340 18884 0
18886 19341 19340 0
18888 19341 18886 0
18888 19342 19341 0
18890 19342 18888 0
18890 19343 19342 0
18892 19343 18890 0
19347 19344 19343 0
18893 19347 19343 0
18892 18893 19343 0
19344 19347 19348 0
19344 19348 19349 0
19344 19349 19345 0
19349 19348 19350 0
18895 19346 19351 0
18877 19346 18895 0
19347 18893 18904 0
18904 19348 19347 0
18906 19348 18904 0
19348 19353 19350 0
19348 18906 19353 0
18906 19352 19353 0
18907 19352 18906 0
19353 19352 19354 0
18909 19351 19355 0
18895 19351 18909 0
19352 18907 18911 0
18911 18913 19356 0
19352 18911 19356 0
19354 19352 19356 0
19356 18915 19357 0
18913 18915 19356 0
19359 19357 18915 0
19359 18915 18916 0
19359 18916 19358 0
19358 19360 19359 0
19359 19360 19361 0
19361 19360 19362 0
19364 19363 19365 0
18918 18909 19355 0
19363 18918 19355 0
19365 19363 19355 0
19358 18916 18922 0
18922 19360 19358 0
18924 19360 18922 0
19360 19367 19362 0
19360 18924 19367 0
18924 19366 19367 0
18925 19366 18924 0
19367 19366 19368 0
19370 19369 19371 0
19369 19372 19363 0
19369 19363 19364 0
19369 19364 19371 0
19363 18927 18918 0
19372 18927 19363 0
19366 18925 18928 0
18928 18930 19373 0
19366 18928 19373 0
19368 19366 19373 0
19373 18932 19374 0
18930 18932 19373 0
19374 18932 19375 0
19375 18932 18933 0
19370 19377 19369 0
19369 19377 19376 0
19372 19369 19376 0
18936 19372 19376 0
18935 18936 19376 0
18936 18927 19372 0
18933 19378 19375 0
18938 19378 18933 0
19380 19379 19381 0
19381 19379 19382 0
19377 19384 19376 0
19376 19384 19383 0
19376 18940 18935 0
19383 18940 19376 0
19378 18942 19385 0
18938 18942 19378 0
19385 18942 19386 0
19386 18942 18943 0
19380 19387 18945 0
19380 18945 18946 0
19380 18946 19379 0
19379 19389 19382 0
19379 18946 19389 0
18946 19388 19389 0
18947 19388 18946 0
19388 19390 19383 0
19388 19383 19384 0
19388 19384 19389 0
19383 18948 18940 0
19390 18948 19383 0
19386 18943 18949 0
19392 19386 18949 0
19391 19392 18949 0
18950 18945 19387 0
19391 18950 19387 0
19392 19391 19387 0
19388 18947 18951 0
18951 19390 19388 0
18952 19390 18951 0
18952 18948 19390 0
19391 18949 18953 0
18953 18950 19391 0
18960 18959 19393 0
18961 19393 19394 0
18960 19393 18961 0
18962 19394 19395 0
18961 19394 18962 0
18962 19395 18964 0
18966 18965 19396 0
19398 18967 18966 0
19397 19398 18966 0
19396 19397 18966 0
18967 19398 19399 0
18967 19399 19393 0
18967 19393 18959 0
19400 19394 19393 0
19400 19393 19399 0
19400 19399 19401 0
19400 19395 19394 0
19402 19395 19400 0
19395 19402 19403 0
18964 19395 19403 0
18968 18964 19403 0
18968 19403 18970 0
18976 18975 19404 0
19396 19405 19406 0
19396 18965 19405 0
18965 19404 19405 0
18976 19404 18965 0
19406 19397 19396 0
19401 19408 19400 0
19400 19408 19407 0
19407 19402 19400 0
19409 19402 19407 0
19409 19403 19402 0
19410 19403 19409 0
19403 18978 18970 0
19410 18978 19403 0
19412 18983 19411 0
18984 18983 19412 0
18984 19412 19413 0
18984 19413 19404 0
18984 19404 18975 0
19413 19405 19404 0
19414 19407 19408 0
19414 19415 19407 0
19407 19415 19409 0
19416 19410 19409 0
19416 19409 19415 0
19416 19415 19417 0
19410 18987 18978 0
19416 18987 19410 0
18983 19418 19411 0
